# .PCD v0.7 - Point Cloud Data file format
VERSION 0.7
FIELDS x y z
SIZE 4 4 4
TYPE F F F
COUNT 1 1 1
WIDTH 1274
HEIGHT 1
VIEWPOINT 0 0 0 1 0 0 0
POINTS 1274
DATA ascii
7.907058716 -1.565639734 1.269986749
7.908843517 -1.567427635 1.558972478
7.854287624 -1.559464931 1.838746667
7.363875389 -1.464765906 2.000205517
7.862168312 -1.57387042 -2.13686204
7.899047375 -1.584120989 -1.849994183
7.941561222 -1.594088793 -1.566223025
7.974032402 -1.603502512 -1.281562805
7.967522621 -1.605087161 -0.9928043485
7.984515667 -1.609960675 -0.7088994384
7.997389317 -1.615461826 -0.4253877997
7.99864006 -1.618620634 -0.1417466551
7.986046314 -1.600118399 0.1414674222
7.971941948 -1.600186944 0.4239223897
7.985637665 -1.604386091 0.7088994384
7.942503452 -1.598604679 0.9896357059
7.920908928 -1.597135305 1.273115396
7.945661545 -1.603569627 1.567368031
7.875537872 -1.5922786 1.845045209
7.362504482 -1.491228819 2.00124073
7.869876862 -1.604005456 -2.140485525
7.939292908 -1.621040463 -1.860791683
7.966725349 -1.628090024 -1.572329044
7.995479584 -1.636873841 -1.285942912
7.987151623 -1.63807416 -0.9959728718
8.004219055 -1.643030286 -0.7111654878
8.030828476 -1.651413918 -0.4274812341
8.024277687 -1.652986407 -0.1423051208
8.007843971 -1.633581042 0.1419560909
8.007400513 -1.636402488 0.4261204898
7.999507904 -1.63624382 0.7106425166
7.97965765 -1.63508594 0.9949979782
7.953985691 -1.632718801 1.279372692
7.963092804 -1.636036515 1.571947455
7.915741444 -1.62918818 1.855842948
7.340226173 -1.513408542 1.996582389
7.904239655 -1.638328075 -2.151355743
7.956770897 -1.652113318 -1.866190553
7.999725819 -1.662488818 -1.579961419
8.017082214 -1.669015288 -1.290323138
7.970016003 -1.662119746 -0.9945104718
8.035782814 -1.677299023 -0.7144774199
8.04876709 -1.682941318 -0.4287373126
8.057896614 -1.687785983 -0.1430032253
8.021962166 -1.664188862 0.1423051208
8.039084435 -1.670668125 0.4281092584
8.031099319 -1.670471191 0.7139544487
8.00139904 -1.667207479 0.9984102249
7.983335018 -1.666351557 1.285004377
7.980685234 -1.667252064 1.57652688
7.950350761 -1.663811326 1.86529088
7.346511364 -1.540119648 1.999688029
7.962394714 -1.682294369 -1.868890047
8.032288551 -1.698526263 -1.587593794
8.034398079 -1.70190227 -1.294077516
7.960280895 -1.689105988 -0.9940229058
8.068858147 -1.713616967 -0.7179636955
8.064333916 -1.715597987 -0.4298886955
8.093026161 -1.724655271 -0.1437362134
8.055234909 -1.700441241 0.1430032253
8.058606148 -1.70409143 0.4294700027
8.060306549 -1.705920577 0.7170920968
8.018834114 -1.700067878 1.001335144
8.014183044 -1.702005386 1.290948868
8.005541801 -1.701630473 1.58263278
7.973084927 -1.697640419 1.872039318
7.342979908 -1.566157341 2.000205517
7.964385986 -1.708870292 -2.17102623
7.990768909 -1.717449188 -1.876988292
8.053182602 -1.732334137 -1.592936397
8.070892334 -1.739091516 -1.300960779
7.965978622 -1.719395161 -0.995485425
8.101776123 -1.750186086 -0.7214499116
8.087575912 -1.750073433 -0.4314587712
8.118227005 -1.759672523 -0.144294709
8.084443092 -1.736106277 0.1436315179
8.06627655 -1.735151052 0.4302026927
8.091309547 -1.742013454 0.7204040289
8.047780037 -1.735581398 1.005722523
8.031362534 -1.73497498 1.294703364
8.03409481 -1.737032652 1.589501858
7.982346535 -1.728761077 1.875638485
7.345020294 -1.593417883 2.002276182
7.984796524 -1.742426991 -2.178272963
8.070101738 -1.765469551 -1.597515821
8.103363037 -1.775710106 -1.307218075
7.983196259 -1.752298474 -0.9984102249
8.115077019 -1.78273046 -0.7231929898
8.122380257 -1.787307382 -0.4336568713
8.133515358 -1.792734385 -0.1446786523
8.117406845 -1.772849202 0.1443296075
8.097242355 -1.771407008 0.4321914613
8.120212555 -1.777917266 0.723541677
8.082390785 -1.772592902 1.010841012
8.048409462 -1.768084884 1.298457623
8.070165634 -1.774340749 1.59789741
8.014326096 -1.764996886 1.884636521
7.33564043 -1.618214726 2.00124073
7.997525215 -1.774473071 -2.183449507
8.039458275 -1.786721945 -1.891385198
8.046778679 -1.795719147 -1.007184863
8.126306534 -1.814955592 -0.7247618437
8.162870407 -1.826113582 -0.4361690283
8.177942276 -1.832483053 -0.1455861777
8.142402649 -1.808109403 0.1448880732
8.128052711 -1.80790031 0.4341802299
8.133405685 -1.810580611 0.7252846956
8.116841316 -1.809867263 1.015959501
8.078819275 -1.804349542 1.304402232
8.098410606 -1.810209155 1.604766607
8.046149254 -1.801476717 1.893634558
7.318636894 -1.641274571 1.998135209
8.017665863 -1.808329582 -2.190696478
8.086396217 -1.826797605 -1.903982401
8.063323975 -1.823064566 -1.598660588
8.029118538 -1.818277121 -1.297206283
8.106282234 -1.838726521 -1.015472054
8.164608955 -1.853455067 -0.7287709713
8.183712006 -1.860795856 -0.4376344085
8.200743675 -1.867679238 -0.1461097598
8.163350105 -1.842684984 0.1453767568
8.166499138 -1.846391797 0.4365877211
8.158127785 -1.845996022 0.7280737758
8.137578011 -1.844332099 1.019371748
8.110998154 -1.841284871 1.310659528
8.115015984 -1.843686223 1.609346032
8.077815056 -1.838200092 1.902632594
7.324164391 -1.669387341 2.00124073
8.110359192 -1.861990094 -1.911180735
8.097800255 -1.863570809 -1.309408188
8.153977394 -1.879496098 -1.022296667
8.19691658 -1.890900493 -0.7322571874
8.194680214 -1.89339745 -0.4385764599
8.223396301 -1.903056502 -0.146633327
8.191951752 -1.879217148 0.1460050344
8.179469109 -1.879359245 0.4376344085
8.200176239 -1.885623932 0.7324314713
8.150436401 -1.877181888 1.02180922
8.148794174 -1.879799247 1.317855597
8.139137268 -1.879068017 1.615451932
8.099830627 -1.872971416 1.90938127
7.325820923 -1.696686864 2.003311396
8.085749626 -1.883100629 -2.21295476
8.128480911 -1.896044016 -1.9170295
8.188054085 -1.911446571 -1.626137137
8.158567429 -1.907566547 -1.320358515
8.193753242 -1.918810129 -1.028146386
8.232943535 -1.929503441 -0.7360920906
8.226910591 -1.931119323 -0.440669924
8.240062714 -1.937241793 -0.1470521837
8.220396996 -1.915971518 0.146633327
8.198143959 -1.913802028 0.4389951527
8.224588394 -1.921489 0.7352204919
8.180558205 -1.914214253 1.026440263
8.171030045 -1.914993167 1.322548628
8.17075634 -1.916433454 1.623084188
8.116007805 -1.906581521 1.91478014
7.323614597 -1.723133326 2.004346609
8.118607521 -1.92065382 -2.223825455
8.161633492 -1.933841228 -1.926477432
8.234501839 -1.955661058 -1.333811998
8.187005997 -1.947400212 -1.028146386
8.251354218 -1.964227915 -0.7383580208
8.233717918 -1.963067055 -0.4414026439
8.223526001 -1.96367085 -0.1468776613
8.254522324 -1.954329014 0.1473663151
8.236110687 -1.953006268 0.4414026439
8.252723694 -1.958467007 0.7383580208
8.216315269 -1.952856779 1.031802416
8.181591034 -1.947620869 1.325364351
8.206031799 -1.954952478 1.63147974
8.145318031 -1.943493366 1.923328161
7.31003952 -1.746890903 2.002276182
7.968382359 -1.921866894 -1.291574597
7.975621223 -1.926559091 -1.002310157
7.984941959 -1.930285692 -0.7150003314
8.137522697 -1.970177293 -0.4365877211
8.160263062 -1.97869885 -0.1458654255
8.095996857 -1.946665764 0.1446437389
8.070019722 -1.943399906 0.4328195155
8.271016121 -1.993330836 0.7406240702
8.24611187 -1.990374684 1.036433578
8.213145256 -1.985451698 1.331621885
8.229690552 -1.990971565 1.637585759
8.180151939 -1.982009649 1.933226109
7.287000656 -1.768296838 1.997617364
8.165058136 -1.991936445 -2.240389585
8.264848709 -2.020866871 -1.645599723
8.072910309 -1.976921678 -1.309720993
8.296600342 -2.034769773 -1.043745637
8.183261871 -2.008487701 -0.733477354
8.314849854 -2.043861866 -0.4465315342
8.347837448 -2.053515434 -0.1493559033
8.289243698 -2.023765326 0.148238942
8.294412613 -2.02656126 0.4452754557
8.302715302 -2.03166151 0.7441104054
8.269962311 -2.026706696 1.040333271
8.250641823 -2.023498297 1.338817835
8.249382973 -2.026242733 1.642928362
8.218598366 -2.021723509 1.944023609
7.282972813 -1.792913556 1.998135209
8.169306755 -2.023212194 -2.243495464
8.23208046 -2.040283918 -1.94807291
8.311096191 -2.062947035 -1.656284928
8.0912323 -2.009872437 -1.313788295
8.328334808 -2.071855783 -1.048620462
8.328930855 -2.0750916 -0.7472479343
8.335156441 -2.078188181 -0.4479969442
8.358078957 -2.087002277 -0.1496700346
8.33101368 -2.063260555 0.1491115689
8.343506813 -2.069445848 0.4483109713
8.349714279 -2.074079752 0.7489911318
8.294020653 -2.06178236 1.044233203
8.285698891 -2.06278491 1.34570086
8.28071785 -2.063079834 1.650560737
8.245882988 -2.057458401 1.952121854
7.274795532 -1.817856669 1.997617364
8.231877327 -2.067704678 -2.262648106
8.289164543 -2.085170507 -1.963369489
7.830149651 -1.971156836 -1.561262012
8.344667435 -2.103778839 -1.35633862
8.346073151 -2.107232094 -1.051789165
8.360636711 -2.112461329 -0.7507341504
8.354959488 -2.114129782 -0.4494623244
8.387944221 -2.124033928 -0.1503332257
8.360609055 -2.10159111 0.14977476
8.328849792 -2.095153332 0.4478922784
8.362110138 -2.106623888 0.7507341504
8.321418762 -2.099462271 1.048620462
8.309457779 -2.097987175 1.350706935
8.311532974 -2.101597786 1.658193111
8.259430885 -2.091491222 1.957070947
7.266854286 -1.84149611 1.997099757
8.258306503 -2.105015755 -2.271965742
8.30486393 -2.1184268 -1.968768358
8.359633446 -2.135505915 -1.668878317
8.387404442 -2.144159794 -1.364473224
8.369808197 -2.142774343 -1.055688858
8.387951851 -2.150539637 -0.7538717985
8.400136948 -2.155225754 -0.4522884786
8.399847031 -2.158277035 -0.1506822854
8.398161888 -2.140664339 0.1505775601
8.367930412 -2.136069536 0.4504044056
8.393311501 -2.145669937 0.7542204261
8.356719971 -2.13786912 1.053982735
8.32695961 -2.133352995 1.354774237
8.338749886 -2.13792491 1.665062308
8.292088509 -2.129046202 1.96651876
7.249156952 -1.863964558 1.993994117
8.269983292 -2.137223244 -2.277141809
7.76540184 -2.009715319 -1.841895938
8.386716843 -2.172075987 -1.675747514
8.400901794 -2.178879023 -1.367914677
8.410310745 -2.184453249 -1.06178236
8.411626816 -2.186362267 -0.7566607594
8.429286957 -2.194093943 -0.4542772472
8.444507599 -2.201203346 -0.1516247094
8.425486565 -2.17897892 0.1512058526
8.416493416 -2.179787874 0.4534398913
8.405437469 -2.178489923 0.7559635639
8.389555931 -2.177499294 1.059101224
8.351963043 -2.17085433 1.360092878
8.365436554 -2.175915241 1.671931386
8.322322845 -2.167802572 1.975516796
7.240736485 -1.888769746 1.99347651
8.361496925 -2.195157766 -1.985864639
8.417058945 -2.211314678 -1.683379889
8.414258957 -2.21371913 -1.371356249
8.437187195 -2.222900629 -1.06616962
8.438623428 -2.224853754 -0.7597984076
8.456336021 -2.232681513 -0.45616135
8.479304314 -2.241912127 -0.1523926109
8.437170982 -2.213450432 0.1515548974
8.439741135 -2.217273712 0.4551146626
8.434392929 -2.217442274 0.759275496
8.422217369 -2.217384815 1.064219713
8.390177727 -2.212081194 1.367601752
8.395756721 -2.215119839 1.679563761
8.356153488 -2.207790852 1.985414624
7.241569996 -1.916009784 1.995546937
8.33700943 -2.216748476 -2.299918175
8.38014698 -2.231351137 -1.992163181
8.441539764 -2.249275446 -1.689867496
8.44656086 -2.253771305 -1.377926469
8.435130119 -2.253875732 -1.066900849
8.478528976 -2.268643141 -0.7641561627
8.47550106 -2.26941824 -0.45762676
8.513918877 -2.28289032 -0.1531605124
8.471907616 -2.254200459 0.1523228139
8.470547676 -2.257004976 0.457208097
8.470879555 -2.258676767 0.7632846236
8.429768562 -2.250867128 1.06616962
8.426296234 -2.253091097 1.374797821
8.433489799 -2.256591797 1.688722491
8.361572266 -2.240476608 1.988563895
7.219911098 -1.937270641 1.991405845
8.364266396 -2.25685215 -2.30975318
8.411815643 -2.271256924 -2.001611233
8.474933624 -2.291473627 -1.69826293
8.489725113 -2.298653603 -1.386373878
8.450202942 -2.289535761 -1.069825768
8.510937691 -2.309180498 -0.7678167224
8.507601738 -2.31146431 -0.4598248601
8.529053688 -2.318891048 -0.1535793841
8.512253761 -2.296782494 0.1531954408
8.48768425 -2.293331861 0.4585688412
8.520240784 -2.305319786 0.7685139775
8.465930939 -2.292211056 1.071775675
8.454604149 -2.292312384 1.380742192
8.455476761 -2.295717478 1.69482851
8.338260651 -2.26701808 1.984964728
7.218696594 -1.963982463 1.992958903
8.401058197 -2.29826951 -2.322176695
8.444784164 -2.31340003 -2.011508942
8.493390083 -2.328309059 -1.703605652
8.527367592 -2.340824127 -1.393882751
8.470466614 -2.328384161 -1.073481798
8.548931122 -2.351557732 -0.7720001936
8.557248116 -2.357058764 -0.4629650414
8.56332016 -2.360339165 -0.1543473005
8.540423393 -2.337997437 0.1538586169
8.523931503 -2.335082054 0.4609762728
8.560177803 -2.348224163 0.7728717923
8.495757103 -2.333741426 1.076650381
8.475122452 -2.32966423 1.385435343
8.492840767 -2.337723255 1.703987241
8.339690208 -2.298699379 1.987214327
7.209934711 -1.988654971 1.992441058
8.419047356 -2.334808588 -2.329423428
8.482132912 -2.353897572 -2.022306681
8.526825905 -2.369506598 -1.712001324
8.55000782 -2.377556562 -1.398888588
8.506682396 -2.368707895 -1.079087853
8.590568542 -2.395297766 -0.7765322924
8.59747982 -2.398842096 -0.4655818343
8.607028961 -2.404745102 -0.1552897245
8.590432167 -2.382337809 0.1549057662
8.575386047 -2.381388903 0.4642210901
8.584560394 -2.387164593 0.7758350372
8.535782814 -2.375205517 1.082743883
8.5049963 -2.369837999 1.391692758
8.522863388 -2.376419544 1.711619496
8.328268051 -2.325294495 1.986314535
7.199228287 -2.012769938 1.991405845
8.450315475 -2.373685122 -2.340293884
8.502002716 -2.391406298 -2.029055119
8.556718826 -2.408408165 -1.719633698
8.570178032 -2.415425539 -1.403581738
8.540392876 -2.410248995 -1.084450006
8.620926857 -2.434601784 -0.780018568
8.625569344 -2.4391644 -0.4675706029
8.643261909 -2.44579649 -0.1560925245
8.59939003 -2.417179346 0.1552198976
8.611662865 -2.422250986 0.4666285217
8.613035202 -2.425881624 0.7791469693
8.563739777 -2.415224552 1.087374926
8.542717934 -2.410905123 1.399201512
8.540966988 -2.413630009 1.716962218
8.320100784 -2.354351282 1.986314535
7.196231365 -2.037684917 1.992441058
8.473565102 -2.412159443 -2.349093676
8.518390656 -2.426527262 -2.034904003
8.593569756 -2.45118618 -1.728792429
8.600111008 -2.454675198 -1.409839153
8.570527077 -2.449466705 -1.089324832
8.65068531 -2.47564292 -0.7835047841
8.655834198 -2.478750944 -0.4696640372
8.678883553 -2.488629818 -0.1568953395
8.645179749 -2.46101284 0.1561972499
8.645412445 -2.464341879 0.4689313471
8.644747734 -2.467415333 0.7828074694
8.584314346 -2.451786995 1.091030955
8.583629608 -2.454832315 1.407336116
8.578214645 -2.454903364 1.726121068
8.30850029 -2.380855083 1.985414624
7.177933216 -2.059595346 1.989335179
8.517495155 -2.455228329 -2.363587618
8.558547974 -2.470298052 -2.046601295
8.619345665 -2.489475727 -1.735661507
8.640828133 -2.498948574 -1.417973757
8.592432022 -2.48820281 -1.093224645
8.684529305 -2.516515732 -0.7873395681
8.685492516 -2.52008152 -0.4717574716
8.697468758 -2.525202274 -0.1573840082
8.674963951 -2.502259493 0.1568953395
8.669813156 -2.502413273 0.4707107544
8.686284065 -2.510452032 0.7873395681
8.632909775 -2.498291731 1.098343253
8.607698441 -2.492623806 1.412654877
8.607304573 -2.495766878 1.733753443
8.285167694 -2.405495644 1.981815457
7.176629543 -2.085003376 1.990888238
8.536688805 -2.49306798 -2.371352196
8.602683067 -2.513970852 -2.059198618
8.644519806 -2.529472351 -1.742530704
8.679887772 -2.541465998 -1.425795317
8.622231483 -2.527852297 -1.098099351
8.708190918 -2.556355238 -0.7903029323
8.723078728 -2.562379599 -0.4742695689
8.73272419 -2.568524361 -0.1581868082
8.70500946 -2.542224646 0.157593444
8.69361496 -2.542190552 0.4724901915
8.713797569 -2.551394701 0.7906515002
8.658867836 -2.536952496 1.102730393
8.62737751 -2.530996561 1.417347908
8.644191742 -2.537567616 1.742912292
8.279013634 -2.43350625 1.982265353
7.176720619 -2.112223625 1.992958903
8.54928112 -2.532412291 -2.377563715
8.629887581 -2.559566498 -2.068196535
8.676149368 -2.574934483 -1.750926256
8.703700066 -2.58641696 -1.431427002
8.665288925 -2.578295469 -1.104924083
8.742230415 -2.602849722 -0.7943120599
8.754831314 -2.609928608 -0.4765723944
8.75729084 -2.612325668 -0.1588151008
8.736912727 -2.589650393 0.1583613455
8.731659889 -2.589751244 0.4751069844
8.734496117 -2.593909979 0.7934405804
8.69047451 -2.584138393 1.108092785
8.655462265 -2.575371742 1.423605323
8.675330162 -2.584579706 1.751307845
8.272914886 -2.467834949 1.983165264
7.153748512 -2.135344028 1.988817692
8.590349197 -2.577227831 -2.391540051
8.653082848 -2.597695351 -2.075845003
8.708471298 -2.617637634 -1.759321809
8.719666481 -2.622662067 -1.435494304
8.698508263 -2.619609833 -1.110286355
8.771243095 -2.64485383 -0.7977982759
8.784370422 -2.650484562 -0.4786658287
8.797889709 -2.657914639 -0.1597226262
8.758922577 -2.627802372 0.1589198261
8.774211884 -2.635728598 0.4779331386
8.7654562 -2.636434555 0.7971010804
8.719875336 -2.62438488 1.112967491
8.689922333 -2.618678331 1.430801392
8.700545311 -2.623535872 1.758177042
8.264685631 -2.49525547 1.983165264
7.149949551 -2.161420584 1.989853024
8.626120567 -2.619171143 -2.403963327
8.677523613 -2.638087749 -2.083943367
8.752335548 -2.66250062 -1.770007253
8.752030373 -2.665745974 -1.442377448
8.725388527 -2.660959244 -1.114917397
8.811970711 -2.689044952 -0.8023303747
8.809446335 -2.691637039 -0.4805498719
8.830626488 -2.70147872 -0.1604905277
8.79561615 -2.672312737 0.1597575247
8.805085182 -2.678547382 0.4801312387
8.802409172 -2.67941165 0.801284492
8.744839668 -2.66522336 1.117354751
8.737408638 -2.666291952 1.440187335
8.736399651 -2.6676507 1.767335892
8.255925179 -2.524089575 1.983165264
7.149749756 -2.188627243 1.991923451
8.64647007 -2.658349752 -2.412245512
8.722273827 -2.68498826 -2.096990347
8.786142349 -2.706327677 -1.778784394
8.793638229 -2.711997986 -1.450824857
8.746393204 -2.700771093 -1.11881721
8.852024078 -2.735080957 -0.8068624735
8.845790863 -2.736537933 -0.4830620289
8.857435226 -2.743528128 -0.1611537188
8.835928917 -2.718286753 0.1606650501
8.828130722 -2.719260931 0.4819106162
8.852027893 -2.728313208 0.8066881895
8.784801483 -2.710951567 1.123691916
8.763908386 -2.707854986 1.446131825
8.768298149 -2.710887909 1.775731444
8.234032631 -2.548858881 1.980015993
7.145757198 -2.214715004 1.992958903
8.692474365 -2.705739975 -2.427774668
8.753779411 -2.728174686 -2.106888056
8.810378075 -2.747501373 -1.785653591
8.83691597 -2.759161949 -1.459585309
8.784279823 -2.746092796 -1.124910593
8.88045311 -2.777859449 -0.8103486896
8.881928444 -2.781725168 -0.4855741858
8.88215065 -2.785199881 -0.1617820114
8.868390083 -2.762196064 0.1614329666
8.860532761 -2.763142109 0.4842134416
8.869076729 -2.76750493 0.8091285229
8.818864822 -2.755215406 1.129297972
8.784567833 -2.747866154 1.4511379
8.800001144 -2.754379749 1.784126997
8.221365929 -2.57641983 1.979115963
7.139825821 -2.240223169 1.99347651
8.72351265 -2.74883914 -2.439162731
8.786946297 -2.772199869 -2.117236137
8.838176727 -2.790058851 -1.793285847
8.863018036 -2.801303148 -1.465529799
8.823847771 -2.792310715 -1.131247878
8.897294998 -2.817261457 -0.8127890825
8.933088303 -2.832026482 -0.4889236689
8.923836708 -2.832521677 -0.1627244353
8.900650024 -2.806364059 0.1622008681
8.892734528 -2.807281733 0.4865162075
8.90116024 -2.811649561 0.8129634261
8.85840416 -2.801545143 1.135635138
8.820118904 -2.792824268 1.458646655
8.84648037 -2.802870274 1.795575619
8.219753265 -2.607459307 1.980915666
7.111709118 -2.258699656 1.987782478
8.743310928 -2.788665295 -2.447444916
8.810631752 -2.813525677 -2.125334263
8.880747795 -2.837624073 -1.803971171
8.883289337 -2.841853857 -1.470535636
8.861309052 -2.838232517 -1.13734138
8.940532684 -2.865327835 -0.8176698089
8.953575134 -2.872954845 -0.4905984104
8.961491585 -2.878945351 -0.1635970622
8.928901672 -2.84957552 0.1628989726
8.936150551 -2.855326653 0.4894469976
8.94063282 -2.858479023 0.8174955249
8.895835876 -2.847579479 1.14172864
8.857344627 -2.838667393 1.466468334
8.862814903 -2.842126131 1.800918221
8.20689106 -2.634944201 1.980015993
7.107460022 -2.284692764 1.988817692
8.799708366 -2.840532303 -2.46607995
8.843406677 -2.85804677 -2.135681868
8.923091888 -2.885520458 -1.814656377
8.9146595 -2.886231184 -1.47741878
8.885338783 -2.8801651 -1.14172864
8.975960732 -2.911271334 -0.8218532801
8.977685928 -2.915294647 -0.4924825132
8.997028351 -2.925047874 -0.1644347906
8.964569092 -2.895477057 0.1637366861
8.962237358 -2.898178816 0.4914357662
8.9760952 -2.904390812 0.8216789365
8.912280083 -2.887178898 1.145141006
8.905632019 -2.888460636 1.476167321
8.897657394 -2.887590885 1.81007719
8.195789337 -2.662973166 1.979565859
7.11597538 -2.31486702 1.99347651
8.83748436 -2.886828423 -2.479538441
8.885237694 -2.90585947 -2.14827919
8.952149391 -2.929472685 -1.822670579
8.964600563 -2.93701148 -1.487430573
8.914841652 -2.924155712 -1.146847129
9.018749237 -2.959982157 -0.826734066
9.020583153 -2.964072466 -0.4954133332
9.029070854 -2.968607426 -0.1652026922
8.99622345 -2.940419197 0.1645045877
8.9886446 -2.939678192 0.4934245348
9.018918991 -2.95306468 0.8265596628
8.949305534 -2.933730364 1.151234508
8.933544159 -2.930290222 1.482424736
8.936019897 -2.934557676 1.819999218
8.15867424 -2.682435513 1.972817421
7.124776363 -2.343885183 1.998135209
8.867708206 -2.930996656 -2.490926504
8.919957161 -2.94999361 -2.159076929
8.982871056 -2.974279642 -1.831066012
8.999815941 -2.981633186 -1.494939446
8.946546555 -2.967451096 -1.152209401
9.051852226 -3.005886793 -0.8307431936
9.056192398 -3.009083986 -0.4979254901
9.062295914 -3.014624357 -0.1660054922
9.043383598 -2.989061832 0.165551722
9.029523849 -2.987977743 0.496250689
9.044489861 -2.996433496 0.8298715949
8.982866287 -2.977757692 1.156840444
8.949507713 -2.97016716 1.486804843
8.978409767 -2.98149848 1.830684423
8.157132149 -2.71193552 1.974617124
7.078057766 -2.355928659 1.987264752
8.890919685 -2.971409559 -2.500244141
8.955805779 -2.996570587 -2.170324564
9.01763916 -3.019010305 -1.840224981
9.034304619 -3.028096914 -1.50244832
8.994474411 -3.018239498 -1.159765363
9.075299263 -3.048886776 -0.8338807821
9.089176178 -3.055314302 -0.5003329515
9.100993156 -3.062822819 -0.1669130176
9.074617386 -3.034563541 0.1663196385
9.070175171 -3.036598682 0.4990768135
9.068511009 -3.037801504 0.833009243
9.032643318 -3.029293537 1.164640069
8.989646912 -3.018365383 1.495252371
9.012612343 -3.027826548 1.839843154
8.140227318 -2.737907648 1.972817421
7.060636997 -2.377538681 1.9846766
8.916567802 -3.016357183 -2.510596752
8.998821259 -3.045932531 -2.183371544
9.051138878 -3.067162991 -1.849383712
9.051205635 -3.070708513 -1.507141352
9.032757759 -3.066208363 -1.166102529
9.115534782 -3.097856045 -0.8385872245
9.130860329 -3.106620073 -0.5032637119
9.141358376 -3.111972094 -0.1678554416
9.105643272 -3.080318689 0.16708754
9.116271973 -3.087461233 0.5022170544
9.106373787 -3.087652683 0.8375413418
9.059610367 -3.073560238 1.169514894
9.03704071 -3.069421053 1.504951239
9.031193733 -3.0709517 1.845949173
8.133827209 -2.768980503 1.973717093
7.055952072 -2.403416395 1.985711813
8.971786499 -3.069979429 -2.529231548
9.020781517 -3.090263128 -2.191469908
9.09237957 -3.116563559 -1.860069156
9.094615936 -3.120877743 -1.51621449
9.055252075 -3.110903502 -1.170489907
9.149887085 -3.145200729 -0.8427706957
9.144511223 -3.146922588 -0.504624486
9.181489944 -3.161440849 -0.1687978804
9.135912895 -3.127922058 0.1678554416
9.139450073 -3.130915642 0.5041011572
9.148310661 -3.13751936 0.8424220085
9.093345642 -3.122216225 1.175364614
9.071106911 -3.116350412 1.512459993
9.076113701 -3.121613264 1.857397556
8.120426178 -2.796087265 1.972817421
7.049346447 -2.42866087 1.986229539
9.008481026 -3.117705345 -2.542690277
9.058362007 -3.136739016 -2.203167439
9.125963211 -3.163716078 -1.869227767
9.140205383 -3.170440674 -1.525600672
9.086141586 -3.155241251 -1.17585206
9.193426132 -3.196093321 -0.847825706
9.192503929 -3.197571278 -0.5078693032
9.223276138 -3.21188426 -0.1697752178
9.184071541 -3.178474665 0.1689374894
9.168096542 -3.176529884 0.5062992573
9.186243057 -3.186409712 0.8469541073
9.131700516 -3.169276237 1.181701779
9.108688354 -3.164852619 1.520594597
9.113926888 -3.168455362 1.867319703
8.09270668 -2.816594601 1.968318462
7.048122883 -2.455795527 1.988300085
9.001740456 -3.148837328 -2.543725729
9.089660645 -3.183153391 -2.213515282
9.156184196 -3.208244324 -1.877623558
9.175683022 -3.218673229 -1.533422351
9.123768806 -3.204039812 -1.182189226
9.231651306 -3.243734837 -0.8523578048
9.241577148 -3.25084734 -0.5112187862
9.238413811 -3.253359318 -0.1702638865
9.223880768 -3.228349924 0.1698799282
9.211613655 -3.227666378 0.5093346834
9.220751762 -3.232675076 0.8511376381
9.167408943 -3.217567682 1.187795162
9.142313957 -3.212344408 1.52810359
9.154671669 -3.218481779 1.878005147
8.082825661 -2.844826221 1.968318462
7.03221941 -2.477814913 1.986229539
8.990694046 -3.180240154 -2.543725729
9.14278698 -3.237630844 -2.229261637
9.187491417 -3.25526619 -1.8864007
9.207211494 -3.26587081 -1.5406183
9.16864872 -3.255795717 -1.189501405
9.250309944 -3.286611795 -0.8551467657
9.279100418 -3.300489664 -0.5139402747
9.279748917 -3.304369926 -0.1712412089
9.261569023 -3.27787447 0.1707874537
9.253004074 -3.278478384 0.512265563
9.246969223 -3.278156519 0.8546238542
9.217856407 -3.271458387 1.195838571
9.185025215 -3.26341629 1.537176728
9.182227135 -3.264227629 1.886019111
8.072845459 -2.87302351 1.968318462
7.016248226 -2.499753237 1.984158874
8.997727394 -3.218109846 -2.548902035
9.17179203 -3.283976793 -2.239159346
9.23336792 -3.307842493 -1.89823091
9.232943535 -3.311327696 -1.546875715
9.203935623 -3.304550648 -1.195594907
9.28753376 -3.336395264 -0.8596788645
9.303231239 -3.345701218 -0.5159290433
9.31578064 -3.352050304 -0.1721138358
9.299023628 -3.32770133 0.1716949791
9.302252769 -3.330688238 0.5156149864
9.308616638 -3.336633205 0.8614220023
9.25869751 -3.322387934 1.202663302
9.222491264 -3.311212778 1.545311332
9.213270187 -3.311532974 1.894796252
8.070101738 -2.903824091 1.970117927
7.000649452 -2.520388842 1.982088327
8.982806206 -3.248184204 -2.547866821
9.076558113 -3.283876181 -2.218463898
9.277142525 -3.360110044 -1.909679294
9.277627945 -3.362118006 -1.556261778
9.245179176 -3.35400939 -1.202419639
9.273958206 -3.368113995 -0.8595045805
9.271436691 -3.369030237 -0.5147776604
9.302143097 -3.383864641 -0.1720789373
9.301099777 -3.363279343 0.1719393134
9.305594444 -3.368578196 0.5164524317
9.289419174 -3.366391182 0.8607247472
9.230833054 -3.346982718 1.200469613
9.218304634 -3.346081018 1.546562791
9.252061844 -3.360161781 1.905099869
8.053102493 -2.927906513 1.968318462
6.99362421 -2.545470953 1.982605934
8.984686852 -3.282595158 -2.551490307
9.030265808 -3.302820921 -2.209915876
9.304664612 -3.405023813 -1.917693257
9.319624901 -3.414187431 -1.565334916
9.265096664 -3.397880077 -1.206563115
9.311368942 -3.416693687 -0.8640366793
9.304615021 -3.417901516 -0.5172898173
9.327811241 -3.430117846 -0.1727770269
9.298694611 -3.399158955 0.1721138358
9.286275864 -3.398294449 0.516033709
9.29878521 -3.4047122 0.862642169
9.235868454 -3.385332108 1.202663302
9.245512009 -3.392528057 1.553133011
9.299251556 -3.414089441 1.917311668
8.031858444 -2.95196557 1.965619087
6.995574474 -2.573870182 1.985711813
8.955052376 -3.307244778 -2.546313763
8.989437103 -3.323509932 -2.202717543
9.336915016 -3.453829527 -1.926852107
9.355814934 -3.464533806 -1.57346952
9.33880043 -3.461940765 -1.217775106
9.334878922 -3.462340832 -0.8673486114
9.339436531 -3.46773982 -0.5199065804
9.411375046 -3.498189449 -0.1745571792
9.33178997 -3.448231459 0.1729515642
9.313694 -3.445240021 0.5182318091
9.339162827 -3.45651412 0.8675228953
9.27797699 -3.437551498 1.209731698
9.318809509 -3.456380367 1.567525029
9.338814735 -3.465654373 1.927997112
8.01785183 -2.978626728 1.964719057
6.981115341 -2.596253395 1.984158874
8.925354004 -3.331727743 -2.541137457
8.968653679 -3.351458311 -2.200467825
9.378130913 -3.50633955 -1.93791914
9.393614769 -3.515866518 -1.581917048
9.432616234 -3.534218073 -1.231668234
9.310933113 -3.492333174 -0.8663027287
9.422639847 -3.536107779 -0.525244832
9.468369484 -3.557039976 -0.175848648
9.437714577 -3.524862528 0.1751505584
9.436307907 -3.528090954 0.5257682204
9.44460392 -3.533071756 0.8785045147
9.405345917 -3.52212882 1.228012085
9.364027023 -3.510383129 1.577224016
9.376292229 -3.516847849 1.938300729
8.014702797 -3.009336233 1.96651876
6.961160183 -2.616528273 1.981053114
8.914890289 -3.365100861 -2.541655064
8.949608803 -3.379990101 -2.19866848
9.409290314 -3.557351112 -1.94707787
9.42685318 -3.567752838 -1.589738727
9.461063385 -3.582587719 -1.237030506
9.308001518 -3.528344154 -0.8671742678
9.387208939 -3.5621171 -0.5239887834
9.517587662 -3.613491535 -0.1770005077
9.485220909 -3.580383062 0.1762675047
9.504273415 -3.591365099 0.530269146
9.493087769 -3.59092617 0.8842568398
9.467258453 -3.583045006 1.237761736
9.429301262 -3.57244277 1.590364456
9.411067009 -3.569291353 1.948222876
8.001796722 -3.037999392 1.966068983
6.957402229 -2.642869234 1.982605934
8.92655468 -3.405149937 -2.548384428
8.944441795 -3.415550232 -2.200467825
9.387644768 -3.58667016 -1.945169806
9.397736549 -3.594285727 -1.586923003
9.442307472 -3.615111351 -1.236299276
9.404772758 -3.604505062 -0.8774586916
9.445581436 -3.622036934 -0.5279663205
9.480010033 -3.639034986 -0.1765467376
9.490716934 -3.622254372 0.1766165644
9.48358345 -3.623324633 0.5298504233
9.47491169 -3.621906996 0.883733809
9.420690536 -3.604949713 1.233374357
9.421678543 -3.609098434 1.59130311
9.383883476 -3.596498966 1.945169806
7.98932457 -3.065214396 1.965619087
6.95668602 -2.67181468 1.985194206
8.935643196 -3.446186304 -2.554595947
8.974280357 -3.462886572 -2.210815668
9.337808609 -3.60690546 -1.937537432
9.377129555 -3.625856161 -1.585671425
9.394454956 -3.634440422 -1.231668234
9.421858788 -3.648824215 -0.8802475929
9.419207573 -3.651578665 -0.5272336006
9.437420845 -3.660533905 -0.1759882718
9.461222649 -3.648884773 0.1763024032
9.444792747 -3.64633584 0.5283849835
9.446704865 -3.650864124 0.8823393583
9.391386032 -3.631368637 1.231180668
9.368494034 -3.62627697 1.584419966
9.361486435 -3.627322435 1.943261862
7.967135429 -3.090247869 1.962919593
6.9473176 -2.696081877 1.985194206
8.921172142 -3.472839594 -2.553560734
9.002695084 -3.508193493 -2.220713615
9.300823212 -3.626239061 -1.932194829
9.350971222 -3.649552345 -1.583168507
9.367559433 -3.659794807 -1.229718328
9.384370804 -3.668250799 -0.8778072596
9.394669533 -3.6760571 -0.5265008807
9.401024818 -3.682328224 -0.1755345166
9.424846649 -3.670804739 0.175848648
9.414040565 -3.670380592 0.5273382664
9.416627884 -3.6732831 0.8805962801
9.362649918 -3.655993462 1.228987098
9.323301315 -3.644379616 1.5787884
9.351872444 -3.657429218 1.943643451
7.961016178 -3.116682768 1.963819385
6.941936016 -2.720515013 1.986229539
8.844274521 -3.478504181 -2.534925699
9.033912659 -3.556731701 -2.231511354
9.269843102 -3.651488066 -1.928378701
9.306934357 -3.669852018 -1.577849746
9.332569122 -3.68372488 -1.226793528
9.332592964 -3.685617208 -0.8741467595
9.366921425 -3.702954292 -0.5256635547
9.369520187 -3.707763672 -0.1751854569
9.385924339 -3.69342947 0.1753599793
9.377013206 -3.693703413 0.5259775519
9.366676331 -3.691520452 0.877110064
9.333211899 -3.682096004 1.226793528
9.174563408 -3.623208284 1.555635929
9.30983448 -3.678507805 1.937537432
7.957337856 -3.147320271 1.965619087
6.914435387 -2.737618685 1.981053114
8.814126015 -3.502221584 -2.529749393
9.211571693 -3.663867235 -2.278750896
9.26798439 -3.688178778 -1.930668473
9.283057213 -3.697930813 -1.575972438
9.315965652 -3.714808941 -1.226305962
9.319671631 -3.718171597 -0.8741467595
9.333535194 -3.727480173 -0.5245121121
9.349744797 -3.735845804 -0.1750458479
9.343243599 -3.7143507 0.1748015136
9.353577614 -3.72034955 0.5253495574
9.342627525 -3.719771624 0.8760641813
9.298173904 -3.705833197 1.223868608
9.147818565 -3.647758961 1.553133011
9.262293816 -3.69715476 1.930286884
7.949922085 -3.176523209 1.96651876
6.901731491 -2.759098291 1.980017781
8.886109352 -3.566789627 -2.554078341
9.244580269 -3.712548971 -2.289998293
9.309700966 -3.742475986 -1.942116857
9.309229851 -3.744173765 -1.582542896
9.358839035 -3.767922878 -1.23361814
9.373161316 -3.77749157 -0.8804219365
9.365579605 -3.776335955 -0.5270242691
9.3978405 -3.79315877 -0.1761977077
9.347576141 -3.752017498 0.1751156449
9.347947121 -3.755955696 0.5257682204
9.311100006 -3.744925976 0.8743210435
9.261893272 -3.727013111 1.220700026
9.124035835 -3.675239801 1.551255822
9.186249733 -3.702163935 1.916930079
7.93572998 -3.20141077 1.965619087
6.901015282 -2.786789894 1.982605934
8.99419117 -3.644849777 -2.588760138
9.246011734 -3.750657082 -2.293597698
9.293601036 -3.771850824 -1.941353679
9.31806469 -3.785568237 -1.586297154
9.341952324 -3.799072504 -1.233130693
9.379038811 -3.81606245 -0.8821650743
9.363438606 -3.813525438 -0.5276523232
9.384542465 -3.825940132 -0.1761977077
9.39743042 -3.810169935 0.1763024032
9.379195213 -3.806589603 0.5282803178
9.283862114 -3.769785643 0.8729265332
9.226759911 -3.750350714 1.217775106
9.085536003 -3.696644545 1.546875715
9.125992775 -3.714961767 1.907008052
7.910069942 -3.223209381 1.96201992
6.880512714 -2.806484222 1.979500175
9.013595581 -3.689395666 -2.598077774
9.241879463 -3.786602736 -2.295847178
9.289461136 -3.807991743 -1.943261862
9.323068619 -3.825570107 -1.589425921
9.346996307 -3.83920145 -1.235568047
9.37303257 -3.851807356 -0.8828623295
9.383317947 -3.859862804 -0.5295364261
9.402565002 -3.871618271 -0.1767910719
9.378521919 -3.840676546 0.1761977077
9.37693882 -3.843851328 0.5289083719
9.252212524 -3.794608831 0.8711833954
9.20626545 -3.779519558 1.216800094
9.05430603 -3.720827818 1.543747067
9.180153847 -3.774417639 1.921127915
7.909582615 -3.255250454 1.964719057
6.87424612 -2.831956387 1.980535388
8.96495533 -3.706075907 -2.587724924
9.246611595 -3.826291084 -2.300346136
9.299694061 -3.850157738 -1.948222876
9.327906609 -3.865653038 -1.592554569
9.362876892 -3.883975029 -1.239467859
9.368731499 -3.888320208 -0.883733809
9.40298748 -3.906385899 -0.5314204693
9.407457352 -3.912094355 -0.1771401316
9.387233734 -3.882561922 0.1766165644
9.383763313 -3.884963036 0.5300597548
9.209459305 -3.814683437 0.8683944345
9.17468071 -3.804029226 1.214362741
9.046736717 -3.754682064 1.544685602
9.154230118 -3.801168919 1.918456674
7.901770592 -3.284336329 1.965619087
6.848267078 -2.849256277 1.975876808
8.937702179 -3.731392384 -2.583583593
9.263765335 -3.871318102 -2.307994366
9.302498817 -3.889411926 -1.951657295
9.321645737 -3.901240587 -1.593806028
9.367569923 -3.924303532 -1.241905212
9.373476982 -3.928701639 -0.8854770064
9.396660805 -3.942275524 -0.5318391919
9.402963638 -3.94878006 -0.177314654
9.40683651 -3.929178953 0.1772448421
9.375673294 -3.920006275 0.5303737521
9.174031258 -3.837580204 0.8663027287
9.14486599 -3.829131603 1.21216917
9.110090256 -3.818308592 1.557826042
9.111937523 -3.820952415 1.912350655
7.897444725 -3.31491518 1.967418551
6.838279724 -2.873143673 1.975876808
8.931743622 -3.765569925 -2.585654259
9.217879295 -3.889993429 -2.29989624
9.27982235 -3.918041945 -1.949749231
9.300691605 -3.930679321 -1.592554569
9.328219414 -3.946151257 -1.238492846
9.343192101 -3.954407692 -0.8839081526
9.35893631 -3.96492362 -0.5304784179
9.372552872 -3.974551678 -0.1770005077
9.387537003 -3.959659338 0.1771401316
9.328812599 -3.938726187 0.5284896493
9.153237343 -3.866479158 0.8656055331
9.083907127 -3.840929985 1.205832005
9.087611198 -3.846235752 1.556261778
9.08046627 -3.845080614 1.908534527
7.875060558 -3.337899685 1.964719057
6.828208923 -2.89699626 1.975876808
8.927433014 -3.800508261 -2.588242531
9.200657845 -3.920617819 -2.298996449
9.240804672 -3.939631701 -1.944406629
9.272380829 -3.956918001 -1.590051651
9.287006378 -3.96699214 -1.234836817
9.312843323 -3.979950666 -0.8823393583
9.315657616 -3.985000372 -0.5288037062
9.33656311 -3.997799158 -0.1765816659
9.355258942 -3.984567881 0.1767910719
9.292960167 -3.961866856 0.5272336006
9.121358871 -3.890589237 0.8638623357
9.064967155 -3.870276451 1.205100656
9.043250084 -3.864737272 1.550943017
9.048937798 -3.869035721 1.90471828
7.86873579 -3.367668629 1.966068983
6.818055153 -2.920813322 1.975876808
6.115195751 -2.628560066 -1.771927357
6.15093708 -2.646466732 -1.535962462
6.16683197 -2.654581547 -1.296800852
6.203496933 -2.672931433 -1.063180327
6.222219467 -2.682286263 -0.8268182278
9.297554016 -4.017632484 -0.1760929823
9.32292366 -4.009299278 0.176442042
9.25592041 -3.982398987 0.5258728862
9.08942318 -3.914524078 0.8621191978
9.034996033 -3.894823074 1.202907085
9.004991531 -3.883752584 1.546562791
9.019154549 -3.893595695 1.901283741
7.954131603 -3.435468912 1.990363598
6.806558132 -2.942640066 1.975359082
9.210811615 -4.004975319 -1.584107041
9.238647461 -4.018995762 -1.231912017
6.216639519 -2.706942797 -0.5894960761
6.239850044 -2.71964097 -0.3545249104
9.296735764 -4.034620285 0.1761977077
9.229839325 -4.007503033 0.5251401663
9.039847374 -3.928761482 0.8586329818
9.016569138 -3.922387123 1.202175736
8.975761414 -3.906497717 1.543747067
8.986394882 -3.914857388 1.897085905
6.784367561 -2.959787846 1.971735597
5.956541538 -2.609780788 -1.491422176
9.179391861 -4.027560234 -1.580978513
9.199116707 -4.040044785 -1.228499651
9.211176872 -4.049177647 -0.8765870929
9.234620094 -4.061405659 -0.5265008807
9.233388901 -4.064711571 -0.1753948778
6.252432346 -2.740722179 0.3555716276
9.015822411 -3.953916311 0.8575871587
8.987154007 -3.945084333 1.199982166
8.947602272 -3.931448221 1.54124403
8.944607735 -3.931995392 1.890980124
7.916293144 -3.483252525 1.986764431
6.763386726 -2.978779554 1.968629718
9.144701958 -4.052374363 -1.577536821
9.170440674 -4.065694809 -1.226549745
9.187880516 -4.077265263 -0.8757154942
9.195942879 -4.084685326 -0.5251401663
9.210007668 -4.092857361 -0.1752203703
9.226992607 -4.079210758 0.1753948778
9.159628868 -4.05325222 0.5227327347
8.990339279 -3.982092619 0.856541276
8.942475319 -3.962759495 1.195838571
8.921183586 -3.9570508 1.539053917
8.915781021 -3.958379269 1.887927175
7.901693344 -3.511452436 1.986314535
6.761774063 -3.006294489 1.97121799
5.960175037 -2.659875393 -1.73724556
6.255113602 -2.795427561 -1.323514104
9.112469673 -4.076204777 -1.574408293
9.1391716 -4.091977596 -1.224356055
9.159046173 -4.102795601 -0.8743210435
9.15793705 -4.106137753 -0.5237794518
9.173051834 -4.116761208 -0.1748015136
9.193719864 -4.104849339 0.1750458479
9.183004379 -4.103909969 0.5249308348
8.969108582 -4.010197639 0.8558440208
8.915206909 -3.989832163 1.194132447
8.890396118 -3.982454062 1.536238194
8.894742966 -3.986264944 1.8864007
6.74894762 -3.030266047 1.970700264
5.90858078 -2.661621332 -1.724822283
6.258850098 -2.822034597 -1.575103879
9.083782196 -4.101484776 -1.571905136
9.103124619 -4.114044189 -1.221431136
9.119253159 -4.123250008 -0.8718807101
9.134449959 -4.133962631 -0.5232561231
9.136767387 -4.138854027 -0.1743826568
9.170220375 -4.132808208 0.1748713106
9.144955635 -4.125262737 0.5235701203
8.93689537 -4.033285141 0.854100883
8.886753082 -4.014389992 1.192182541
8.853041649 -4.002882957 1.532170892
8.870040894 -4.012434483 1.884110928
6.734809875 -3.052211046 1.969665051
5.885185242 -2.675833225 -1.72068119
8.994649887 -4.093411922 -2.271552324
9.004939079 -4.099991322 -1.915021896
9.042448044 -4.120880604 -1.567212224
9.078594208 -4.139267445 -1.219968677
9.079428673 -4.143476486 -0.8694403172
9.103613853 -4.158353806 -0.5223140121
9.10662365 -4.161650181 -0.1740685105
9.137536049 -4.156513214 0.1745222807
9.131225586 -4.155566216 0.5235701203
8.893752098 -4.051241875 0.8513119221
8.867267609 -4.042915821 1.19145143
8.823543549 -4.024840832 1.529355049
8.834549904 -4.033587456 1.879531503
7.891703606 -3.604776859 1.993062973
6.710595131 -3.068101168 1.965523839
5.879790783 -2.69694519 -1.721716404
8.952691078 -4.110207558 -2.264353991
8.987725258 -4.128191471 -1.914258718
9.007194519 -4.14094162 -1.563457727
9.050390244 -4.162714481 -1.21801877
9.047540665 -4.165230751 -0.8676971793
9.071634293 -4.180160999 -0.5212673545
9.076428413 -4.184290886 -0.1737543643
9.090987206 -4.171779156 0.1738939881
9.099243164 -4.177490234 0.5225233436
8.865786552 -4.074057579 0.8499174714
8.810528755 -4.052390099 1.185601592
8.804763794 -4.051600933 1.528416395
8.803294182 -4.054648876 1.875715375
6.702138901 -3.091146946 1.966041565
5.877828121 -2.719673395 -1.72378695
8.979077339 -4.164139748 -1.560954809
9.01419735 -4.184251308 -1.21509397
9.026450157 -4.191854 -0.8669999838
9.032367706 -4.198435307 -0.5198019147
9.041823387 -4.206668854 -0.1733704209
9.057141304 -4.192662716 0.1735100299
9.062859535 -4.199151039 0.5212673545
8.844996452 -4.100082874 0.8492201567
8.773633003 -4.07072401 1.182433009
8.770860672 -4.073159218 1.524974942
8.775556564 -4.077201366 1.872662544
7.769798756 -3.613215446 1.968318462
6.689556122 -3.113707304 1.965523839
5.875300884 -2.743443966 -1.725857496
8.875072479 -4.147947311 -2.251756668
6.284638882 -2.93859148 -1.340305328
8.95732975 -4.192107677 -1.559703231
8.974370003 -4.203902245 -1.211681604
9.002742767 -4.219108582 -0.8661283851
9.003190041 -4.223152161 -0.518964529
9.012602806 -4.231406689 -0.1730911732
9.035204887 -4.220867157 0.1733704209
9.021007538 -4.218071461 0.5196972489
8.808974266 -4.120801449 0.8471283913
8.761167526 -4.102166176 1.182676673
8.733336449 -4.092852592 1.52090764
8.745271683 -4.100307941 1.869227767
7.818882942 -3.669291019 1.984065056
6.682143688 -3.138681889 1.966559172
5.890154839 -2.775464296 -1.733104467
8.93192482 -4.218287468 -1.557826042
8.941695213 -4.226719856 -1.209244251
8.969207764 -4.243556023 -0.8643852472
8.964184761 -4.245009899 -0.5176038146
8.977899551 -4.253423214 -0.1727072299
9.009563446 -4.247263432 0.1731609851
8.993585587 -4.243568897 0.518964529
8.780121803 -4.144721508 0.8457339406
8.73602581 -4.127635479 1.181214333
8.69756794 -4.11317873 1.517153144
8.712440491 -4.123934269 1.865411758
7.806026936 -3.696561575 1.984065056
6.667655945 -3.160333157 1.965523839
5.852030277 -2.783756256 -1.724822283
7.731407642 -3.681068897 -1.966968656
7.801970005 -3.719677448 -1.362282991
8.915393829 -4.254334927 -1.207781792
8.923030853 -4.261803627 -0.8614220023
8.943161011 -4.275252819 -0.5172898173
8.946013451 -4.278534412 -0.1723930687
8.977684975 -4.272522926 0.1728468388
8.963546753 -4.269632339 0.5181271434
8.739692688 -4.164875031 0.8432936072
8.704712868 -4.151935577 1.179020643
8.6699543 -4.139071465 1.51496315
8.679552078 -4.147374153 1.861595511
7.729131699 -3.694889545 1.967868447
6.645572186 -3.179747105 1.962418199
5.824372768 -2.796823978 -1.719645858
7.747722626 -3.723732471 -1.974617124
8.85973835 -4.26199913 -1.902810335
7.791845322 -3.749961853 -1.36290884
8.885433197 -4.280090809 -1.205832005
8.898377419 -4.290153503 -0.8605504036
8.92203331 -4.305397987 -0.5169757605
8.93492794 -4.292410374 0.1723232716
8.940636635 -4.298994541 0.5177084208
8.702823639 -4.186514854 0.8412018418
8.669762611 -4.174338341 1.176339507
8.640489578 -4.16395998 1.512459993
8.632463455 -4.163805962 1.854726315
7.703251839 -3.717265368 1.964719057
6.637352467 -3.205763578 1.963453412
5.768884659 -2.796244383 -1.706187248
8.766716003 -4.253108025 -2.239609241
8.812268257 -4.279007435 -1.895941138
8.80682373 -4.278263569 -1.544059873
8.8554039 -4.305684566 -1.203881979
8.866470337 -4.314892292 -0.8589816689
8.91733551 -4.324256897 0.1722883582
8.903259277 -4.321269989 0.5164524317
8.687419891 -4.218384266 0.8412018418
8.631195068 -4.194807053 1.173170924
8.621618271 -4.193872929 1.511834383
8.603023529 -4.188542366 1.851673365
7.670304775 -3.736087322 1.959770322
6.629030704 -3.231762409 1.964488745
8.708108902 -4.252873898 -2.585136652
8.747056007 -4.275677204 -2.237809896
8.760734558 -4.286153316 -1.887545466
8.806510925 -4.310453892 -1.546249986
8.819415092 -4.320586681 -1.200713396
8.853628159 -4.341180801 -0.8589816689
11.77818871 -5.780274868 -0.6853928566
8.865280151 -4.335383415 0.5149870515
8.667707443 -4.240640163 0.8405046463
8.604448318 -4.213413715 1.171221018
8.586075783 -4.208133698 1.507767081
8.581744194 -4.209726334 1.849765301
7.646939754 -3.7528193 1.956621051
6.619412899 -3.251416922 1.964488745
8.67166996 -4.274513245 -2.578924894
8.71210289 -4.298223972 -2.232860804
8.734406471 -4.313019276 -1.885255933
8.77471447 -4.334828377 -1.543434262
8.759034157 -4.330886841 -1.194620013
8.812657356 -4.361229897 -0.856541276
8.814586639 -4.366014957 -0.5133122206
8.808358192 -4.364844799 -0.170892179
8.879493713 -4.378881454 0.1721138358
8.835001945 -4.360774994 0.5141496062
8.63066864 -4.26179409 0.8384128809
8.5747118 -4.237885952 1.169271111
8.556430817 -4.232568264 1.505264163
8.557460785 -4.236796856 1.847857356
7.640118122 -3.784281015 1.958420515
6.6109128 -3.27737236 1.965523839
8.628271103 -4.292499542 -2.570642948
8.6823349 -4.323177814 -2.229261637
8.708753586 -4.338229656 -1.882966161
8.739320755 -4.357264519 -1.539992571
8.738533974 -4.358777046 -1.193888664
8.772423744 -4.379505157 -0.854100883
8.793933868 -4.394079208 -0.5129982829
8.798434258 -4.398247242 -0.1709968746
8.802516937 -4.381102562 0.1709270775
8.816150665 -4.389808178 0.5139402747
8.590025902 -4.280956745 0.8359725475
8.548461914 -4.263968945 1.167808652
8.518626213 -4.250943661 1.501196861
8.525055885 -4.257869244 1.84404099
7.626862049 -3.810926676 1.958420515
6.592521191 -3.296972275 1.963453412
8.620895386 -4.324553013 -2.572713375
8.647052765 -4.341453075 -2.223862886
8.678530693 -4.359153748 -1.879531503
8.725805283 -4.388622284 -1.194132447
8.743616104 -4.401405334 -0.8527063727
8.765043259 -4.416027069 -0.5121608377
8.769515991 -4.420199871 -0.1707176417
8.770067215 -4.401299 0.1705780178
8.785481453 -4.410954475 0.5129982829
8.554419518 -4.29868412 0.8338807821
8.516541481 -4.283373833 1.165371299
8.49213028 -4.272953987 1.499006748
8.498615265 -4.279934883 1.841369748
7.614182472 -3.836197376 1.958420515
6.578101635 -3.317076206 1.962418199
8.38240242 -4.239766598 -2.505420208
8.484822273 -4.295289516 -2.185621023
8.464362144 -4.286788464 -1.836027145
7.601964951 -3.853360653 -1.343197942
8.490915298 -4.307687283 -1.163908839
8.533541679 -4.331185341 -0.8335322142
8.590090752 -4.363658428 -0.5027403831
8.58290863 -4.363780022 -0.1673667729
8.753639221 -4.429454327 0.1705431193
8.748648643 -4.430765629 0.5117421746
8.53656292 -4.325226784 0.8335322142
8.477503777 -4.299022675 1.161958933
8.468356133 -4.298100471 1.497442365
8.466870308 -4.299205303 1.83755362
7.597271442 -3.860986948 1.957520723
6.576814651 -3.345272779 1.965523839
8.331414223 -4.250564098 -2.49454999
8.369113922 -4.273479939 -2.159526825
8.421373367 -4.302018166 -1.829921246
7.584950924 -3.878074884 -1.342572331
8.452854156 -4.32554388 -1.160740256
8.4846735 -4.343695641 -0.8302202821
8.478820801 -4.344435215 -0.4970881045
8.51424408 -4.36633873 -0.1663196385
8.531516075 -4.354529381 0.1664941758
8.512579918 -4.348610401 0.4987628162
8.510767937 -4.349558353 0.8324863315
8.443005562 -4.318645 1.159277916
8.440992355 -4.321333408 1.495252371
8.444822311 -4.325153828 1.836027145
7.573342323 -3.882148981 1.954821348
6.568534851 -3.369973421 1.966559172
8.301066399 -4.271664619 -2.489891291
8.343750954 -4.297314167 -2.15682745
8.374891281 -4.315202236 -1.823052168
7.55907774 -3.898190022 -1.340382218
8.432412148 -4.352292538 -1.160009027
8.449224472 -4.364706039 -0.8283028007
8.447634697 -4.36575222 -0.4961460233
8.450993538 -4.371226788 -0.1653772146
8.50026226 -4.376045704 0.1661800146
8.467165947 -4.362747192 0.4969833791
8.474282265 -4.368285179 0.8303945661
8.438463211 -4.353550434 1.160740256
8.397774696 -4.336270809 1.490246415
8.420951843 -4.350100517 1.834118962
7.556283474 -3.906771898 1.953921556
6.565310478 -3.397320986 1.969147444
8.25620842 -4.286926746 -2.481091261
8.325241089 -4.324616432 -2.155927658
8.348567963 -4.340434551 -1.820762396
7.525463581 -3.915839195 -1.336940646
7.96992445 -4.148880005 -1.098099351
8.424494743 -4.39299202 -0.4957273602
8.463639259 -4.394632339 0.1657611579
8.450113297 -4.391355038 0.4968787134
8.429932594 -4.384605408 0.8276055455
8.400323868 -4.371068478 1.157571673
8.373826027 -4.36099577 1.488682151
8.384058952 -4.370046139 1.829539537
7.541913509 -3.934440851 1.953921556
6.541422844 -3.413960218 1.965523839
8.181295395 -4.284352779 -2.462974072
