# .PCD v0.7 - Point Cloud Data file format
VERSION 0.7
FIELDS x y z
SIZE 4 4 4
TYPE F F F
COUNT 1 1 1
WIDTH 1258
HEIGHT 1
VIEWPOINT 0 0 0 1 0 0 0
POINTS 1258
DATA ascii
6.689077377 -1.341466546 -0.5931566358
6.667547226 -1.339569926 -0.3542109132
5.961257458 -1.191176772 0.5281384587
6.608891487 -1.322986007 0.8224309683
6.578428268 -1.319276452 1.055984259
6.571061134 -1.318991899 1.29451108
6.562779903 -1.319712996 1.535512567
6.555407524 -1.320611358 1.780209541
2.822020769 -0.5720952749 -0.7599447966
3.225803375 -0.6551245451 -0.7499834299
3.69157362 -0.7503881454 -0.7239921689
4.34267807 -0.8843171597 -0.6952463388
5.308605194 -1.082942843 -0.6601009369
6.672641277 -1.362416148 -0.5921107531
6.672614574 -1.36483705 -0.354734242
6.619474411 -1.3455441 0.3518034518
6.607209206 -1.344251871 0.586184144
6.608122826 -1.346840024 0.8229183555
6.591202259 -1.345788002 1.058800101
6.574110985 -1.343493581 1.296037555
6.573406696 -1.34574008 1.539111733
6.541295528 -1.341545463 1.777621269
2.831358671 -0.5842850208 -0.7630506158
3.212046623 -0.6640136242 -0.7472839952
3.702389479 -0.7660540938 -0.7266634703
4.347302914 -0.9010744095 -0.6964978576
5.339778423 -1.108731031 -0.664488256
6.675647736 -1.387321234 -0.5928080082
6.665854454 -1.387713432 -0.3546295762
6.661654472 -1.389265418 -0.1180811822
5.618545532 -1.160477161 0.09944202006
6.612781525 -1.368237495 0.3516987562
6.596623898 -1.366095185 0.5856612325
6.595606327 -1.368285537 0.8219434619
6.584529877 -1.368385315 1.058487177
6.567459106 -1.366033554 1.295655966
6.580115795 -1.371062398 1.541811228
6.551701546 -1.367528439 1.781762362
2.840645313 -0.596546948 -0.766156435
3.202081203 -0.673617065 -0.7454844117
3.707377672 -0.7805912495 -0.7281899452
4.313205242 -0.9097210765 -0.6914919615
5.295088768 -1.118746161 -0.6593697071
6.637626171 -1.403607726 -0.5898447037
6.533966064 -1.384070396 -0.3478259146
6.670457363 -1.415416121 -0.1183255166
6.581186771 -1.383275032 0.1166849956
6.627509594 -1.395427227 0.3527455032
6.615210056 -1.394043326 0.5877529383
6.583021164 -1.389660239 0.8209685087
6.591309071 -1.393813372 1.060364485
6.55304718 -1.386917353 1.293747902
6.546693802 -1.387960315 1.535062671
6.558226109 -1.392797709 1.78486824
2.842324018 -0.6072661877 -0.7671917081
3.192087889 -0.6831589937 -0.7436847687
3.689272642 -0.7902380824 -0.7251369953
4.344768524 -0.9322308302 -0.6971235871
5.283388615 -1.135554194 -0.6583947539
6.595677853 -1.418807864 -0.5865327716
6.572048664 -1.416125298 -0.3501287103
6.64084959 -1.420038223 0.1178368554
6.646033764 -1.423572898 0.3540015519
6.649266243 -1.425479054 0.5912392139
6.615006447 -1.42054987 0.8255995512
6.59799099 -1.419305444 1.062241673
6.578874111 -1.416394591 1.299853683
6.564668655 -1.415734053 1.54046154
6.553324223 -1.41568172 1.78486824
2.83263588 -0.6155431867 -0.7651211619
3.204916954 -0.6976130605 -0.7472839952
3.690327883 -0.8039469719 -0.7259002328
4.360787392 -0.9516026974 -0.7002522349
5.329814434 -1.165011168 -0.6647319794
5.788784981 -1.266393423 -0.5147164464
6.572918415 -1.440339923 -0.3504427075
6.566660404 -1.441371202 -0.1166500896
6.658587456 -1.450589418 0.3549436033
6.642303467 -1.448256254 0.5910648704
6.62940073 -1.447867393 0.8280369043
6.61036396 -1.446127653 1.065057516
6.608410835 -1.446908832 1.306722879
6.593949318 -1.446154833 1.548559666
6.567211151 -1.442693353 1.790044546
2.822924614 -0.6237600446 -0.7630506158
3.217684031 -0.7121650577 -0.7508832216
3.700917006 -0.8197958469 -0.7285715342
4.345868111 -0.9642515779 -0.6983750463
5.345093727 -1.187915325 -0.6671693921
5.724038601 -1.273182034 -0.5093128085
5.721784115 -1.274776816 -0.3050150871
5.734073162 -1.279615641 -0.10185045
6.566340446 -1.452115893 0.1166849956
6.661283493 -1.475551128 0.3553622961
6.637207508 -1.47143352 0.5910648704
6.635933876 -1.473581553 0.8294993639
6.618773937 -1.472195506 1.067247629
6.607152939 -1.470821023 1.307486176
6.607881546 -1.473404169 1.553058743
6.580989361 -1.469819427 1.795220971
2.832039356 -0.6361504197 -0.766156435
3.209474802 -0.7221091986 -0.7495334744
3.69228673 -0.8314155936 -0.7274267077
4.327060223 -0.975938797 -0.695872128
5.344787121 -1.207440734 -0.6676568985
5.738993168 -1.297548652 -0.5110558867
5.719247341 -1.295182824 -0.3051197529
5.729571342 -1.299623489 -0.10185045
5.724252224 -1.286866903 0.1017108336
6.663885593 -1.500549316 0.3557809591
6.64757967 -1.498096704 0.5924593806
6.634622097 -1.497610331 0.8299868107
6.632862091 -1.499646544 1.070376277
6.601978779 -1.493875384 1.307486176
6.621703625 -1.500768423 1.557557821
6.58712244 -1.495348454 1.79832685
2.829801559 -0.6460321546 -0.766156435
3.201235771 -0.7320048809 -0.7481838465
3.697017193 -0.8460508585 -0.7289531827
4.34288168 -0.9954505563 -0.6990007758
5.325061321 -1.222536683 -0.6657069325
6.713092804 -1.542436719 -0.5989089012
5.746434212 -1.324556231 -0.1022344008
5.704129219 -1.303277016 0.1014315933
6.516481876 -1.491276622 0.3481399119
6.633224487 -1.521648288 0.8304743171
6.641063213 -1.525886893 1.07256639
6.615856647 -1.521310925 1.311302304
6.614525795 -1.52343595 1.557107806
6.604451656 -1.523543715 1.804538488
2.831292868 -0.65677917 -0.7671917081
3.200559139 -0.7436158061 -0.7486336827
3.682568073 -0.8562828898 -0.7266634703
4.339380741 -1.010603905 -0.6990007758
5.332361221 -1.243822932 -0.6671693921
6.736771107 -1.572654247 -0.6015235782
6.721365452 -1.571532249 -0.3595491648
6.719180584 -1.57349515 -0.1197566167
5.717076302 -1.327250123 0.1017457321
6.46065712 -1.502253413 0.3454184532
6.470072746 -1.505633116 0.577468574
6.645271778 -1.548848629 0.8326680064
6.637619972 -1.549508095 1.072879195
6.62580061 -1.547968507 1.314355254
6.62055254 -1.549179792 1.559807301
6.614140034 -1.550114632 1.808679581
2.825222492 -0.6657720208 -0.766156435
3.199840546 -0.7552310228 -0.7490836382
3.685288668 -0.8704861999 -0.7278082967
4.320447922 -1.022106886 -0.6964978576
5.347302914 -1.267005444 -0.6696067452
6.731240273 -1.596160412 -0.6015235782
6.729441166 -1.598215222 -0.3602818549
6.719483376 -1.598328233 -0.1198613346
6.699183464 -1.579916596 0.1194424704
6.280434608 -1.483474493 0.3359979987
6.296088696 -1.488332272 0.5623034835
6.655278206 -1.575694084 0.8346178532
6.64178133 -1.574947357 1.074443579
6.639458656 -1.575620532 1.318171382
6.626480579 -1.574984193 1.562506676
6.608688831 -1.573192835 1.808679581
2.819123507 -0.6747304797 -0.7651211619
3.206660032 -0.7686672211 -0.7513331175
3.687954664 -0.884718895 -0.7289531827
4.339901924 -1.042719364 -0.7002522349
5.331267357 -1.28287673 -0.6681442857
6.739186287 -1.622912288 -0.6027437449
6.737413406 -1.624973655 -0.3610145748
6.719694614 -1.623182416 -0.1199660525
6.711130619 -1.607483745 0.1197566167
6.174614906 -1.48239398 0.5518447757
6.669038296 -1.603556633 0.8370552659
6.64584589 -1.600434303 1.076007962
6.641552448 -1.600626826 1.319697857
6.630413532 -1.600391388 1.564756155
6.606912613 -1.597159863 1.809714913
2.816751003 -0.684566915 -0.7651211619
3.194489956 -0.7775514722 -0.7490836382
3.688659191 -0.8985160589 -0.7297164202
4.340074539 -1.058798671 -0.7008780241
5.346040726 -1.306190014 -0.6705816984
6.758351803 -1.653758168 -0.6050097942
6.741399765 -1.650856972 -0.3615379333
6.743119717 -1.653773308 -0.1204896197
6.697706223 -1.629009962 0.1196170002
6.13068819 -1.494500637 0.5483585596
6.667257309 -1.627767801 0.8375427723
6.661325932 -1.628783822 1.079449415
6.635924816 -1.623800516 1.319697857
6.645607471 -1.628628612 1.569705129
6.623811722 -1.625738502 1.815926552
2.81984973 -0.6962755919 -0.7666741014
3.184189081 -0.7868276834 -0.7472839952
3.681529522 -0.9110863805 -0.7289531827
4.336164474 -1.074698687 -0.7008780241
5.364569187 -1.33057785 -0.6735065579
6.74673748 -1.675898194 -0.6044868827
6.733365536 -1.675072193 -0.3614332676
6.747008324 -1.679716706 -0.1206641421
6.715275288 -1.658131719 0.120035857
6.103630543 -1.50936532 0.3273102343
6.101962566 -1.511213303 0.5462668538
6.665388107 -1.651986122 0.8380302191
6.665185928 -1.654405713 1.081013799
6.645171165 -1.651900411 1.322750926
6.643375397 -1.653916478 1.57060492
6.636841774 -1.653520226 1.821102977
2.823023796 -0.7075233459 -0.7682270408
3.183173895 -0.7989674211 -0.747733891
3.670710325 -0.9220187068 -0.7274267077
4.347712517 -1.093683362 -0.7033809423
5.344256401 -1.346351504 -0.6715566516
6.764029026 -1.705283165 -0.6065785885
6.752651691 -1.704921961 -0.3627940118
6.743042469 -1.703747749 -0.120699048
6.728549004 -1.68759799 0.1203849018
6.098324776 -1.530661821 0.3273102343
6.092785835 -1.531532526 0.5459182262
6.680464268 -1.681735635 0.8407113552
6.672779083 -1.681039453 1.083203912
6.658400536 -1.679889202 1.326567054
6.64511919 -1.679005742 1.572404623
6.642266273 -1.679518342 1.824208736
2.820536852 -0.7173732519 -0.7682270408
3.195615292 -0.8133642077 -0.7513331175
3.667469501 -0.9348261952 -0.7274267077
4.351717472 -1.110047817 -0.7046324015
5.339762211 -1.364066362 -0.6715566516
6.756105423 -1.72838974 -0.6064043045
6.762439728 -1.731267929 -0.3636313677
6.740928173 -1.728268385 -0.12076886
6.740357876 -1.714337468 0.120699048
6.092944622 -1.551939726 0.3273102343
6.095124722 -1.554760695 0.5466154218
6.682544231 -1.705843449 0.8416863084
6.66495657 -1.703832388 1.082890987
6.668008804 -1.705852389 1.329620004
6.658392429 -1.70586884 1.576903582
6.64197731 -1.704134226 1.825761676
2.810659885 -0.7247930765 -0.766156435
3.217285395 -0.830848515 -0.7571818829
3.675754309 -0.9499303102 -0.7297164202
4.351641655 -1.126221299 -0.7052581906
5.331125259 -1.381701231 -0.6710692048
6.761908531 -1.753785729 -0.6074501872
6.767953396 -1.757875204 -0.364259392
6.762255192 -1.757655144 -0.1212575287
6.73045969 -1.736855984 0.1206292361
6.099367142 -1.575132251 0.3279382288
6.091864586 -1.575463295 0.5467897654
6.707296371 -1.737122774 0.8455861211
6.672654629 -1.72939384 1.0850811
6.669614792 -1.731090546 1.331146479
6.669371605 -1.73351264 1.580952644
6.643768787 -1.72809577 1.827832222
2.823064327 -0.7385109663 -0.7702975273
3.195660591 -0.8365776539 -0.7526828647
3.676214218 -0.963751018 -0.7304796576
4.328775406 -1.135632992 -0.7021294832
5.334193707 -1.401389718 -0.672044158
6.765379429 -1.779913068 -0.6083217263
6.771744728 -1.782851696 -0.3647827804
6.773481369 -1.785837173 -0.1215716675
6.734336376 -1.7616961 0.120803766
6.105424404 -1.599450231 0.328566283
6.101745129 -1.600762963 0.5481842756
6.701498985 -1.759355664 0.8455861211
6.695235252 -1.760209322 1.089774132
6.667635441 -1.754197478 1.331909657
6.6786623 -1.75959146 1.58455193
6.652639389 -1.755219102 1.831973314
2.818602085 -0.7478653193 -0.769779861
3.192572832 -0.848284781 -0.7526828647
3.667135477 -0.9750639796 -0.7293347716
4.339854717 -1.155557156 -0.7046324015
5.329021454 -1.42093122 -0.672044158
6.770675659 -1.806599736 -0.609367609
6.769023418 -1.80869019 -0.3649921119
6.780412674 -1.814269662 -0.1218160018
6.749094009 -1.792011499 0.1211877093
6.103381634 -1.622843623 0.3287756145
6.109597683 -1.625638366 0.5494044423
6.700759411 -1.785439134 0.8463173509
6.694464207 -1.786264539 1.090712786
6.672541618 -1.781662822 1.334199429
6.68158102 -1.78657496 1.58680141
6.662956238 -1.78408742 1.836632133
2.821570635 -0.7592054009 -0.7713328004
3.189592123 -0.8594237566 -0.7526828647
3.6693964 -0.9893920422 -0.7304796576
4.345330715 -1.173273683 -0.706196785
5.316363811 -1.437451839 -0.6710692048
6.787406921 -1.836467266 -0.6114593744
6.785801888 -1.838575482 -0.3662481904
6.781757832 -1.840020895 -0.1219556183
6.762106895 -1.820758581 0.1215367615
6.101536274 -1.645178318 0.328984946
6.113504887 -1.6495502 0.5502759814
6.713650227 -1.813996315 0.848754704
6.712976933 -1.816328764 1.094780087
6.689022541 -1.811100483 1.338778853
6.68094635 -1.811417222 1.588151097
6.675331593 -1.812396407 1.841808438
2.80585742 -0.7654906511 -0.7677093744
3.201611757 -0.8746606708 -0.7562820315
3.662132978 -1.001159191 -0.7297164202
4.339303493 -1.18791306 -0.7058839202
5.31156826 -1.455073595 -0.6710692048
6.788640976 -1.862256885 -0.61215657
6.802453518 -1.868599415 -0.3675042093
6.781403542 -1.864090204 -0.1220603362
6.77114296 -1.848564863 0.1218160018
6.107606888 -1.668560863 0.3296130002
6.103865147 -1.669828534 0.5499273539
6.732166767 -1.8442384 0.8519233465
6.697391033 -1.835968494 1.093215704
6.705378056 -1.840674877 1.343358278
6.69557333 -1.839240074 1.593100071
6.673009872 -1.835547328 1.842843652
2.808889866 -0.776335001 -0.7692622542
3.200571775 -0.885792613 -0.7567319274
3.666360855 -1.015393734 -0.7312428951
4.3353405 -1.202296257 -0.7058839202
5.302888393 -1.471617579 -0.6705816984
6.784347534 -1.885291934 -0.6123309135
6.809689522 -1.894895077 -0.368236959
6.790595531 -1.890859008 -0.122339569
6.774612427 -1.873673916 0.1219905242
6.117439747 -1.693067074 0.3304503858
6.107895374 -1.692721128 0.5507989526
6.739403725 -1.870268464 0.8536295295
6.723622799 -1.867153287 1.098534465
6.703020573 -1.863952518 1.344121456
6.704456806 -1.865612626 1.596699238
6.672469616 -1.859221458 1.844396591
2.806299925 -0.7856453061 -0.7692622542
3.19949317 -0.8969273567 -0.7571818829
3.517249346 -0.987329483 -0.7018583417
4.342740059 -1.219871283 -0.7077611089
5.324471951 -1.497644305 -0.6739940047
6.804573536 -1.916524172 -0.6147712469
6.806877136 -1.919737935 -0.3684462905
6.807048798 -1.921068788 -0.1227584332
6.777989864 -1.898826241 0.1221650541
6.134568214 -1.720883965 0.3317064345
6.111838818 -1.715658545 0.5516704917
6.73316431 -1.892607093 0.8536295295
6.739882469 -1.897034168 1.102288842
6.700252056 -1.88840425 1.344884634
6.70915699 -1.892178059 1.599398732
6.680811882 -1.886701703 1.848537803
2.814552069 -0.7990913391 -0.7723681331
3.181188583 -0.9043847919 -0.7535826564
3.526824713 -1.003976822 -0.7045296431
4.33823967 -1.235779881 -0.7077611089
5.303675175 -1.512793422 -0.672044158
6.845398426 -1.955130816 -0.6191290617
6.811317444 -1.947968721 -0.3690743148
6.815341949 -1.950406432 -0.1230376661
6.780602455 -1.926388383 0.122339569
6.139746189 -1.746635914 0.3323344588
6.118923664 -1.741866469 0.5528906584
6.737636566 -1.920537591 0.8550919294
6.736683369 -1.922808647 1.102914691
6.708387375 -1.917265177 1.347937703
6.709671497 -1.91889894 1.601198316
6.697995663 -1.918089271 1.855267048
2.80789113 -0.8083329797 -0.7713328004
3.187214851 -0.9187372327 -0.7558321357
3.504435301 -1.010840654 -0.7007134557
4.322294712 -1.248383403 -0.7058839202
5.305722713 -1.53442812 -0.6730191112
6.827048779 -1.975690603 -0.618083179
6.825577736 -1.977847457 -0.3702256978
6.815829277 -1.977601886 -0.12317729
6.796555042 -1.957870245 0.1227584332
6.137141228 -1.770234585 0.3325438201
6.137383461 -1.771464825 0.5551567078
6.743901253 -1.949077487 0.8567981124
6.744770527 -1.951879978 1.105417609
6.724283218 -1.947223067 1.352517009
6.713823318 -1.946734428 1.603897691
6.70205164 -1.945857644 1.858372808
2.80505228 -0.8181294203 -0.7713328004
3.189600468 -0.9314959049 -0.7571818829
3.499000788 -1.022516608 -0.7003318071
4.340661049 -1.270120502 -0.7096382976
5.285094261 -1.548474193 -0.6710692048
6.83349371 -2.003432989 -0.6193033457
6.822464943 -2.002785921 -0.3704350591
6.812721729 -2.002509117 -0.1232470945
6.797357559 -1.983823657 0.1228980497
6.136675835 -1.793327093 0.3328578472
6.752297401 -1.977068663 0.8587480187
6.730333328 -1.973188639 1.10416615
6.736283779 -1.976210356 1.356333256
6.721944809 -1.974552035 1.607496858
6.704485416 -1.971965671 1.86096108
2.798474312 -0.8268210888 -0.7702975273
3.193804026 -0.9448353648 -0.7589814663
3.634715557 -1.075961828 -0.7285715342
4.34756422 -1.288632751 -0.7115155458
5.302493572 -1.573690414 -0.6739940047
6.845558643 -2.032946348 -0.6210464239
6.815432549 -2.026588917 -0.3704350591
6.821022987 -2.030843019 -0.1235263422
6.801897526 -2.010940313 0.123107478
6.766289234 -2.006835699 0.8614290953
6.746129036 -2.003418446 1.107920527
6.733108521 -2.000830412 1.357096434
6.726218224 -2.001338482 1.610196352
6.704967022 -1.997563481 1.863031626
2.814078808 -0.8421230316 -0.7754738927
3.179286003 -0.9526219964 -0.7562820315
3.674190283 -1.101611018 -0.7373487949
5.308374405 -1.595618844 -0.6754564643
6.830788612 -2.054533958 -0.6203492284
6.852302074 -2.063613415 -0.3728424907
6.834952831 -2.060990572 -0.123910293
6.800583363 -2.036392212 0.1232121959
6.761144638 -2.03101325 0.8616728783
6.759902954 -2.033213139 1.1113621
6.737362862 -2.027716398 1.359386206
6.741581917 -2.031552553 1.615595102
6.718297958 -2.027094126 1.868725657
2.811121941 -0.8519408703 -0.7754738927
3.185265541 -0.9665431976 -0.7585315704
3.670322418 -1.114429474 -0.7373487949
5.295176506 -1.611826539 -0.6744815111
6.854070663 -2.087653875 -0.6231381893
6.848878384 -2.088684797 -0.373051852
6.843381405 -2.088314056 -0.1241895258
6.769207001 -2.05922389 0.8636227846
6.768240929 -2.06022048 1.113865018
6.745267391 -2.0558002 1.362439156
6.738176823 -2.056210041 1.616494894
6.733710766 -2.05613184 1.874937296
2.819212198 -0.8651488423 -0.7785797715
3.176454067 -0.9753846526 -0.7571818829
3.64764452 -1.121465087 -0.7335326076
5.282213688 -1.627039671 -0.6735065579
6.854357243 -2.113914728 -0.6238354445
6.855273247 -2.115507603 -0.3737845719
6.830318451 -2.11041832 -0.1240848154
6.792989254 -2.089796305 0.618083179
6.783211231 -2.088084221 0.8663039207
6.764783859 -2.084996939 1.114490747
6.76092577 -2.085100174 1.36701858
6.742493153 -2.081993103 1.619194388
6.743103027 -2.084759951 1.879595995
2.794188261 -0.8676185012 -0.7723681331
3.174890757 -0.9870449901 -0.7576317191
3.662651777 -1.139386535 -0.7373487949
5.284082413 -1.647832155 -0.6744815111
6.845407486 -2.136039734 -0.6236611605
6.870723248 -2.146571398 -0.3750405908
6.85344553 -2.143799305 -0.1246432811
3.48893404 -1.084010601 0.06307120621
6.808849812 -2.119416952 0.6201748848
6.794832706 -2.117655754 0.8687413335
6.772550106 -2.11330533 1.116993666
6.768598557 -2.113368511 1.370071411
6.757504463 -2.112493515 1.624593139
6.73762846 -2.108861923 1.880113602
2.791142702 -0.8773667812 -0.7723681331
3.182579279 -1.001631618 -0.7603311539
3.666142702 -1.154523611 -0.7388752699
5.304800034 -1.674633145 -0.677893877
6.832210541 -2.158121109 -0.6231381893
6.878423214 -2.175359488 -0.3758780062
6.863078594 -2.173141956 -0.1249574274
3.499648809 -1.102092147 0.1900853515
6.809011936 -2.145566702 0.6208721399
6.806330204 -2.147334099 0.8711786866
6.787736416 -2.144072771 1.120748162
6.772411823 -2.140532494 1.372361183
6.770525932 -2.142535925 1.629542112
6.743117332 -2.136452436 1.883737087
2.802790165 -0.8917901516 -0.7765091658
3.173492908 -1.010960221 -0.7589814663
3.669572353 -1.169698715 -0.7404017448
3.518189907 -1.122797489 -0.5782333612
5.291358471 -1.6907233 -0.6769189239
6.8322258 -2.184383869 -0.6238354445
6.874592304 -2.200574398 -0.3760873079
6.869164944 -2.200158834 -0.1252017617
6.822360039 -2.175981045 0.6227895617
6.806357384 -2.173494577 0.8721536398
6.7937603 -2.170778751 1.122938275
6.764899254 -2.164159536 1.372361183
6.78342104 -2.172695637 1.634491086
6.748873711 -2.16292882 1.887360573
2.803338051 -0.9027526975 -0.7775444984
3.171977997 -1.022076011 -0.7594313622
3.665467024 -1.18250072 -0.7404017448
3.45053196 -1.113826275 -0.5675958395
5.27061224 -1.703377128 -0.6749690175
6.796125889 -2.199019194 -0.6212207675
6.760848522 -2.1889081 -0.3702256978
3.492066383 -1.125887752 0.1900853515
6.824203968 -2.202842236 0.6236611605
6.802890301 -2.197273731 0.8726410866
6.806816578 -2.201166153 1.126379848
6.776364326 -2.192625046 1.376177311
6.778032303 -2.19577837 1.634940982
6.759658337 -2.192433834 1.892536998
2.807676315 -0.9144369364 -0.7796150446
3.166538239 -1.032537937 -0.7589814663
3.659659147 -1.194040418 -0.7400200963
3.46164465 -1.130771279 -0.5700987577
5.279727936 -1.726700902 -0.6769189239
6.794922352 -2.226174593 -0.3725284934
6.773834229 -2.221884012 -0.1237357631
6.837695599 -2.232261896 0.6255785823
6.825368881 -2.2308743 0.8765408993
6.815987587 -2.230441809 1.129195571
6.79105854 -2.223596334 1.380756855
6.78143692 -2.223067284 1.637640357
6.770319462 -2.222040415 1.897713423
2.796967268 -0.9223015308 -0.7775444984
3.166615725 -1.044806123 -0.759881258
3.645937204 -1.204366684 -0.7381119728
3.506239176 -1.159577727 -0.5782333612
5.281206608 -1.747614622 -0.677893877
6.803303242 -2.253929853 -0.6233124733
6.832213879 -2.266155005 -0.3750405908
6.915971279 -2.295275927 -0.1264932454
5.974404335 -1.974688292 0.5467897654
6.83261776 -2.259672165 0.8784908652
6.825038433 -2.259808779 1.132011414
6.801498413 -2.254649639 1.384572983
6.791738987 -2.254045725 1.642139435
6.777189255 -2.250530005 1.901854515
2.779070377 -0.9271679521 -0.7734034061
3.164613485 -1.057022691 -0.7603311539
3.652883291 -1.220819831 -0.7404017448
3.468450785 -1.160527349 -0.5726017356
5.304882526 -1.777048111 -0.6817936897
5.959916115 -1.993003607 0.5460925102
6.839348793 -2.289741516 0.880440712
6.832092762 -2.288638353 1.134514332
6.817785263 -2.286492586 1.389533997
6.807845592 -2.285803318 1.647988081
6.780279636 -2.277864695 1.904960275
2.794121265 -0.9430409074 -0.7785797715
3.159244537 -1.066887617 -0.759881258
3.646739483 -1.232934594 -0.7400200963
3.374765635 -1.141638637 -0.5575840473
5.235033989 -1.772979617 -0.6735065579
5.225067616 -1.771637559 -0.4789825678
3.427173615 -1.164035916 -0.06247781962
5.947260857 -2.011879921 0.5455695987
6.805393696 -2.303498507 0.8770284057
6.786644936 -2.299793243 1.128257036
6.795290947 -2.3040452 1.386481166
6.811299801 -2.312124729 1.650687456
6.799723625 -2.310842514 1.912724853
2.798291922 -0.9547967315 -0.7806503177
3.15181303 -1.076648951 -0.7589814663
3.648204327 -1.246925712 -0.7411649227
3.404401779 -1.164923429 -0.563215673
5.232569218 -1.792529225 -0.6739940047
5.220736504 -1.790512323 -0.4791569114
3.381168842 -1.155655265 0.1850610822
5.914164066 -2.02256465 0.5431292057
6.755993843 -2.313093662 0.8716661334
6.754283905 -2.315142393 1.124189734
6.75006485 -2.31501317 1.378848672
6.760795593 -2.321331263 1.640339732
6.769692898 -2.327028036 1.906513214
2.783817291 -0.961263299 -0.7775444984
3.144351959 -1.08637166 -0.7580816746
3.638043165 -1.258363366 -0.7400200963
3.385175943 -1.172222376 -0.5607126951
5.149376869 -1.784137964 -0.6640007496
5.163630486 -1.791095853 -0.474450469
3.286738873 -1.141991496 -0.06003448367
3.339960337 -1.153301716 0.06097691134
3.467721462 -1.198773146 0.1900853515
5.880351543 -2.03510499 0.5406888723
6.674722195 -2.311329842 0.8621603251
6.693901539 -2.32058835 1.115429401
6.700731277 -2.325576544 1.370453119
6.720948696 -2.335222244 1.632691383
6.73963213 -2.343032122 1.900301576
2.78044486 -0.9709749222 -0.7775444984
3.155065536 -1.103034019 -0.7616809011
3.639188051 -1.272999525 -0.7411649227
3.407164812 -1.193172097 -0.5650929213
5.127816677 -1.797745466 -0.6620509028
5.098752499 -1.789554954 -0.4690468311
3.310828924 -1.163978696 -0.0605580546
3.316833019 -1.158939481 0.06062786281
3.37281251 -1.179820538 0.1850610822
5.8675704 -2.05364418 0.5401659012
6.593142509 -2.310177565 0.8526545167
6.590286255 -2.311759949 1.099473
6.583276749 -2.310591698 1.347937703
6.624506474 -2.327659845 1.611096144
6.692728996 -2.354256153 1.889431238
2.771403074 -0.9792283773 -0.775991559
3.156707764 -1.115989089 -0.7630305886
3.641901016 -1.28894949 -0.7426914573
3.372977257 -1.195096493 -0.5600869656
5.188866138 -1.839512587 -0.6708254814
5.096230507 -1.808674932 -0.4693954587
3.348186731 -1.189602375 -0.1840143651
3.342545033 -1.188255072 -0.06122124568
3.31465292 -1.171176553 0.06066277251
3.33101511 -1.178265929 0.1829676479
5.820563793 -2.061169863 0.5365054011
6.564455986 -2.325885296 0.8499733806
6.539357185 -2.31956172 1.09227705
6.535912514 -2.320908785 1.33992362
6.562681675 -2.332994461 1.598048925
6.558880329 -2.332932711 1.853714108
2.773598671 -0.990362227 -0.7775444984
3.150958061 -1.126345277 -0.7625806928
3.645000935 -1.303663969 -0.7442178726
3.372715235 -1.207606792 -0.5607126951
5.251554489 -1.882396936 -0.6798437834
5.101456642 -1.829600096 -0.4704412818
5.107296944 -1.835719705 -0.09403177351
3.287946701 -1.174666405 0.06024390832
3.308076143 -1.183160067 0.1819209307
5.793061733 -2.073075771 0.5345879793
6.5376091 -2.342090368 0.8475360274
6.518204212 -2.337706089 1.090086937
6.489374638 -2.328644753 1.331909657
6.529233456 -2.345520735 1.591750383
6.516157627 -2.343391895 1.843878984
2.784661055 -1.005285621 -0.7816855311
3.14334178 -1.136012554 -0.7616809011
3.629350424 -1.312373757 -0.7419282198
3.38333869 -1.224751592 -0.563215673
5.132501125 -1.860979557 -0.4739275575
3.366295576 -1.221905589 -0.1854797751
6.489776134 -2.358237743 -0.1198264211
3.311438799 -1.197416902 0.1823396236
5.768929005 -2.087184191 0.5330191851
6.527527809 -2.364220858 0.847292304
6.530432701 -2.367851734 1.093528628
6.477515221 -2.349943399 1.331146479
6.504520893 -2.36231041 1.587701201
6.478888512 -2.355561495 1.8355968
2.792023897 -1.018973708 -0.78479141
3.13935709 -1.146978021 -0.7616809011
3.613683939 -1.320990324 -0.7396385074
3.364202261 -1.231123209 -0.5607126951
3.601367235 -1.32005167 -0.3318636715
6.431236744 -2.361138105 -0.1188839972
3.288690329 -1.20153749 0.1812929064
5.754122257 -2.104571104 0.5323218703
6.504323006 -2.381531239 0.8453423381
6.49286747 -2.378622055 1.088522673
6.493234158 -2.381327629 1.336107492
6.494822025 -2.383196115 1.587251306
6.490988255 -2.38436079 1.841290712
2.770503759 -1.021543503 -0.7796150446
3.135536432 -1.15738225 -0.7616809011
3.598233461 -1.328885555 -0.7373487949
3.356395721 -1.240902424 -0.5600869656
3.534272194 -1.307366848 -0.4575541019
3.546523333 -1.313306332 -0.3271572888
3.451536417 -1.279502153 -0.1907133609
6.391499043 -2.370630264 -0.1182906181
3.337151051 -1.231801867 0.1842237115
5.720947742 -2.113972902 0.529881537
6.464738846 -2.391379356 0.841198802
6.446039677 -2.385741472 1.081952453
6.454005718 -2.391251564 1.329620004
6.461301804 -2.395237446 1.580952644
6.477612972 -2.403856039 1.839737892
2.767100811 -1.030725241 -0.7796150446
3.140810728 -1.171177983 -0.7639303803
3.370767593 -1.258937478 -0.563215673
3.55124712 -1.329169989 -0.3280288279
3.447049141 -1.291542411 -0.1907133609
6.349480629 -2.380290985 -0.117662333
3.276692867 -1.222498417 0.1810835451
5.676574707 -2.118997335 0.5263953209
6.421442509 -2.399601698 0.8365677595
6.424721241 -2.403383017 1.07976234
6.410686493 -2.40068388 1.322369218
6.431003571 -2.409572124 1.575553894
6.431197166 -2.412205219 1.828867435
2.768728018 -1.042903066 -0.781167984
3.136497021 -1.182681799 -0.7639303803
3.342506647 -1.261694908 -0.6862120032
3.36613059 -1.271283388 -0.563215673
5.240528107 -1.981275678 -0.6827686429
5.156328678 -1.951500297 -0.47863397
6.318275452 -2.395041704 -0.1172434688
3.305826664 -1.247190118 0.1829676479
5.631489754 -2.125716686 0.5229091048
6.379179955 -2.41049099 0.8321805
6.391850948 -2.417829037 1.075695038
6.363288403 -2.409564257 1.314355254
6.39479351 -2.422770739 1.568805337
6.393412113 -2.424799681 1.820585251
2.77391386 -1.056481957 -0.7837561369
3.119395018 -1.189309955 -0.7607811093
3.327076197 -1.269156337 -0.6839222312
3.376211643 -1.289249897 -0.5657186508
5.253627777 -2.008266926 -0.685449779
5.143902779 -1.967352152 -0.4781110287
6.256074429 -2.39522028 -0.3488726318
6.283313751 -2.408164024 -0.1167548075
3.309341192 -1.261067867 0.06111652777
3.286304474 -1.253603339 0.1821302623
5.590155602 -2.133554935 0.5197715163
6.327651978 -2.417560577 0.8265745044
6.346045017 -2.427126884 1.069437623
6.325500965 -2.420535326 1.308249354
6.354934216 -2.434341669 1.561156988
6.357425213 -2.437841415 1.812820792
2.76480031 -1.064076543 -0.7822031975
3.122498274 -1.20299387 -0.7625806928
3.296979666 -1.270876527 -0.6785796285
3.345889568 -1.291071296 -0.5613384247
5.27436161 -2.037322044 -0.6891058087
5.166738987 -1.996787548 -0.4809000194
6.242087841 -2.414881706 -0.3485586047
6.239438534 -2.416361332 -0.1160916165
3.319847822 -1.278360486 0.06139576808
3.307998896 -1.275124073 0.1835956872
5.608698845 -2.163092136 0.5222118497
6.293248653 -2.429624319 0.8231621385
6.293313026 -2.432173967 1.061928868
6.287715435 -2.431271791 1.302143455
6.308234215 -2.441737652 1.551709056
6.312849998 -2.446058273 1.802467942
2.762869596 -1.074421287 -0.7827208638
3.138256073 -1.221662283 -0.7675296068
3.603520393 -1.403505087 -0.7434546947
3.352405548 -1.307048202 -0.563215673
5.274974346 -2.057687283 -0.6900808215
5.156025887 -2.013361216 -0.480551362
6.198276997 -2.422840595 -0.3465698659
6.186695099 -2.419558287 -0.115253903
3.300456524 -1.284140587 0.06111652777
3.266528368 -1.271596193 0.1815022379
5.5454216 -2.160954475 0.5169824958
6.260686874 -2.442198515 0.8199935555
6.248409271 -2.438665867 1.055671453
6.253589153 -2.443203449 1.296800852
6.274692059 -2.45271039 1.545410395
6.275919437 -2.455715895 1.794185758
2.757493496 -1.082871199 -0.7822031975
3.132374048 -1.231349349 -0.767079711
3.613462687 -1.421195745 -0.7465076447
3.348052502 -1.31815815 -0.563215673
5.284744263 -2.081716061 -0.6922744513
5.156734467 -2.033371449 -0.4812486172
6.167914867 -2.434581757 -0.3453137875
6.158178806 -2.431981087 -0.1148699448
3.322237015 -1.305315971 0.06160520017
3.232552767 -1.270730019 0.1798274964
5.519685268 -2.172036171 0.5152394176
6.228543758 -2.453488588 0.8168249726
6.22191 -2.452130079 1.052542806
6.218058586 -2.453119993 1.291076541
6.239334583 -2.462772131 1.538661838
6.222824097 -2.458766222 1.781244755
2.755683184 -1.092721462 -0.7827208638
3.122839451 -1.239573121 -0.7657299638
3.605080843 -1.43172133 -0.7457444072
3.321635246 -1.320496321 -0.559461236
5.299578667 -2.108958483 -0.6951993108
5.179580688 -2.062252522 -0.4840376079
6.124556541 -2.440972328 -0.3433250189
6.127790928 -2.443500996 -0.114451088
3.306737185 -1.311900973 0.06139576808
3.254310131 -1.291758776 0.1812929064
5.48282671 -2.178556919 0.512450397
6.174259186 -2.455787897 0.8107314706
6.191719055 -2.463984251 1.048788309
6.167940617 -2.457015991 1.28229928
6.194497108 -2.470100641 1.52966392
6.193104744 -2.470798016 1.775033116
2.759025335 -1.105207562 -0.78479141
3.124138594 -1.252096891 -0.767079711
3.61828208 -1.451606512 -0.7495605946
3.35390234 -1.346220613 -0.5657186508
5.281504154 -2.122080326 -0.6937369108
5.18528986 -2.085524559 -0.4852577746
6.088634968 -2.450084686 -0.3417549431
6.095110893 -2.455162764 -0.1139973253
3.313506603 -1.327321053 0.06160520017
3.260903835 -1.307570577 0.1819209307
5.475188732 -2.197682142 0.512450397
6.134766579 -2.463672876 0.8065879345
6.161086559 -2.476740837 1.045033813
6.134258747 -2.467200041 1.276956677
6.15011692 -2.476072788 1.520665884
6.162940025 -2.483735561 1.768821478
2.764299631 -1.117972136 -0.7873796225
3.132392883 -1.268113494 -0.770228982
3.602530479 -1.45917511 -0.7472708225
3.374811649 -1.368310928 -0.5700987577
5.259349346 -2.13453126 -0.6917870045
5.193113327 -2.108704805 -0.4866522849
6.052291393 -2.460042 -0.3401848674
6.053163052 -2.462858677 -0.1133690327
3.349634409 -1.355380654 0.06237310171
5.390316486 -2.184397936 0.5051293373
6.105894566 -2.476864576 0.8039067984
6.117629051 -2.484111786 1.039089441
6.096507072 -2.476774216 1.270850778
6.114358902 -2.486513615 1.513917208
6.12202549 -2.492122412 1.759503961
2.760380268 -1.127614498 -0.7873796225
3.118928671 -1.275351882 -0.7679795027
3.611951828 -1.477688432 -0.7503237724
3.417543411 -1.399546742 -0.5782333612
5.284927845 -2.16642952 -0.696174264
5.200467587 -2.132867098 -0.4880467653
6.019648552 -2.471292973 -0.3388241231
6.009386539 -2.469531298 -0.1127058417
3.281946898 -1.341342688 0.06118634343
4.7249856 -1.933042526 0.2653444409
5.307058334 -2.172256231 0.4979825318
6.07333231 -2.488378763 0.8007382154
6.059574604 -2.485212564 1.030641913
6.066028595 -2.489096642 1.266271472
6.082208157 -2.498216629 1.508068562
6.077554703 -2.498784781 1.74915123
2.74571228 -1.132822394 -0.7842737436
3.107253075 -1.283255816 -0.7661799192
3.603142738 -1.488788009 -0.7495605946
3.343271971 -1.382778049 -0.5663443804
5.277333736 -2.184864044 -0.696174264
5.1944561 -2.152676344 -0.4882210493
5.992536068 -2.48464036 -0.337777406
5.971178532 -2.478228092 -0.112147361
3.299425602 -1.361946583 0.06160520017
4.697904587 -1.941134214 0.2641930282
5.527760029 -2.285153151 0.5195971727
6.048100471 -2.502732038 0.7985445261
6.028962135 -2.497278214 1.026887536
6.024657249 -2.496726751 1.259402275
6.057250977 -2.512711763 1.50401938
6.036680698 -2.506649017 1.739833713
2.748674631 -1.145851731 -0.7863443494
3.109948874 -1.297094822 -0.7679795027
3.604908466 -1.505009651 -0.7510870099
3.407441139 -1.423966169 -0.5782333612
5.287989616 -2.210929632 -0.6986116767
5.197937965 -2.175410748 -0.489266932
5.93851614 -2.48900795 -0.1116936132
4.672667503 -1.949829698 0.263146311
5.997345924 -2.505055428 0.5649181604
5.995369911 -2.505458832 0.7926948071
5.994695663 -2.507635355 1.02250731
5.986491203 -2.506659031 1.253296375
6.019244194 -2.522843361 1.496820927
5.999389172 -2.515752554 1.731551528
2.742877483 -1.154689908 -0.785826683
3.094399452 -1.303944349 -0.7652801275
3.606869698 -1.52063477 -0.7526135445
3.402449608 -1.435851693 -0.5782333612
5.265221596 -2.224116802 -0.6966617703
5.193983555 -2.195092916 -0.4896155894
3.544704437 -1.499529481 -0.199505806
5.907256603 -2.501399994 -0.111274749
4.59252882 -1.934295177 0.08628290147
4.634203434 -1.953752518 0.2613669038
5.955521584 -2.512036562 0.5617805719
5.947741985 -2.511201143 0.7875762582
5.967268944 -2.521900415 1.019378543
5.945156574 -2.51377821 1.246427298
5.965535641 -2.52485013 1.485573411
5.974119186 -2.530942202 1.72689271
2.754831076 -1.171059132 -0.7904854417
3.100587606 -1.31931591 -0.7679795027
3.59431386 -1.530139685 -0.7510870099
3.397417068 -1.447719693 -0.5782333612
5.272033215 -2.248712778 -0.6986116767
5.158801556 -2.201479435 -0.4870008826
3.528428555 -1.507186294 -0.1988777816
5.856199741 -2.503923416 -0.1104719415
4.578388214 -1.947183609 0.08614328504
4.586925983 -1.95270586 0.2590641081
5.926552773 -2.524222136 0.5598630905
5.913374901 -2.521048546 0.7841639519
5.923909664 -2.527983427 1.013434172
5.91467762 -2.525264263 1.241847873
5.931598663 -2.534937143 1.479274869
5.93682909 -2.539623737 1.718610525
2.738300085 -1.175334334 -0.7868620157
3.106706619 -1.33474648 -0.7706789374
3.596165419 -1.545778275 -0.7526135445
3.392342806 -1.459569931 -0.5782333612
5.249566078 -2.260820389 -0.6966617703
4.37343502 -1.884403586 -0.4129185081
5.841273308 -2.519276142 -0.3311830759
5.831339359 -2.516198874 -0.1101577953
4.556863308 -1.956840992 0.08586403728
4.589601517 -1.971848249 0.2595874965
5.870117664 -2.524429083 0.5553310513
5.886305809 -2.533825874 0.7817265391
5.888278961 -2.53589344 1.008741021
5.87878418 -2.534237623 1.236123562
5.89945364 -2.545589924 1.473426104
5.901770115 -2.547811747 1.710846066
2.737725973 -1.18642211 -0.7878972888
3.105839014 -1.346591592 -0.7715787292
3.58534503 -1.555976868 -0.7514686584
3.387484074 -1.470811367 -0.5782333612
4.806919575 -2.089110613 -0.6384081841
4.366830826 -1.899658322 -0.4129185081
4.364161491 -1.899402857 -0.2472362071
5.773022175 -2.514975071 -0.1092153639
4.524662018 -1.960809588 0.08537537605
4.59368372 -1.992625713 0.2602155209
5.833856583 -2.533001423 0.5527163744
5.861484051 -2.54621315 0.7795329094
5.830479622 -2.535164833 1.000293612
5.832541943 -2.537271976 1.228109598
5.871325493 -2.55658102 1.46847713
5.859192848 -2.55373168 1.701010823
2.73731637 -1.197042108 -0.7889325023
3.097549438 -1.355862021 -0.7706789374
3.59635067 -1.574945807 -0.7549031973
3.382329226 -1.482626915 -0.5782333612
4.772331238 -2.093913555 -0.6347521544
4.352876186 -1.911685228 -0.4122212827
4.342875957 -1.908197522 -0.2463988215
5.758716583 -2.532696009 -0.1091106459
4.488477707 -1.963766932 0.08481689543
4.595847607 -2.012654305 0.2607388794
5.80535078 -2.54353857 0.5507989526
5.810747623 -2.54832077 0.7739269137
5.819786072 -2.554707289 0.9999808073
5.79488945 -2.544984818 1.222003698
5.842741966 -2.568434 1.463528275
5.823719025 -2.562497854 1.693246245
2.732910633 -1.207067013 -0.7889325023
3.094580173 -1.367453933 -0.7711288333
3.597735882 -1.591292977 -0.7564296722
4.432844162 -1.963440657 -0.5901479721
4.327962875 -1.918792844 -0.4104781747
4.312120914 -1.913570762 -0.245038107
5.733391285 -2.545479536 -0.1087965071
4.466961861 -1.972959399 0.08453766257
4.594274521 -2.031107426 0.2610528767
5.783235073 -2.559154987 0.5495787859
5.776404858 -2.557338238 0.7705146074
5.790966988 -2.566203356 0.9965391159
5.769370556 -2.559043169 1.21856916
5.799448013 -2.574806929 1.454980016
5.791787148 -2.572615862 1.686517
2.737502813 -1.220532537 -0.7915207148
3.077090263 -1.373227596 -0.7679795027
3.5276227 -1.575027227 -0.7426914573
4.305832386 -1.924288273 -0.7402995229
4.400249481 -1.968326807 -0.5867356062
4.309990406 -1.929757595 -0.409432292
4.298123837 -1.925345063 -0.2446193993
5.69482851 -2.553386211 -0.1082380265
4.43048048 -1.976284146 0.08397918195
4.581327915 -2.04548955 0.2607388794
5.756075382 -2.571200848 0.5478355885
5.743433952 -2.567959309 0.7673459649
5.750870705 -2.573693514 0.9912204146
5.738900661 -2.569538832 1.213989735
5.761971951 -2.582283497 1.447781563
5.762930393 -2.585129023 1.680822968
2.722441673 -1.225798965 -0.7884148359
3.08293891 -1.388762593 -0.7706789374
3.46097517 -1.560508966 -0.7297164202
4.287947655 -1.935181499 -0.7384222746
4.377068996 -1.976322293 -0.5845419765
4.279625416 -1.934123635 -0.4071662426
4.283759117 -1.937793016 -0.2442007214
5.65308857 -2.558408737 -0.1076097414
4.416261673 -1.988453627 0.08383956552
4.592368603 -2.069675446 0.2617855966
5.710289478 -2.575895071 0.5443493724
5.714532852 -2.579009533 0.7646648884
5.711248398 -2.579927444 0.9859016538
5.720499992 -2.586511612 1.212081671
5.727613449 -2.592136145 1.441483021
5.725713253 -2.592480421 1.672540784
2.72539711 -1.238016129 -0.7904854417
3.078072548 -1.399515629 -0.7706789374
4.297687054 -1.956757188 -0.7412381172
4.355692387 -1.985003352 -0.5825920105
4.251433849 -1.938386202 -0.4050744772
4.280943871 -1.953646064 -0.2444100827
5.630020618 -2.570496321 -0.1073305011
4.3801651 -1.990619183 0.08328109235
4.596389294 -2.08985281 0.2624136209
5.670888424 -2.58078742 0.5413861275
5.685623646 -2.589889526 0.7619836926
5.681091309 -2.589022398 0.9821472168
5.670808792 -2.586727381 1.203304529
5.679986 -2.593308926 1.431585073
5.683698177 -2.59620285 1.662705541
2.722815275 -1.248327017 -0.7910030484
3.073414326 -1.409715176 -0.7706789374
3.443136454 -1.580754399 -0.7281899452
4.280404091 -1.966051102 -0.7393608689
4.325638771 -1.988656998 -0.5794234276
4.233781815 -1.948217392 -0.4040286541
4.249042511 -1.956138372 -0.2429446429
5.588323116 -2.575069666 -0.106702216
4.348091602 -1.993466139 0.08279242367
4.578174591 -2.100886583 0.2617855966
5.634686947 -2.588092804 0.5387714505
5.646339417 -2.594638586 0.7578401566
5.655867577 -2.601408243 0.9793314338
5.626529694 -2.589104176 1.195672035
5.658965111 -2.606423855 1.428435802
5.655302525 -2.607130289 1.657011628
2.723921061 -1.259782195 -0.7925559878
3.082622528 -1.426983953 -0.7742781639
3.530512094 -1.635065913 -0.74803406
4.273514748 -1.980980396 -0.7393608689
4.286258221 -1.988705516 -0.5750361681
4.212840557 -1.955535412 -0.4026341438
4.234942913 -1.967592239 -0.242525965
5.579300404 -2.594560862 -0.106702216
4.326587677 -2.001913786 0.08251318336
4.540003777 -2.102586031 0.2600061595
4.971660614 -2.303550482 0.4756706655
5.603031635 -2.598463774 0.7532091141
5.623459816 -2.610323191 0.975264132
5.596090794 -2.598806143 1.19109261
5.630393982 -2.617125988 1.423486948
5.626900673 -2.617890835 1.651317596
2.726509333 -1.27255106 -0.794626534
3.070560217 -1.434436321 -0.7724785209
3.572805166 -1.669823647 -0.7583377957
4.266573906 -1.995885611 -0.7393608689
4.266705513 -1.997762918 -0.5733299851
4.191555023 -1.963467956 -0.4012396634
4.237091064 -1.986602187 -0.2430493385
5.528573036 -2.59448123 -0.1058994085
4.308701992 -2.011927843 0.08230374753
4.407788277 -2.060070276 0.2527838051
5.015929222 -2.345364332 0.4807256758
5.583140373 -2.612957954 0.7517467141
5.583902836 -2.615691423 0.9699453115
5.565651894 -2.608326435 1.186513186
5.587702751 -2.621039629 1.414938807
5.59324646 -2.626022577 1.644070745
2.704573631 -1.273828983 -0.7894501686
3.072585344 -1.448469758 -0.7742781639
3.558075905 -1.678097606 -0.7564296722
4.26315403 -2.012453318 -0.7399866581
4.238167763 -2.002467871 -0.570405066
4.150451183 -1.961909294 -0.3979277313
4.244573593 -2.008213758 -0.2438867092
5.387550831 -2.551286697 -0.1033513546
4.287181377 -2.020136833 0.08202451468
4.340958118 -2.047328949 0.2493296415
4.975278378 -2.347555161 0.4775880873
5.545265675 -2.61886692 0.7478469014
5.54080677 -2.619127512 0.9640008211
5.536991119 -2.618506193 1.182315469
5.567951202 -2.63552618 1.412239313
5.549128532 -2.628988266 1.633717895
2.698365688 -1.282432795 -0.7889325023
3.06399107 -1.457512021 -0.7733783722
3.580560684 -1.704005837 -0.7625355721
4.225785732 -2.012881041 -0.7346678972
4.222193718 -2.012978554 -0.5691864491
4.132787704 -1.971238732 -0.3968818486
4.233932972 -2.02129674 -0.2436773777
5.400263786 -2.580422878 -0.1037702113
4.254820347 -2.023067951 0.08153585345
4.931075573 -2.347778082 0.4741018713
5.518170357 -2.629668236 0.7454094887
5.512017727 -2.629097939 0.9605592489
5.50301075 -2.625980616 1.176972866
5.521789551 -2.637308359 1.402791381
5.512031555 -2.635010958 1.62543571
2.716517687 -1.302703261 -0.7956618071
3.065912008 -1.471571445 -0.7751779556
3.571051359 -1.714794517 -0.7617723942
4.199148655 -2.018206835 -0.7312262654
4.204407692 -2.022540808 -0.5677239895
4.106133461 -1.976148486 -0.3949644566
4.19986105 -2.023062468 -0.242107287
5.429507256 -2.616547585 -0.1045032144
4.222491264 -2.025797844 0.08104717731
4.258499622 -2.043987751 0.2453521043
4.915667057 -2.361525297 0.4734046161
5.474966049 -2.63256979 0.7407784462
5.485468388 -2.638798237 0.9574305415
5.458432674 -2.628139496 1.169340372
5.496750355 -2.648952961 1.398742318
5.48760128 -2.645724297 1.620777011
2.698041916 -1.305446506 -0.7915207148
3.050490856 -1.476635814 -0.7724785209
3.582712173 -1.735809326 -0.765588522
4.183545589 -2.027812481 -0.7296620011
4.170886993 -2.02347517 -0.5640679002
4.083079815 -1.982636929 -0.3933956325
4.202111721 -2.041342258 -0.2426306605
5.364590645 -2.608377457 -0.1034211591
4.208550453 -2.036305428 0.08090756088
4.860778809 -2.356075287 0.4688725173
5.384042263 -2.6108675 0.7295665145
5.417578697 -2.629466295 0.9471058846
5.41613245 -2.629932642 1.162089705
5.461645603 -2.654388905 1.391993761
5.45922327 -2.655567646 1.61508286
2.711059809 -1.322858095 -0.7966970801
3.066330671 -1.497537374 -0.7778773904
3.569880009 -1.744232774 -0.7640619874
4.160470486 -2.034593105 -0.7268461585
4.140620232 -2.026676893 -0.5608992577
4.072556019 -1.99512434 -0.3930470049
4.200340271 -2.05863452 -0.2429446429
5.281845093 -2.590979338 -0.1019900665
4.176258564 -2.03870225 0.0804188922
4.845778942 -2.368680954 0.4681752324
5.414124966 -2.648838282 0.7349287868
5.417237759 -2.652705193 0.9486702681
5.391052246 -2.641048908 1.158655167
5.382357121 -2.639119625 1.373997688
5.441248894 -2.670352459 1.612494707
2.695794582 -1.327664375 -0.7935912609
3.068076849 -1.511676908 -0.7796769738
3.545855045 -1.748622179 -0.7602458
4.142357349 -2.044582367 -0.7249689102
4.124620914 -2.036723375 -0.5596806407
4.04770565 -2.000500441 -0.3913038969
4.176655293 -2.066045761 -0.2420026213
5.313990116 -2.629800558 -0.1027928814
4.158352852 -2.04796648 0.08020946383
4.822770596 -2.379373789 0.4667807817
5.387045383 -2.658934593 0.732491374
5.377837658 -2.65672493 0.9433515072
5.388375282 -2.664271355 1.160181522
5.390113831 -2.667472839 1.378496647
5.37822485 -2.662757874 1.596448064
2.684223652 -1.333628178 -0.7915207148
3.062515736 -1.522911787 -0.7796769738
3.553791761 -1.767984629 -0.7632988095
4.099829197 -2.041419744 -0.718711555
4.10291481 -2.044743538 -0.5577306747
4.024650097 -2.006616592 -0.3897351027
4.160482407 -2.076153517 -0.2414792478
5.325783253 -2.659981489 -0.1032117382
4.127540112 -2.051623106 0.07975570112
4.775194645 -2.376663208 0.4629459083
5.355941296 -2.668039799 0.7295665145
5.346849442 -2.665840864 0.9395970702
5.350932598 -2.669042826 1.154075623
5.375540257 -2.683660269 1.377147079
5.358060837 -2.677271128 1.593342185
2.689914703 -1.348183513 -0.794626534
3.060664892 -1.53534019 -0.7805767655
3.556372166 -1.784781933 -0.7652068734
4.067965508 -2.043305397 -0.7143313885
4.081563473 -2.051919937 -0.5557807684
4.003381729 -2.013491154 -0.3883405924
4.146074295 -2.087071657 -0.2410605699
5.277176857 -2.658761263 -0.1024438292
4.09711504 -2.054366112 0.07930193841
4.223594189 -2.119630337 0.2454567999
4.756186485 -2.38795352 0.4619000554
5.321763515 -2.674241066 0.7261541486
5.333981991 -2.68271327 0.9389712811
5.310016632 -2.671821117 1.147206545
5.346993923 -2.692766428 1.372198105
5.334881783 -2.689001799 1.589200974
2.692088127 -1.361051202 -0.7966970801
3.037898779 -1.537216067 -0.7760777473
3.565884829 -1.805165529 -0.7686414719
4.051997662 -2.053028822 -0.712767005
4.0549016 -2.056278944 -0.5530996919
3.990998507 -2.024749041 -0.387817651
4.140543938 -2.102435589 -0.2411652356
5.257634163 -2.670812607 -0.1022344008
4.079212189 -2.063240051 0.07909251004
4.737157345 -2.39914012 0.4608542025
5.285836697 -2.679338455 0.7224980593
5.302153111 -2.688772202 0.9349039793
5.290153503 -2.685009003 1.144916892
5.299338341 -2.691997766 1.362300277
5.310435295 -2.698800802 1.584542394
2.694205046 -1.373950601 -0.7987676859
3.044935942 -1.553480983 -0.779227078
3.559561968 -1.8176018 -0.7686414719
4.029335499 -2.058366537 -0.7099512219
4.02331543 -2.057062626 -0.5496872663
3.971490622 -2.032314301 -0.3865974844
4.137105465 -2.117974997 -0.2413745821
5.214465618 -2.671823025 -0.1015712097
4.065222263 -2.073121548 0.07895288616
4.703913689 -2.402971745 0.4584138095
5.261013508 -2.688721657 0.7203043699
5.261079311 -2.691071749 0.9292723536
5.255004883 -2.689121723 1.139192581
5.266099453 -2.697118998 1.356001616
5.280352592 -2.706746101 1.578330636
2.679325342 -1.377577305 -0.7956618071
3.037761688 -1.56320858 -0.7787771821
3.53780508 -1.821308136 -0.7652068734
4.018613815 -2.070609808 -0.7093254924
4.005524635 -2.065634966 -0.548224926
3.939940929 -2.032684326 -0.3841571212
4.126137257 -2.130570412 -0.2411652356
5.182013035 -2.678073406 -0.101117447
4.047291279 -2.081811428 0.07874345779
4.667579174 -2.403961182 0.4556248486
5.228658199 -2.695245504 0.717135787
5.22707653 -2.696739912 0.9248922467
5.229884624 -2.699344635 1.135758042
5.242801666 -2.708329916 1.352402449
5.245131016 -2.711853027 1.570566058
2.671070576 -1.385142922 -0.794626534
3.058231354 -1.58726871 -0.7855256796
3.569758415 -1.853549838 -0.7736024857
3.993833303 -2.07551527 -0.706196785
3.985961914 -2.07319212 -0.5465186834
3.911611795 -2.035388708 -0.3820653856
4.104504108 -2.137580156 -0.2403278649
5.154900551 -2.686902761 -0.1007683948
4.008049488 -2.07935071 0.07811518013
4.217010975 -2.189627171 0.2468175292
4.648550987 -2.41472888 0.4545789659
5.20512867 -2.7061553 0.7151858807
5.205364704 -2.708586931 0.9227020741
5.194308758 -2.703985929 1.130033731
5.214305401 -2.716709137 1.347453356
5.208226204 -2.715853691 1.562283754
2.676490307 -1.399830103 -0.7977323532
3.035407066 -1.588896632 -0.7810266614
3.578919411 -1.87419641 -0.7770370841
3.969067574 -2.080273628 -0.7030680776
3.971668959 -2.083404779 -0.5455437303
3.890369892 -2.041623831 -0.3806709051
4.075798988 -2.140749693 -0.2390718013
5.136640072 -2.700228214 -0.1005938798
3.984820127 -2.084985018 0.07780103385
4.211111546 -2.205260515 0.246922195
4.615385056 -2.417995691 0.4521385729
5.167521477 -2.709558725 0.711286068
5.180136681 -2.718479156 0.919886291
5.16397953 -2.711149693 1.125454307
5.185814381 -2.724922895 1.342504501
5.183325768 -2.72592473 1.557625175
2.680131197 -1.413670778 -0.8003205657
3.029842138 -1.599482656 -0.7810266614
3.586243629 -1.894012451 -0.7800899744
3.946064234 -2.085807323 -0.7002522349
3.945070982 -2.087044716 -0.5428626537
3.865610123 -2.045871496 -0.3789277971
4.075361252 -2.158703566 -0.2394904792
5.114816189 -2.711585522 -0.1003495455
3.958063841 -2.088616133 0.07741708308
4.104486942 -2.167713881 0.2410605699
