# .PCD v0.7 - Point Cloud Data file format
VERSION 0.7
FIELDS x y z
SIZE 4 4 4
TYPE F F F
COUNT 1 1 1
WIDTH 1252
HEIGHT 1
VIEWPOINT 0 0 0 1 0 0 0
POINTS 1252
DATA ascii
2.259939432 -1.836602926 -0.1504146755
2.252985239 -1.8316046 -0.04998189583
2.270163536 -1.838998079 0.05029603839
3.725775719 -3.019227982 0.2491202801
3.773059607 -3.059727669 0.4212854803
3.775364876 -3.063781738 0.5918540955
3.772012949 -3.062153816 0.7628260851
3.764967442 -3.058614731 0.9346452355
3.780962944 -3.072705269 1.114853978
3.768685818 -3.064912796 1.290006161
2.194280863 -1.788974047 -0.7470038533
2.75886035 -2.250873566 -0.8120698929
2.494083643 -2.035574913 -0.61752069
3.375837326 -2.757192135 -0.6836702228
2.377055883 -1.942136049 -0.3717580736
2.266111135 -1.852810144 -0.2523776591
2.258474112 -1.847881556 -0.1507287025
2.24225688 -1.835266113 -0.04987718165
2.245456696 -1.83134985 0.04987718165
3.715743303 -3.031566381 0.2491202801
3.758262396 -3.068442106 0.4207625389
3.752886534 -3.066236734 0.5899042487
3.758778811 -3.072144985 0.7622002959
3.745686054 -3.063625574 0.9323556423
3.766228199 -3.081524611 1.113504291
3.751028299 -3.071274281 1.287418008
2.204761505 -1.80972302 -0.7526978254
2.754392862 -2.262483358 -0.8129696846
2.426645517 -1.99397862 -0.602256
3.645893812 -2.997969151 -0.7409252524
2.370261908 -1.95042181 -0.3717580736
2.256878138 -1.857782006 -0.2520290315
2.240001202 -1.845201612 -0.1498913169
2.240465879 -1.846897602 -0.04998189583
2.217735052 -1.821019888 0.04938851297
3.681992054 -3.025498867 0.2475502342
3.741909981 -3.075827837 0.4200653136
3.724300861 -3.063531876 0.5869793296
3.737355947 -3.076458693 0.7600102425
3.720350981 -3.063549757 0.9285394549
3.735897779 -3.078541517 1.107655644
3.740284681 -3.084348917 1.287418008
2.193964481 -1.813715458 -0.7511449456
2.75248456 -2.277053356 -0.8147693276
2.269194365 -1.879242659 -0.4599688649
2.363439322 -1.958683372 -0.3717580736
2.254980803 -1.869463325 -0.2525519431
2.228935003 -1.849183559 -0.1495773047
2.230928421 -1.852152467 -0.04991208389
3.659098864 -3.02814579 0.2467128336
3.721942425 -3.08124733 0.4190194309
3.710526943 -3.07398057 0.5864918232
3.706824541 -3.073096037 0.7559429407
3.709634066 -3.07651782 0.9285394549
3.710133076 -3.079118013 1.103156567
3.726522923 -3.094917774 1.286382675
2.183166027 -1.817654371 -0.7495920658
2.741524935 -2.284152508 -0.8138694763
3.418564796 -2.85127449 -0.6983750463
2.365731716 -1.974553347 -0.3732204735
2.246584892 -1.876438618 -0.2523776591
2.235934734 -1.868868589 -0.1505193561
2.2121768 -1.849666834 -0.04963284731
3.639301538 -3.033227444 0.2460848242
3.692800522 -3.078909636 0.4169276953
3.693677425 -3.081827402 0.5855169296
3.691525936 -3.082218647 0.7550042868
3.689293861 -3.082540512 0.9262497425
3.697867632 -3.090800524 1.102706671
3.70087862 -3.09551239 1.281206369
2.172048807 -1.821919441 -0.7480391264
2.748060703 -2.306714058 -0.8183684945
2.480090857 -2.083257198 -0.6213368773
2.358478785 -1.98321104 -0.3732204735
2.236643314 -1.882094502 -0.2520290315
2.227542162 -1.875764608 -0.1504146755
2.21455884 -1.865492463 -0.04984227568
3.623570681 -3.0426929 0.245770812
3.669286489 -3.082172394 0.4155332148
3.670200825 -3.085126162 0.5835670233
3.669623137 -3.086826801 0.7528142333
3.662951231 -3.083398819 0.9224335551
3.677570581 -3.096801758 1.100007296
3.671781063 -3.09411788 1.274994731
2.177160978 -1.839843631 -0.7521802187
2.736611843 -2.314254045 -0.8174687028
2.493788004 -2.109653473 -0.6266795397
2.368205547 -2.00554347 -0.3759016097
2.23917985 -1.897619128 -0.2530748844
2.210318327 -1.874486089 -0.1496819854
2.217183113 -1.88097322 -0.05005170777
3.603777647 -3.047584772 0.2451427728
3.653402567 -3.091738939 0.4150102735
3.648264647 -3.089577198 0.5818608403
3.649781942 -3.091956377 0.750936985
3.638687849 -3.084740162 0.9189989567
3.657820702 -3.102057219 1.097307801
3.65064764 -3.098165751 1.271371245
2.176933289 -1.852060437 -0.7542507648
2.725954533 -2.320790052 -0.8165689111
2.540585995 -2.163737535 -0.6404178143
2.355499029 -2.008234262 -0.3749266565
2.237421989 -1.908913493 -0.2535978258
2.205608845 -1.883102179 -0.1497866511
2.217015266 -1.893509984 -0.0501913242
3.587568283 -3.054340124 0.2447240949
3.634030104 -3.096084595 0.4139643908
3.625913858 -3.091355324 0.579910934
3.633496761 -3.098914862 0.7496855259
3.622465372 -3.091691256 0.9174724817
3.635657549 -3.104047298 1.093708634
3.634478331 -3.105234861 1.269300699
2.185452223 -1.871836185 -0.7594271302
2.709366083 -2.322207212 -0.8138694763
2.438009739 -2.09036541 -0.6159942746
2.354499578 -2.021616697 -0.3759016097
2.2383008 -1.923204184 -0.2544693947
2.209954977 -1.899519324 -0.1505193561
2.205844164 -1.897325397 -0.05008661002
3.555657387 -3.048643589 0.24325867
3.619206429 -3.104226828 0.4134414494
3.615643024 -3.103361845 0.579910934
3.606173754 -3.097421169 0.7462440133
3.609214783 -3.101128101 0.9167092443
3.614456654 -3.107825518 1.090559363
3.620688438 -3.115383148 1.268265486
2.171263695 -1.873523474 -0.7568389177
2.71009469 -2.339290857 -0.8165689111
2.471931934 -2.135220766 -0.6266795397
2.351933002 -2.033718348 -0.3766328394
2.224040747 -1.924486995 -0.2535978258
2.207507372 -1.911528587 -0.1508333683
2.205253839 -1.910250783 -0.05022623017
3.543482304 -3.059731245 0.2431540042
3.591221333 -3.103141785 0.4115240574
3.595777273 -3.108175039 0.5784484744
3.587869406 -3.103528738 0.7446796298
3.591886997 -3.109195948 0.9151827693
3.592730999 -3.112121344 1.087410092
3.599571705 -3.119146585 1.264642
2.182209492 -1.896296978 -0.7630506158
2.707384586 -2.354323149 -0.8183684945
2.476313591 -2.154144526 -0.6297324896
2.354940891 -2.05145216 -0.3783389926
2.220313549 -1.934856653 -0.2539464533
2.202326775 -1.920535445 -0.1509380341
2.204264402 -1.923579931 -0.05036585033
3.526216745 -3.067455053 0.2427353263
3.571349621 -3.107811213 0.4104781747
3.579869747 -3.117422342 0.5777172446
3.570513964 -3.111466885 0.7434281707
3.569172382 -3.111393929 0.9121297598
3.577440262 -3.12079978 1.086060405
3.576472521 -3.12215519 1.260500789
2.181391716 -1.908991694 -0.7651211619
2.456965446 -2.152425766 -0.6266795397
2.350749969 -2.062278271 -0.3788264692
2.219536304 -1.947852135 -0.2546437085
2.19560957 -1.928211093 -0.1509380341
2.19753623 -1.931262374 -0.05036585033
3.513985872 -3.078428984 0.2426306605
3.554485798 -3.115006208 0.4097809196
3.546579361 -3.110266447 0.5740612149
3.556661844 -3.121305704 0.7428025007
3.545011997 -3.112177134 0.9086952806
3.567988873 -3.134554625 1.086510181
3.553945303 -3.124416113 1.256359816
2.205150843 -1.943418145 -0.775991559
2.461214542 -2.171379805 -0.6297324896
2.343536854 -2.070471525 -0.3788264692
2.218694925 -1.960865378 -0.2553409338
2.193353653 -1.939832926 -0.1512520611
2.210248232 -1.956150413 -0.05081961304
3.48973918 -3.078784466 0.2416886091
3.542096853 -3.126076221 0.4096066058
3.526773453 -3.114743233 0.5725987554
3.536863804 -3.125852823 0.7409252524
3.528243065 -3.119330883 0.907168746
3.536592245 -3.128912687 1.080211639
3.540124655 -3.134241343 1.255324483
2.250368357 -1.9972682 -0.794626534
2.169704676 -1.927031159 -0.6600030065
2.24521184 -1.994794369 -0.575542748
2.216301918 -1.972571969 -0.2558638752
2.188060522 -1.948805928 -0.1513567269
2.203406572 -1.963853598 -0.05081961304
3.464039803 -3.077681541 0.240641892
3.523717403 -3.131803036 0.4087350667
3.511429787 -3.123077154 0.5718675256
3.514126301 -3.127672672 0.7384222746
3.510001659 -3.125100136 0.9052606821
3.514008522 -3.130867481 1.076612353
3.523394823 -3.141436815 1.253253937
2.263547897 -2.023134708 -0.8018734455
2.155702114 -1.928097367 -0.6577534676
2.138744354 -1.913601756 -0.5495927334
2.155303478 -1.929772973 -0.4515214264
2.197443008 -1.968885422 -0.3571337461
2.204951525 -1.976306796 -0.2553409338
2.19016552 -1.964433312 -0.1519847512
2.184633017 -1.960847259 -0.05054037273
3.448810339 -3.085759163 0.2403278649
3.499402285 -3.132125378 0.4071662426
3.499027967 -3.133990765 0.5716238022
3.485535622 -3.124099493 0.7346678972
3.500533342 -3.138643742 0.905642271
3.501607895 -3.141812801 1.076162457
3.499470711 -3.142101049 1.248595119
2.276574612 -2.049117327 -0.8091204166
2.154750824 -1.94082725 -0.6595531106
2.146636724 -1.934197664 -0.5534089208
2.154422283 -1.942576051 -0.4527728856
2.143394947 -1.933989406 -0.3493341208
2.161064386 -1.950617194 -0.2509831488
2.18625927 -1.974743724 -0.1521940976
2.183708906 -1.973824978 -0.05067999288
2.162231207 -1.946881771 0.05008661002
3.435050488 -3.095105171 0.2401185185
3.479568481 -3.13631773 0.4061203599
3.480696678 -3.139537573 0.570405066
3.480474472 -3.141541481 0.7359193563
3.477899313 -3.140318155 0.9025893807
3.477606297 -3.142258406 1.072113276
3.47415185 -3.141340494 1.243418813
2.30089736 -2.085594893 -0.8205084205
2.139302492 -1.940481305 -0.6568536758
2.144233704 -1.945636749 -0.5545537472
2.149091005 -1.951412201 -0.4530857801
2.143976688 -1.948134303 -0.3505527973
2.143922091 -1.948768139 -0.2497629821
2.136506081 -1.943389654 -0.1491586268
2.154965878 -1.960868001 -0.05015641823
2.149496794 -1.949044466 0.04994699359
3.424767971 -3.10647893 0.2401185185
3.462698221 -3.143088579 0.4054231346
3.457961082 -3.140990734 0.5684552193
3.464190006 -3.147752047 0.7346678972
3.448033333 -3.135269403 0.8976283669
3.468058109 -3.155689955 1.072563291
3.458001852 -3.147642374 1.241348267
2.296457052 -2.096218348 -0.8215436935
2.245102167 -2.050059795 -0.6919460297
2.341782331 -2.139840841 -0.6083618999
2.2621665 -2.067815065 -0.47874102
2.152151823 -1.968631625 -0.3529901803
2.141515493 -1.960275292 -0.2502858937
2.112373829 -1.934277773 -0.1479025483
2.143685102 -1.964325666 -0.05005170777
2.132683039 -1.946724772 0.04970265925
3.441666603 -3.147082329 0.5674802661
3.441522121 -3.149157047 0.7321649194
3.427480459 -3.137406826 0.8949570656
3.443204403 -3.154010296 1.068064332
3.446993113 -3.159693956 1.241348267
2.317943096 -2.129964828 -0.8318964839
2.659664154 -2.445686579 -0.8242172599
2.378020763 -2.187468529 -0.619810462
2.413352013 -2.221524 -0.5128437877
2.332153559 -2.14828372 -0.3841887414
2.165771961 -1.995718956 -0.2539464533
2.134974718 -1.968718767 -0.1499959975
2.119179964 -1.955522895 -0.04963284731
2.109449625 -1.940418005 0.148007229
2.120248795 -1.951034904 0.2483685017
3.423725367 -3.156005144 0.8968650699
3.420714617 -3.155439377 1.064465046
3.431683779 -3.167775631 1.239795327
2.316165447 -2.143291473 -0.83396703
2.658260107 -2.461575985 -0.8264667392
2.361729145 -2.187750816 -0.61752069
2.418620586 -2.242020607 -0.5156595707
2.346470594 -2.17666173 -0.3878448308
2.198224783 -2.03985858 -0.2586528659
2.17492342 -2.019649029 -0.1533454955
2.14603281 -1.994216681 -0.05043565854
2.124910355 -1.966999888 0.04984227568
2.112919807 -1.957270145 0.1487399191
2.114886761 -1.959778309 0.2485427856
2.118323803 -1.964338303 0.3495778143
2.093097448 -1.94230485 0.4455769062
3.403968334 -3.162055492 1.062665462
3.400796413 -3.161321163 1.232548475
2.300189734 -2.143460989 -0.8308612108
2.661053181 -2.481472254 -0.8300659657
2.33685112 -2.179911375 -0.6129413247
2.407891989 -2.24775362 -0.5150338411
2.334506035 -2.180773973 -0.387113601
2.191090822 -2.047519207 -0.2586528659
2.170777798 -2.029956818 -0.1535548419
2.169720888 -2.030388832 -0.05116865784
2.115106106 -1.971678257 0.04977246746
2.110456228 -1.968721032 0.1490539461
2.115316391 -1.973945379 0.2494143546
2.112905264 -1.973075628 0.3498215675
2.102180958 -1.964435101 0.4490184784
2.106529474 -1.969187617 0.5522640347
3.391487122 -3.172587395 1.062215567
3.379868269 -3.16393137 1.22892499
2.298328638 -2.156765223 -0.832931757
2.641010523 -2.480073929 -0.8264667392
2.323503494 -2.182678461 -0.6114147902
2.382759809 -2.239909172 -0.5112794042
3.331768513 -3.134214878 -0.5565119982
2.192636013 -2.06334734 -0.2596987188
2.157862663 -2.032045126 -0.153136149
2.168441772 -2.043435812 -0.05130828172
2.108413219 -1.981317043 0.2494143546
2.098774672 -1.973639607 0.348602891
2.083802462 -1.960931063 0.4465155005
2.105361223 -1.981911778 0.5537905097
3.374717474 -3.179061413 1.060415864
3.365992069 -3.173059464 1.227889657
2.293594599 -2.167428017 -0.83396703
2.291104317 -2.166589499 -0.7180404067
2.307313442 -2.182680845 -0.6091251373
3.014734983 -2.853884697 -0.650818944
3.319366932 -3.144460917 -0.5562682748
2.198436022 -2.083322763 -0.2612675428
2.150756359 -2.039565325 -0.153136149
2.173259497 -2.061625242 -0.05158751458
3.301467657 -3.122042656 0.2359316349
3.348920345 -3.169131279 0.3996708393
3.338653326 -3.161625624 0.5594369173
3.342141628 -3.166035414 0.722465992
3.352255344 -3.177837133 0.8896143436
3.343807459 -3.172045469 1.054117203
3.349846125 -3.178884983 1.225819111
2.288813591 -2.17808485 -0.8350023031
2.293994188 -2.185304642 -0.6075986624
3.005254507 -2.863866091 -0.650818944
2.189708948 -2.089608669 -0.2610932291
2.156983137 -2.059098244 -0.1540782005
2.16315794 -2.066436291 -0.05151770636
3.277532101 -3.121151447 0.2349895835
3.336395502 -3.179427624 0.3994965553
3.323840141 -3.168570518 0.5587056875
3.32678175 -3.173591852 0.7215273976
3.324655294 -3.172672033 0.8850349784
3.326223373 -3.17638731 1.051867843
3.337332249 -3.189224243 1.225301385
2.27878809 -2.182990074 -0.83396703
2.194711685 -2.103917599 -0.6919460297
2.239845753 -2.149436235 -0.484998405
2.673621178 -2.567495823 -0.4499981999
2.195699215 -2.109281063 -0.2626620233
2.162741184 -2.079071999 -0.1550202519
2.158813715 -2.076747179 -0.05158751458
3.260851383 -3.127043724 0.2345709056
3.307142735 -3.172543526 0.3972305059
3.312759638 -3.18015337 0.5587056875
3.309985161 -3.179711103 0.7202759385
3.312144756 -3.182897806 0.8846533895
3.313710451 -3.186627388 1.051417828
3.309475899 -3.184779644 1.219089866
2.265592813 -2.185566187 -0.8318964839
2.159313679 -2.084496498 -0.6829479933
2.22257638 -2.146317244 -0.5923339128
2.203919649 -2.129787445 -0.47874102
2.192618847 -2.121088266 -0.2631849349
2.161210537 -2.09216547 -0.1554389298
2.157296419 -2.089835882 -0.05172713846
3.247042418 -3.135632753 0.2343615443
3.286017418 -3.174378872 0.3960103393
3.300211191 -3.190317869 0.5584619045
3.290347099 -3.183005095 0.7183986902
3.288316965 -3.182152033 0.881218791
3.298367023 -3.194108009 1.05006814
3.28446579 -3.182868481 1.213913441
2.269035339 -2.204229593 -0.8360375762
2.171586514 -2.111038208 -0.6892466545
2.167216539 -2.107526064 -0.5793588758
2.179483414 -2.120935678 -0.474986583
2.214759827 -2.156769991 -0.3744391799
2.171987772 -2.116595745 -0.2616161406
2.155324697 -2.101091146 -0.1555436105
2.162871361 -2.10992074 -0.05204127729
3.23178196 -3.142770767 0.2340475619
3.273488522 -3.184440136 0.3958359957
3.273408175 -3.186586857 0.5557807684
3.276386261 -3.191714048 0.7177729011
3.268752813 -3.185389996 0.8789290786
3.285802364 -3.204241753 1.049618244
3.273335218 -3.194314003 1.213913441
2.262321949 -2.213882685 -0.8365552425
2.153063774 -2.107699871 -0.685647428
2.20716095 -2.162166357 -0.5923339128
2.19144392 -2.148269415 -0.4793667495
2.193044424 -2.150588989 -0.372001797
2.168852329 -2.128350973 -0.262139082
2.146184206 -2.107577085 -0.1554389298
2.165478706 -2.127267122 -0.05228561535
3.212230444 -3.145648003 0.2334195226
3.2561028 -3.190838337 0.3951387405
3.249506474 -3.185486794 0.5535871387
3.258174419 -3.196214914 0.7162086368
3.247248888 -3.187721968 0.8762577772
3.25874424 -3.201241016 1.04466939
3.256653547 -3.200304508 1.211842895
2.258708239 -2.22583437 -0.838108182
2.156424761 -2.126523495 -0.6892466545
3.027007341 -2.98607707 -0.8182518482
2.209236145 -2.180885315 -0.484998405
2.185147285 -2.15861249 -0.372001797
2.150175333 -2.126290798 -0.1562763005
2.159088612 -2.136596203 -0.0523205176
3.189304113 -3.146179199 0.232582137
3.242108345 -3.19938612 0.394790113
3.233572245 -3.193191051 0.5528559089
3.236602545 -3.198415995 0.7140185237
3.240290403 -3.203178167 0.8774026036
3.236466646 -3.2016325 1.041070104
3.242156267 -3.209501028 1.210807562
2.246811152 -2.229622602 -0.8365552425
2.140691996 -2.125798941 -0.6865472198
3.029100895 -3.009077549 -0.8216863275
2.925895929 -2.908584356 -0.6467516422
2.177599192 -2.166227102 -0.372001797
2.223142147 -2.212304354 -0.2706803679
3.211238861 -3.197815418 -0.2353036106
2.177113771 -2.169527292 -0.05294880643
3.17263484 -3.151662588 0.2321634442
3.22385478 -3.203661919 0.3939185739
3.22240591 -3.204458952 0.5528559089
3.203014851 -3.187399864 0.7090126276
3.223524094 -3.208928823 0.8758761287
3.225270987 -3.212910652 1.041070104
3.215883255 -3.205796242 1.205113649
2.230815411 -2.229258537 -0.8334493637
2.151172161 -2.151172161 -0.6923959255
3.010251284 -3.011301994 -0.8193966746
2.911536932 -2.914587498 -0.6458130479
3.179445028 -3.186110735 -0.3900837004
3.192033052 -3.202076912 -0.07821989059
3.245701075 -3.24456811 0.07940664887
3.157929182 -3.157929182 0.231849432
3.198568583 -3.200802803 0.3921754658
3.20138216 -3.205854654 0.5511497259
3.192427397 -3.198004007 0.7090126276
3.198437214 -3.20626235 0.8720598817
3.20578146 -3.215868235 1.038370609
3.199779749 -3.210968494 1.203042984
2.203956127 -2.217847824 -0.8262024522
2.145400286 -2.159676313 -0.692845881
3.035682917 -3.058017254 -0.8293187022
2.82950139 -2.851314306 -0.6295438409
2.179594755 -2.199466467 -0.2671941221
3.166768312 -3.198988199 -0.07787084579
3.178542137 -3.19857645 0.07801046222
3.146886587 -3.168932915 0.231849432
3.184569359 -3.209119558 0.3918268085
3.180947304 -3.206588745 0.549443543
3.184026003 -3.211933851 0.7096382976
3.176732063 -3.205694914 0.8690069914
3.186872482 -3.218173504 1.035671353
3.185834408 -3.219372272 1.202007771
2.19658947 -2.225144148 -0.8262024522
2.132374287 -2.161602736 -0.6910462379
3.0213902 -3.063873768 -0.8281739354
2.575503111 -2.613541365 -0.5744789839
2.134284735 -2.167319298 -0.3683457077
2.19045949 -2.225140572 -0.2694601715
2.129058361 -2.164277315 -0.1569043398
3.147171259 -3.20146656 -0.07766140997
3.161739111 -3.20395875 0.07787084579
3.123184681 -3.167099476 0.2309073806
3.171112776 -3.216825008 0.3914782107
3.161376476 -3.209187746 0.547981143
3.165866137 -3.215990305 0.7080740333
3.161391735 -3.212566137 0.8678621054
3.166055202 -3.219552279 1.032521963
3.173223019 -3.229095221 1.201490045
2.18880868 -2.2327981 -0.8262024522
2.126179457 -2.170425177 -0.6914961338
3.016171217 -3.08001256 -0.8297003508
2.563601255 -2.619692087 -0.5738532543
2.141973495 -2.190368176 -0.3710268438
2.184072018 -2.234197617 -0.2696344852
2.131260395 -2.181696892 -0.1576370448
3.087086201 -3.162350178 -0.07643974572
3.14353776 -3.207834244 0.07769631594
3.1023283 -3.167993307 0.2301746756
3.161258221 -3.229298115 0.3916525245
3.144602776 -3.214527607 0.5470061898
3.146336079 -3.218545914 0.706196785
3.146042347 -3.21936965 0.866717279
3.145266294 -3.220824242 1.029372573
3.153837204 -3.231857061 1.198384285
2.113624334 -2.17121172 -0.8003205657
3.01087594 -3.096151829 -0.8312268257
2.865568399 -2.948787451 -0.6445615888
3.120774746 -3.215894222 -0.3883405924
3.085974455 -3.181143999 -0.2300700098
3.094122887 -3.191772223 -0.07689350843
3.132321358 -3.218787432 0.07769631594
3.088466167 -3.17593956 0.2299653441
3.138856411 -3.228883982 0.3902580142
3.130595684 -3.2226367 0.5465186834
3.124074459 -3.218170404 0.7036938667
3.137519836 -3.233149529 0.8674805164
3.13264823 -3.230384827 1.028922796
3.130437136 -3.23036027 1.193725586
2.092227459 -2.165052176 -0.7951441407
2.117745399 -2.19222331 -0.6937456727
2.587717772 -2.680596113 -0.7159781456
3.089262486 -3.202378511 -0.6980621815
2.11560607 -2.193836927 -0.3690769374
3.079114437 -3.195205688 -0.3845057189
3.099231482 -3.218328714 -0.2319540977
3.096831322 -3.216959953 -0.07724255323
3.10994935 -3.218198061 0.07741708308
3.073199511 -3.182390928 0.2296513319
3.100714207 -3.213127375 0.3869461119
3.117949486 -3.232115984 0.54627496
3.105966806 -3.221944809 0.7021294832
3.112028122 -3.2304883 0.8636643291
3.115381241 -3.23622942 1.027123094
3.112443924 -3.234308004 1.191137314
2.047204256 -2.133313894 -0.7806503177
2.097556591 -2.187311888 -0.6896964908
2.526717901 -2.635757685 -0.7014766932
3.07669878 -3.211715937 -0.6977493167
2.09107852 -2.184368849 -0.3661520779
2.09541893 -2.18966794 -0.2614418268
3.074174881 -3.214692831 -0.2309073806
3.084290504 -3.215144634 0.07706803083
3.063453913 -3.194540501 0.2297559977
3.101886034 -3.236877203 0.3885149062
3.092352629 -3.229185104 0.5438376069
3.09470129 -3.232767105 0.7021294832
3.089875698 -3.229982376 0.8606113791
3.104065895 -3.247084141 1.027123094
3.093127251 -3.236772776 1.188031554
2.193009377 -2.301277637 -0.8401786685
2.087603569 -2.191433668 -0.688796699
2.579770088 -2.709972143 -0.7190310955
3.055137157 -3.210453033 -0.6952463388
2.094766617 -2.202798843 -0.3681019545
2.094625235 -2.204190493 -0.2623133957
3.05111742 -3.211837053 -0.2299653441
2.535987139 -2.671438456 -0.06359477341
2.981182814 -3.128362656 0.07472940534
3.038510799 -3.190750599 0.2287092805
3.075459719 -3.231808662 0.3865974844
3.066577196 -3.223601341 0.5411564708
3.079314947 -3.239254951 0.7011908889
3.075090408 -3.235941648 0.8594664931
3.078519821 -3.241816044 1.022174239
3.076490641 -3.241944551 1.185960889
2.193334579 -2.31695509 -0.8432845473
2.124135017 -2.245424509 -0.7036435008
2.984889984 -3.15643239 -0.8361878395
3.052052498 -3.229712248 -0.6971235871
2.085936785 -2.20967555 -0.262139082
3.059585094 -3.233158827 0.07699821889
3.015560389 -3.187750816 0.2277672291
3.075675488 -3.253572941 0.3879919946
3.052579403 -3.231399536 0.5406689644
3.056349993 -3.236522198 0.6983750463
3.062428713 -3.245228052 0.8590849042
3.056488991 -3.241199493 1.018574953
3.073673725 -3.260562897 1.189066768
2.169355392 -2.307706356 -0.8370729089
2.511689186 -2.672806978 -0.8368145227
2.972509861 -3.165401459 -0.8358062506
3.039973736 -3.238375425 -0.6968107224
3.029058218 -3.229005337 -0.5384753346
3.012965679 -3.214098692 -0.3817167878
3.02781868 -3.231073618 -0.2298606634
3.0248456 -3.230159044 -0.07654445618
3.044737816 -3.238916159 0.07689350843
3.003047466 -3.196802139 0.2276625633
3.046572208 -3.24540472 0.3857259452
3.045922279 -3.245847464 0.5414001942
3.038277626 -3.239966869 0.6968107224
3.048965216 -3.252501249 0.8583217263
3.040395021 -3.245628834 1.01677537
3.041150093 -3.248706818 1.180784583
2.169601679 -2.323359013 -0.8401786685
2.511651039 -2.691531658 -0.8399638534
3.004405975 -3.222958565 -0.6911790371
3.019121647 -3.241012096 -0.5387191176
3.013945818 -3.237721443 -0.3832855523
3.009719133 -3.234312296 -0.2293373197
2.997210979 -3.223125935 -0.07612560689
3.023861647 -3.239292383 0.07664917409
2.915576935 -3.125479221 0.2218009382
3.014052629 -3.232175827 0.3829369545
3.029160261 -3.250650883 0.540425241
3.028295517 -3.251998186 0.6971235871
3.02555418 -3.25019145 0.8548871279
3.033029318 -3.260502815 1.018125176
3.023214817 -3.252228022 1.17819643
2.171578407 -2.342629671 -0.8443198204
2.495617628 -2.693135738 -0.8377143741
2.531489134 -2.733759642 -0.7159781456
2.997844219 -3.245321751 -0.2293373197
2.459570646 -2.66354537 -0.06258253008
2.99894166 -3.235162497 0.07630012184
2.912792683 -3.144428968 0.2224289626
3.010306597 -3.251973629 0.3839828372
3.008357525 -3.251005888 0.5387191176
3.011561155 -3.256747723 0.695872128
2.994967461 -3.241071701 0.8495445251
3.015770197 -3.26587081 1.016325474
3.006603003 -3.257083178 1.176125884
2.168621302 -2.355880976 -0.8463903666
2.485730171 -2.702264547 -0.8377143741
2.469357014 -2.687287569 -0.5713502765
2.454767942 -2.673283339 -0.4404923618
2.49680233 -2.720012426 -0.3193132579
2.978939533 -3.237303495 0.07609069347
2.88908124 -3.141851902 0.2214869112
2.989498138 -3.252193928 0.3827626109
2.982992411 -3.247390985 0.5362817049
2.998268843 -3.266309023 0.6955592632
2.979653835 -3.24716711 0.8483996391
2.993815184 -3.264887333 1.012726307
2.9933393 -3.266656637 1.175608158
2.160384417 -2.363436699 -0.8463903666
2.490739346 -2.726751804 -0.8426632285
2.469844103 -2.709569216 -0.3170472085
2.466722727 -2.708042622 -0.1897713244
2.47140789 -2.715089798 -0.06338534504
2.870015621 -3.143067837 0.2208588719
2.975440979 -3.259666204 0.3824140131
2.971638918 -3.257783651 0.5362817049
2.972210646 -3.260695934 0.692117691
2.966978073 -3.256097078 0.8480179906
2.9614079 -3.252263546 1.005527854
2.97671771 -3.271370411 1.173537612
2.14952445 -2.368102551 -0.8453550339
2.479897022 -2.733985901 -0.8422133923
2.911538124 -3.210978985 -0.834279716
1.949719071 -2.153259516 -0.3515277505
2.9269979 -3.233695507 -0.3778819144
2.457892656 -2.719249249 -0.06328062713
2.45773387 -2.708601952 0.0631410107
2.961581707 -3.269608021 0.5365254283
2.948879957 -3.257870436 0.689301908
2.954277039 -3.264977932 0.8476364017
2.957879305 -3.271253824 1.008227229
2.960099936 -3.276006937 1.171467066
2.141245365 -2.37559104 -0.8453550339
2.471642494 -2.744073629 -0.8426632285
2.891115665 -3.210909605 -0.8316084146
2.921020269 -3.249820232 -0.3785791397
2.920209885 -3.251200676 -0.2268251926
2.45361805 -2.723106861 0.06328062713
2.453757286 -2.725173712 0.1899806708
2.42744565 -2.696897745 0.3137352765
2.943838596 -3.27865839 1.007327437
2.934454679 -3.270503044 1.165773034
2.127786398 -2.37729311 -0.8432845473
2.456852198 -2.746874809 -0.8408636451
2.893560886 -3.238545895 -0.6811673045
1.930673003 -2.162376165 -0.3507965207
2.90700531 -3.25702405 -0.3782305717
2.388289213 -2.679615021 -0.06195424497
2.91078186 -3.253246307 0.07549731433
2.428638697 -2.717238903 0.3151297867
2.446768045 -2.73944664 0.445854634
2.418332338 -2.709512472 0.5685344338
2.124608517 -2.39048171 -0.8453550339
2.137965202 -2.407201529 -0.7333370447
2.179101467 -2.454380989 -0.6297324896
2.900736094 -3.264881611 0.07553221285
2.896575928 -3.263638973 0.3780562282
2.421290636 -2.732923985 0.7014766932
2.426124334 -2.740306854 0.8350149393
2.12775588 -2.410919666 -0.8500138521
2.125682592 -2.410265446 -0.7319873571
2.130272627 -2.416319847 -0.6179023385
1.88498497 -2.139600754 -0.4449511766
2.107041359 -2.393335581 -0.3863823712
2.18129921 -2.478554964 -0.2851482034
2.894613981 -3.280985117 0.07567184418
2.378006697 -2.696370363 0.1862124801
2.889117718 -3.278214216 0.3785791397
2.850163698 -3.237429619 0.6764742136
2.860421896 -3.251369238 0.8335165381
2.130786657 -2.431407928 -0.8546725512
2.117678165 -2.417301178 -0.7319873571
2.110186338 -2.410446644 -0.6144677401
1.979349613 -2.261788845 -0.4693549275
2.118695021 -2.422724247 -0.3900384605
2.113636732 -2.418642998 -0.2773042023
2.111672401 -2.417246819 -0.166010797
2.114650726 -2.422361851 -0.05542704463
2.87449193 -3.280038595 0.07542750239
2.831754684 -3.233548164 0.2230570018
2.873721123 -3.283780813 0.3780562282
2.868050098 -3.278455734 0.5297006965
2.863547802 -3.275615692 0.6824187636
2.887089252 -3.303707838 0.8445834517
2.858617306 -3.273432732 0.9933804274
2.87130022 -3.290273428 1.158526063
2.115101814 -2.429718018 -0.8515667319
2.110506296 -2.426148891 -0.732437253
2.102181673 -2.417430878 -0.6144677401
1.906657219 -2.194131374 -0.4537115097
2.107622147 -2.427107334 -0.3895509839
2.102569342 -2.422996759 -0.2769555748
2.10714817 -2.429129362 -0.1663248241
2.103562355 -2.426706553 -0.05535723642
2.849897861 -3.274967194 0.07507845014
2.821760893 -3.244920015 0.2231616676
2.85235858 -3.281263113 0.3766617477
2.864399672 -3.297439098 0.531163156
2.863751173 -3.299017191 0.6852346063
2.85752511 -3.293006182 0.8392407298
2.863770723 -3.302531242 0.9992291927
2.853471994 -3.292976856 1.155938029
2.093551159 -2.422836542 -0.8463903666
2.104572296 -2.436450481 -0.7333370447
2.104852676 -2.438495398 -0.6179023385
1.90247333 -2.205592394 -0.454650104
2.097841024 -2.432946205 -0.3893072307
2.095399141 -2.431830645 -0.2771298885
2.093017817 -2.43078208 -0.1659061313
2.089860678 -2.427972555 -0.05521761999
2.830604315 -3.275817394 0.07486902922
2.807806015 -3.251726866 0.2229523212
2.837709665 -3.288678646 0.3763130903
2.839906693 -3.292385817 0.5287258029
2.839320898 -3.294030905 0.6821058989
2.832624197 -3.288582087 0.835424602
2.844019175 -3.304143667 0.9965298176
2.834399939 -3.294130802 1.15283215
2.095144987 -2.441858768 -0.8505314589
2.120603085 -2.474149942 -0.6251530647
2.086227655 -2.435763836 -0.501267612
2.08632803 -2.43760252 -0.3888197541
2.088193178 -2.440644026 -0.2773042023
2.079328537 -2.432001114 -0.1654874384
2.085270643 -2.439813137 -0.05532233045
2.814673185 -3.281616211 0.07476431876
2.788638115 -3.252410889 0.2223242968
2.826212883 -3.298563957 0.3763130903
2.820073605 -3.293725252 0.5272633433
2.825235844 -3.300920248 0.6814801693
2.822403669 -3.299942255 0.8358062506
2.83753252 -3.31997633 0.998329401
2.827903748 -3.30987978 1.154902697
2.08660841 -2.449157238 -0.8505314589
2.168377876 -2.546034098 -0.7621307373
2.123405695 -2.494992971 -0.6285876632
2.789829254 -3.279197454 -0.6752227545
2.104170799 -2.476767778 -0.2806161046
2.090645075 -2.461718321 -0.1670575142
2.072859526 -2.442503214 -0.05521761999
2.770794153 -3.25452137 0.2218009382
2.813390493 -3.30689168 0.3761388063
2.809135914 -3.303058624 0.5272633433
2.808579683 -3.304741383 0.6802287102
2.806360245 -3.303298235 0.834279716
2.800022125 -3.298170567 0.9888814688
2.811333656 -3.313838005 1.15283215
2.075979471 -2.453113794 -0.8494961858
2.214844704 -2.619059563 -0.7819264531
2.120189905 -2.508017778 -0.6301140785
2.762437582 -3.272377014 -0.5206823945
2.778249025 -3.292273283 -0.3731755018
2.7708776 -3.285864353 -0.2230570018
2.054012537 -2.437490702 -0.05493837968
2.079352379 -2.457969666 0.0554968603
2.759417057 -3.264173031 0.2218009382
2.797265053 -3.310116291 0.375441581
2.787342787 -3.300711155 0.525313437
2.783012867 -3.297918558 0.6767870784
2.794812679 -3.313074112 0.834279716
2.798540592 -3.319843769 0.9924806356
2.794770718 -3.317721367 1.150761604
2.062432766 -2.454429388 -0.8474256396
2.391154766 -2.847647905 -0.8485119939
2.134142399 -2.542470217 -0.6369832158
2.6906991 -3.207787275 -0.6564506292
2.757374048 -3.28960681 -0.5219011307
2.756503105 -3.289733648 -0.3717809916
2.767084122 -3.304703951 -0.2236850113
2.048057795 -2.447712898 -0.05500818789
2.055325747 -2.446838617 0.0550779961
2.742869854 -3.26766634 0.2213822454
2.774167538 -3.306123972 0.373872757
2.775804281 -3.31042099 0.525313437
2.771484137 -3.307612658 0.6767870784
2.775666952 -3.313779593 0.8319900632
2.783182859 -3.325109959 0.9911310673
2.775736094 -3.318565845 1.147655725
2.053852558 -2.461613894 -0.8474256396
2.37745595 -2.851486921 -0.8471622467
2.14285183 -2.571018219 -0.6423258781
2.735110044 -3.283946037 -0.6702168584
2.745874166 -3.29921174 -0.5219011307
2.745002985 -3.299335718 -0.3717809916
2.73637867 -3.29130578 -0.2221149504
2.036945581 -2.451771021 -0.05493837968
2.041649103 -2.447855711 0.05493837968
2.730167627 -3.275686264 0.2212775648
2.757508278 -3.309664488 0.3731755018
2.756611109 -3.310936689 0.5238509774
2.763711929 -3.321822643 0.6777256727
2.751529455 -3.308354139 0.8281739354
2.762839794 -3.324313402 0.9879816175
2.756729603 -3.319317579 1.144549966
2.055106878 -2.48066926 -0.8515667319
2.358789206 -2.849260569 -0.8440129757
2.150136471 -2.598145008 -0.6472869515
2.722371578 -3.291951418 -0.6699039936
2.725489378 -3.298065186 -0.5201949477
2.730931759 -3.305825472 -0.3714323938
2.722330332 -3.297757149 -0.221905604
2.025829792 -2.455780983 -0.05486857146
2.030540943 -2.451887131 0.05486857146
2.703436613 -3.266732454 0.2200215161
2.739588976 -3.311593533 0.3723039329
2.732388735 -3.305238724 0.5214136243
2.745809317 -3.323834658 0.6761614084
2.739964247 -3.317938805 0.8281739354
2.738815784 -3.318906546 0.9834825993
2.745126009 -3.328920126 1.144549966
2.046435356 -2.487827778 -0.8515667319
2.367390871 -2.880058527 -0.8507614732
2.152271748 -2.61928606 -0.6507214904
2.717131615 -3.309067488 -0.6714683175
2.698849916 -3.289143085 -0.5172700882
2.716848373 -3.312257051 -0.3710837662
2.708270073 -3.304150581 -0.2216962725
2.017245293 -2.462837458 -0.05486857146
2.020699739 -2.457415342 0.05483366549
2.688213348 -3.271519899 0.219707489
2.726747751 -3.319597006 0.3721296489
2.722094059 -3.316291094 0.5216573477
2.726673603 -3.324235439 0.6742841601
2.728365898 -3.3274827 0.8281739354
2.724743843 -3.325432062 0.9825828671
2.735937119 -3.341471672 1.145585179
2.035294533 -2.491963625 -0.8505314589
2.359787464 -2.891323805 -0.8516612649
2.150562286 -2.635910273 -0.6530112028
2.699323177 -3.310876608 -0.6699039936
2.689860106 -3.301621914 -0.5177575946
2.697720766 -3.312451363 -0.3700378835
2.691676855 -3.307387352 -0.2212775648
1.993495703 -2.451246977 -0.05444971099
2.008315325 -2.459807158 0.05472895131
2.672989368 -3.276240826 0.2193934768
2.703810453 -3.315199137 0.3705608249
2.711755753 -3.327311516 0.5219011307
2.712558031 -3.330669641 0.673658371
2.713015556 -3.332418442 0.8270290494
2.714349031 -3.336434841 0.9830327034
2.70353961 -3.325518608 1.136785269
2.02901721 -2.502053976 -0.8515667319
2.349680424 -2.899543524 -0.8516612649
2.158648968 -2.664757967 -0.6583538651
2.676563978 -3.306460619 -0.667088151
2.668330908 -3.298644066 -0.5158076286
2.673614025 -3.306355 -0.3682947755
2.682626486 -3.319870234 -0.2214869112
1.984927177 -2.458190441 -0.05444971099
1.997198343 -2.463695765 0.05465914309
2.660279751 -3.283999681 0.2192888111
2.688460112 -3.319972038 0.3700378835
2.693880796 -3.329041243 0.5206823945
2.690979004 -3.327829599 0.6711554527
2.693961143 -3.332707405 0.824739337
2.69901228 -3.341341257 0.9816830158
2.691915035 -3.334935427 1.136785269
2.025117159 -2.515140057 -0.8536372781
2.334658384 -2.90165472 -0.8498616815
2.166560173 -2.693694592 -0.6636965275
2.661293268 -3.311164379 -0.6661495566
2.670473576 -3.324962854 -0.5184887648
2.652077675 -3.303238869 -0.366900295
2.644774914 -3.296499491 -0.2192888111
1.976334214 -2.465104342 -0.05444971099
1.976048112 -2.455074549 0.05431009457
2.646296263 -3.290152788 0.2190794647
2.67310977 -3.324677706 0.3695149422
2.673540831 -3.327591896 0.5189762115
2.680583 -3.33874321 0.6714683175
2.672480583 -3.329841852 0.8216863275
2.680017233 -3.341620922 0.9789835811
2.680257559 -3.344311476 1.136785269
2.018738031 -2.525211573 -0.8546725512
2.31965065 -2.903696299 -0.848062098
2.176745892 -2.725786448 -0.6698024273
2.639861822 -3.308082104 -0.6636466384
2.648950338 -3.321848392 -0.5165388584
2.641772985 -3.314034224 -0.3670746088
2.643207073 -3.318208694 -0.2201261818
1.965226531 -2.468858957 -0.05437990278
1.967466235 -2.461957216 0.05431009457
2.627317667 -3.290005922 0.2184514254
2.661488056 -3.333988428 0.3695149422
2.649530172 -3.32138586 0.5165388584
2.667680979 -3.346535206 0.6711554527
2.659617901 -3.337615013 0.8213047385
2.664695024 -3.346382141 0.9776338339
2.658944368 -3.341553688 1.132644176
2.017117262 -2.541321754 -0.8577783704
2.321610451 -2.927043438 -0.8525611162
2.183074474 -2.753367186 -0.6747633815
2.602536678 -3.284761906 -0.6570763588
2.621319771 -3.310842037 -0.5133702159
2.643789768 -3.340420485 -0.3689920008
2.629130125 -3.324282169 -0.2199168503
1.949157119 -2.466290474 -0.05417047068
1.962589025 -2.47350955 0.05441480875
2.607131243 -3.288201809 0.2177187204
2.646121264 -3.338573933 0.3689920008
2.640385151 -3.333726645 0.5170263648
2.646175861 -3.343435287 0.6686524749
2.646733046 -3.345338821 0.8209231496
2.638494492 -3.337319136 0.9722350836
2.654449701 -3.35991025 1.135750055
1.998668194 -2.536208868 -0.8536372781
2.323435545 -2.95043993 -0.8570601344
2.396893024 -3.044813633 -0.7449811101
2.615481615 -3.324877739 -0.663333714
2.608520031 -3.31841135 -0.5131265521
2.609955549 -3.321430445 -0.3658544123
2.619977236 -3.336580992 -0.2201261818
1.938498497 -2.469594717 -0.05410066247
1.952705383 -2.478774071 0.05437990278
2.597448587 -3.298398256 0.2178233862
2.629523039 -3.341527224 0.3682947755
2.631186008 -3.346044064 0.5175138116
2.628970385 -3.34442687 0.667088151
2.632613897 -3.351469278 0.8201598525
2.631642103 -3.352640629 0.974034667
2.634945393 -3.358055353 1.13212657
1.992183805 -2.546212912 -0.8546725512
2.306435347 -2.948918343 -0.8543606997
2.580893993 -3.302205086 -0.8064216375
2.604441404 -3.333532572 -0.663333714
2.59627986 -3.325478792 -0.5128827691
2.590992451 -3.321095228 -0.3648085594
2.606441975 -3.342100859 -0.2199168503
1.932324648 -2.479500771 -0.05417047068
1.929687977 -2.466336966 0.05396104604
2.578538418 -3.298004866 0.2171953768
2.606803179 -3.336555481 0.3667259514
2.617632151 -3.351621866 0.5170263648
2.617280006 -3.353583336 0.667088151
2.613032579 -3.349345922 0.8174885511
2.618113518 -3.358275175 0.9731348157
2.610147715 -3.350468397 1.126432538
1.981358647 -2.549754381 -0.8536372781
2.303298712 -2.966186523 -0.8570601344
2.572336674 -3.313847542 -0.807184875
2.578260899 -3.323873758 -0.6595793366
2.58830452 -3.339227676 -0.5136139393
2.578163624 -3.328543901 -0.3646342456
2.582531929 -3.335386515 -0.2188701034
1.921210289 -2.483067513 -0.05410066247
1.918613672 -2.469899416 0.05389123783
2.568234682 -3.308563232 0.2173000425
2.596946001 -3.346755981 0.366900295
2.598618507 -3.351326466 0.5155639052
2.60313797 -3.35957551 0.6664624214
2.589302778 -3.34292531 0.8136723638
2.606374979 -3.367393494 0.9731348157
2.599618196 -3.361087561 1.126950264
1.981438041 -2.569237471 -0.8577783704
2.292930841 -2.974208355 -0.8570601344
2.556579351 -3.318587542 -0.8060400486
2.567265511 -3.334866285 -0.6598922014
2.56331563 -3.330937386 -0.5109328628
2.566529036 -3.337523222 -0.3646342456
2.562988281 -3.335327625 -0.2182420939
1.910094857 -2.486587286 -0.05403085425
1.906316757 -2.471831083 0.05378652364
2.549355268 -3.308015585 0.2166720033
2.583446026 -3.354672909 0.3667259514
2.574795008 -3.344646692 0.5131265521
2.591394901 -3.368642092 0.6664624214
2.581819057 -3.358619213 0.8151988387
2.589266777 -3.370742321 0.9713352323
2.586693287 -3.36860919 1.126432538
1.972458005 -2.576138258 -0.8577783704
2.270172834 -2.967115641 -0.8525611162
2.413781881 -3.155954123 -0.7640619874
2.552010536 -3.33909893 -0.6589535475
2.545065165 -3.33242178 -0.5097141266
2.552445173 -3.343294144 -0.3642856181
2.553753138 -3.347429514 -0.2184514254
1.896118879 -2.487210274 -0.05389123783
1.926413774 -2.516912222 0.05462423339
2.528719902 -3.306232691 0.2159393132
2.570510387 -3.362087727 0.3665516675
2.569750071 -3.363526106 0.5145889521
2.569441319 -3.365556479 0.6639595032
2.567697525 -3.364489794 0.8144356608
2.562122345 -3.359615326 0.9654865265
2.573158741 -3.376530886 1.125914931
1.963453531 -2.583007574 -0.8577783704
2.273946762 -2.993643761 -0.8579599261
2.139180899 -2.817245007 -0.6793428659
2.54033947 -3.347986698 -0.6589535475
2.534617186 -3.342867374 -0.5099579096
2.529927969 -3.337893248 -0.362716794
2.539641142 -3.3531394 -0.2182420939
1.88018477 -2.484246731 -0.05368180573
2.010774851 -2.64621973 0.05731190741
2.513540506 -3.310266972 0.2156252861
2.550326824 -3.359931231 0.3653315008
2.550795317 -3.362985849 0.5131265521
2.548131704 -3.361910582 0.6614564657
2.555937529 -3.373432159 0.8144356608
2.55743742 -3.377860546 0.9681859612
2.555528879 -3.377789497 1.123326778
1.947442889 -2.580593348 -0.8546725512
2.263483286 -3.001563072 -0.8579599261
2.141151667 -2.840372324 -0.6831590533
2.516752005 -3.34105587 -0.6558248997
2.519351006 -3.346936226 -0.5092266798
2.515865326 -3.343520164 -0.3623681962
2.525520563 -3.358790874 -0.2180327475
1.86909914 -2.487597227 -0.05361199751
2.202640533 -2.919820786 0.0631410107
2.498363256 -3.314236164 0.2153112739
2.53258729 -3.36085701 0.364459902
2.536652803 -3.368697643 0.5126390457
2.539943933 -3.375519991 0.6623951197
2.535885096 -3.371350527 0.8117642403
2.532751322 -3.369632006 0.9632370472
2.529800177 -3.368153334 1.11711514
1.940739393 -2.590467691 -0.8557078242
2.223794699 -2.970445395 -0.8467124104
2.12063694 -2.833682537 -0.6797244549
2.497976303 -3.340328932 -0.6539476514
2.50765276 -3.35571003 -0.5092266798
2.499409437 -3.345896959 -0.3616709709
2.505417585 -3.356382608 -0.2173000425
1.86279583 -2.497312307 -0.05368180573
2.160070419 -2.884275436 0.06219857931
2.512486219 -3.358509302 0.3632397354
2.463073254 -3.294854879 0.4999645948
2.524599075 -3.379617691 0.6614564657
2.517053843 -3.37074399 0.8094745874
2.530297041 -3.390947104 0.9668362141
2.522647142 -3.38315773 1.119185686
1.93629694 -2.603426933 -0.8577783704
2.232011557 -3.003215075 -0.8539108634
2.111903429 -2.842643738 -0.6801061034
2.486301184 -3.349028111 -0.6539476514
2.487644434 -3.353283167 -0.5075205564
2.491275311 -3.35940218 -0.3621939123
2.480605602 -3.347456217 -0.2161486596
1.855256915 -2.50540638 -0.05371670797
2.166692734 -2.914264917 0.06268724799
2.163097858 -2.911551952 0.1878872365
2.15981698 -2.908195734 0.3132123649
2.156988859 -2.906506777 0.4392736852
2.515140295 -3.391583204 0.6620822549
2.505272627 -3.379509449 0.8094745874
2.50220561 -3.377835989 0.9605376124
2.502776623 -3.38107419 1.115562201
1.94096756 -2.628819704 -0.8639900088
2.226142406 -3.017260551 -0.8557104468
2.097306728 -2.843678236 -0.6785796285
2.475767374 -3.359276533 -0.6542605162
2.465330362 -3.347560644 -0.5053268671
2.480714798 -3.369682312 -0.3623681962
2.471272945 -3.359312534 -0.2163579911
1.838209271 -2.500588655 -0.05347237736
2.205194235 -2.987776041 0.06411834806
2.193228245 -2.973735571 0.1914460808
2.159110546 -2.928546429 0.3146068454
2.146829844 -2.914018393 0.4392736852
2.493917227 -3.387615919 0.6595793366
2.488805771 -3.381908655 0.8079480529
2.491553783 -3.388119459 0.9609875083
2.495534897 -3.396016598 1.117632747
1.927210927 -2.629346371 -0.8619195223
2.208688021 -3.0155797 -0.8530110121
2.074609995 -2.833557129 -0.6743817925
2.458194733 -3.359926701 -0.6526961923
2.455973148 -3.359350681 -0.5058143735
2.457181454 -3.362235308 -0.3606250882
2.46188736 -3.371144056 -0.2165673375
1.822396874 -2.497298241 -0.05326294899
2.207751989 -3.013199091 0.06450229883
2.192273617 -2.994265318 0.1922834516
2.181823015 -2.981082916 0.3194875717
2.134301424 -2.918289661 0.4387862086
2.472752571 -3.383541584 0.6570763588
2.474669456 -3.387405157 0.807184875
2.469370604 -3.382630587 0.956938386
2.477972984 -3.396903276 1.115044594
1.911201358 -2.626684904 -0.8588136435
2.20960784 -3.039032936 -0.8575100303
2.067014933 -2.843957901 -0.67514503
2.441808224 -3.362093925 -0.6514447331
2.443065643 -3.366296291 -0.5055705905
2.436070204 -3.357889652 -0.3592305779
2.445416212 -3.373249054 -0.2161486596
1.811322451 -2.500405312 -0.05319313705
2.117236376 -2.910919189 0.06212876737
2.191202402 -3.01482439 0.1931208223
2.183114767 -3.004799604 0.3212306798
2.119436741 -2.919296503 0.4378112257
2.456287146 -3.385756731 0.6558248997
2.455914736 -3.386487007 0.8048951626
2.465552568 -3.402275562 0.9600877762
2.454770088 -3.389885902 1.109868169
1.904283404 -2.636472464 -0.8598489165
2.23320055 -3.094131947 -0.8710071445
2.054777622 -2.847971678 -0.6743817925
2.409262657 -3.341754198 -0.6458130479
2.426658869 -3.368361235 -0.5045956373
2.428991556 -3.372840405 -0.3599278629
2.424293041 -3.368795395 -0.2153112739
1.804918289 -2.509959936 -0.05326294899
1.895186424 -2.624842644 0.05581099913
1.90370822 -2.638585806 0.1683135778
1.981476784 -2.747385025 0.2926436067
2.103430271 -2.918624878 0.4365925491
2.446762323 -3.397516251 0.6564506292
2.441784382 -3.391852379 0.8041319251
2.445695639 -3.399787426 0.956938386
2.439539194 -3.393727541 1.108315229
1.901822686 -2.652523518 -0.8629547954
2.188337803 -3.05438447 -0.8575100303
2.042537689 -2.851934433 -0.6736186147
2.283769846 -3.191112518 -0.6148390174
2.384759903 -3.335915327 -0.3550471067
2.407875538 -3.370736599 -0.2148925811
1.797307491 -2.517872572 -0.05329785123
1.894166827 -2.642819405 0.05605533347
1.882856965 -2.62897706 0.1672668606
1.879089355 -2.624684095 0.2786986828
1.887638927 -2.638571262 0.3932070732
2.432590246 -3.402822495 0.6558248997
2.425364017 -3.393965721 0.8026054502
2.431548357 -3.405132055 0.9560385942
2.42767787 -3.402222633 1.108315229
1.890311837 -2.65599823 -0.8619195223
2.192345142 -3.082649708 -0.863358736
2.023469448 -2.846246004 -0.6705656648
2.279480696 -3.208727121 -0.6167162657
2.273238659 -3.202306986 -0.4770531654
2.277400732 -3.209356785 -0.3405792713
1.781570792 -2.514341354 -0.05308842659
1.89304471 -2.660821438 0.05629966781
1.887555599 -2.655067444 0.1685229242
1.887228131 -2.65558815 0.2813133597
1.868072748 -2.630577803 0.3910134137
2.413838387 -3.401627302 0.6539476514
2.413501978 -3.402410984 0.8026054502
2.40725112 -3.396110296 0.9510896206
2.413553953 -3.407523155 1.107279897
1.885487914 -2.668891668 -0.8639900088
2.180447578 -3.08869195 -0.8629088998
2.011257887 -2.85008359 -0.6698024273
2.286480904 -3.242494345 -0.6217221618
2.266620159 -3.21671319 -0.4780281484
2.261594534 -3.210770845 -0.3398820162
2.265878439 -3.219239235 -0.2041113824
1.765881062 -2.510730982 -0.05287899449
1.892973542 -2.68048048 0.05657890439
1.881731033 -2.666535616 0.1688369364
1.881392598 -2.667043686 0.2818363011
1.866884708 -2.648440123 0.3927195966
2.388298988 -3.390652657 0.650193274
2.401610851 -3.410815001 0.8026054502
2.400988579 -3.412461996 0.9533391595
2.394978285 -3.406445026 1.104174137
1.869505167 -2.665966749 -0.8608842492
2.1875453 -3.121818781 -0.8701072931
1.999044538 -2.85387063 -0.6690391302
2.364635468 -3.378304005 -0.6464388371
2.348673582 -3.35799408 -0.4980146885
2.273206234 -3.251302958 -0.3433682323
2.258059263 -3.232040882 -0.2044253945
1.752527356 -2.510320902 -0.05273937434
1.883605599 -2.6870718 0.05657890439
1.876995325 -2.679631233 0.1692556292
1.869785666 -2.670330524 0.2814876437
1.871285081 -2.674458504 0.3956444561
2.380976915 -3.405444622 0.6514447331
2.380692482 -3.406304121 0.7995525599
2.380136251 -3.408040762 0.9497399926
2.378650427 -3.408447504 1.102103591
1.864602208 -2.678818464 -0.8629547954
2.158831358 -3.103838682 -0.8629088998
1.991312027 -2.864055395 -0.6698024273
2.348320007 -3.380048513 -0.6451873779
2.352786303 -3.389001131 -0.5014270544
2.352718353 -3.390165806 -0.3573131561
2.345782042 -3.382691145 -0.2135318518
1.750587702 -2.526284933 -0.05294880643
1.882209301 -2.705120564 0.05682324246
1.880171657 -2.704205036 0.1704070121
1.869549751 -2.689929485 0.282882154
1.8596735 -2.677713156 0.3951569796
2.366822481 -3.410489082 0.650818944
2.364311457 -3.408141136 0.7980260253
2.380437374 -3.433944941 0.9546889067
2.365638494 -3.415141582 1.101585984
1.864024997 -2.698026419 -0.8670958877
2.165698051 -3.137014389 -0.8701072931
1.985762596 -2.877452374 -0.6713288426
2.337628841 -3.389851332 -0.6455001831
2.338155508 -3.391881466 -0.5006958246
2.339740038 -3.396716833 -0.3571388721
2.343019009 -3.404020309 -0.2143692225
1.742200494 -2.53207612 -0.05294880643
1.878436923 -2.719901323 0.05699776486
1.872328758 -2.712068796 0.1705116928
1.866936922 -2.706279039 0.2839280367
1.853695273 -2.689091682 0.3958882093
2.357741594 -3.421572447 0.6514447331
2.347947121 -3.409905195 0.7964995503
2.35025382 -3.414531231 0.9470405579
2.358679295 -3.429334879 1.10365653
1.85506773 -2.704192877 -0.8670958877
2.144265413 -3.128105402 -0.8656082749
1.96289289 -2.864587307 -0.6667494774
2.327490568 -3.399214029 -0.6458130479
2.320166826 -3.389787436 -0.4992333651
2.330712557 -3.407745838 -0.3574874699
2.322702646 -3.398579836 -0.2135318518
1.724770188 -2.524630547 -0.05266956612
1.87506175 -2.73436141 0.05717228726
1.864453912 -2.719909906 0.1706163585
1.866959691 -2.725605488 0.2853225172
1.852616072 -2.706691027 0.3975943625
2.337458611 -3.416329384 0.6489417553
2.33884263 -3.420914173 0.7972627878
2.344415665 -3.430350065 0.9492900372
2.341846704 -3.429160595 1.101068258
1.841739893 -2.703942537 -0.8650252819
2.136073351 -3.138421059 -0.8665081263
1.950069666 -2.866211176 -0.6656045914
2.313984632 -3.403646469 -0.6451873779
2.30608964 -3.394582033 -0.4987459183
2.311563969 -3.403918743 -0.3562672734
2.313662767 -3.409569025 -0.2137411982
1.70809114 -2.519050121 -0.05242523178
1.877238274 -2.757093668 0.05752133578
1.86730659 -2.744566202 0.1717677563
1.863513231 -2.740018845 0.2861940861
1.857019544 -2.732521296 0.400519222
2.316641092 -3.411394835 0.6464388371
2.32528019 -3.425402403 0.7964995503
2.318206072 -3.417547703 0.9434413314
2.3222754 -3.42612052 1.097444773
1.832290292 -2.710355043 -0.8650252819
2.149103642 -3.181384087 -0.8764059544
1.936756849 -2.868119478 -0.664459765
