# .PCD v0.7 - Point Cloud Data file format
VERSION 0.7
FIELDS x y z
SIZE 4 4 4
TYPE F F F
COUNT 1 1 1
WIDTH 1213
HEIGHT 1
VIEWPOINT 0 0 0 1 0 0 0
POINTS 1213
DATA ascii
0.9506168365 -2.124135971 -0.2805997729
0.9552432895 -2.135473251 -0.2009557486
0.9567457438 -2.140836477 -0.1206878498
0.9538618326 -2.136384249 -0.04013874009
0.9604176283 -2.140022278 0.04024345428
0.9552750587 -2.130553722 0.1201644912
0.9591782689 -2.14026022 0.2014786899
0.9428757429 -2.105852127 0.27816239
0.9352784157 -2.090841055 0.3560963869
0.9542302489 -2.13420701 0.446174264
0.9411366582 -2.106896162 0.5227828622
0.9372746944 -2.100218773 0.6046533585
0.3725488186 -0.8375448585 -0.2340244651
0.9402457476 -2.116796017 -0.4419764578
0.9450958967 -2.129718542 -0.3623537421
0.9480240941 -2.138329744 -0.2820622325
0.9469763637 -2.136973143 -0.2007814497
0.950884223 -2.147815466 -0.1208971962
0.951251626 -2.150673628 -0.04034816474
0.9513168931 -2.139707088 0.04017364234
0.9494536519 -2.137525797 0.1203738302
0.9500848055 -2.139953375 0.2011300772
0.9387383461 -2.116389036 0.2791373432
0.9295751452 -2.097705126 0.3567221165
0.9435940385 -2.130344868 0.4446478188
0.9353538156 -2.113732338 0.5236826539
0.9283756018 -2.099944115 0.6036180854
0.3665069938 -0.83176893 -0.231953904
0.9407578707 -2.138034821 -0.4457926154
0.9344761968 -2.125771284 -0.361102283
0.9421505332 -2.145261288 -0.2825496793
0.9403118491 -2.142090082 -0.2009557486
0.9417765737 -2.14746356 -0.1206878498
0.9465228915 -2.159310579 -0.04045288265
0.9422303438 -2.139354706 0.04010383412
0.9439695477 -2.144318819 0.1205831841
0.9450154901 -2.148728132 0.2016530037
0.9297481775 -2.116018057 0.2786498666
0.9257910848 -2.108011007 0.3579736054
0.9345744848 -2.130029678 0.4438845515
0.9310988784 -2.124123812 0.5254822373
0.9214069843 -2.103011131 0.6036180854
0.3728749752 -0.8542897105 -0.2381655723
0.9325048327 -2.139505863 -0.4454110265
0.9305773973 -2.136102438 -0.3623537421
0.9366158247 -2.15201354 -0.2830371559
0.9368010759 -2.154494762 -0.2018273026
0.9314658046 -2.143248081 -0.1202691719
0.9437583685 -2.173606873 -0.04066231102
0.9351307154 -2.142467499 0.04010383412
0.9396721721 -2.154923677 0.1210018694
0.9398964047 -2.157493591 0.202175945
0.9187635183 -2.109989643 0.2774311602
0.9200029373 -2.114852428 0.358599335
0.925940156 -2.129516602 0.443121314
0.9240500927 -2.12719965 0.5254822373
0.9171365499 -2.113303423 0.6056886315
0.3639045656 -0.8413366675 -0.2340244651
0.9238479137 -2.138982058 -0.4446478188
0.9270285368 -2.148406029 -0.3639180958
0.9243828654 -2.144332647 -0.2815747261
0.9272863269 -2.152100086 -0.2013043761
0.9239789844 -2.146486282 -0.1202691719
0.9361652732 -2.176888227 -0.04066231102
0.9339948297 -2.160402536 0.04038307071
0.925808847 -2.143522263 0.1201644912
0.9358953238 -2.167915583 0.2028731853
0.9145374894 -2.120475054 0.2784061432
0.9126152992 -2.118050814 0.358599335
0.9247137904 -2.147160769 0.446174264
0.9166190624 -2.13041234 0.5254822373
0.9128059149 -2.123591185 0.6077591777
0.3609655499 -0.8426018953 -0.2340244651
0.9156036377 -2.140388727 -0.4442661703
0.9210762382 -2.155262232 -0.3645438552
0.9200102687 -2.154849052 -0.2825496793
0.9244604111 -2.166318893 -0.2023502439
0.9196139574 -2.157047272 -0.1206878498
0.9269936681 -2.176463366 -0.0405925028
0.9264476299 -2.163649797 0.04038307071
0.9214630127 -2.154086113 0.1205831841
0.9259724617 -2.165673018 0.2023502439
0.9110289216 -2.132781982 0.2796248496
0.902115047 -2.113956213 0.3573478758
0.9202938676 -2.157598972 0.4477007091
0.9076490402 -2.130013466 0.5245824456
0.9061444998 -2.128541946 0.608276844
0.3519859016 -0.8296294808 -0.2298833728
0.9119557738 -2.15261054 -0.446174264
0.9166269898 -2.165740728 -0.3657953143
0.9086170197 -2.148905277 -0.2813310027
0.9168928862 -2.169532776 -0.2023502439
0.9151859879 -2.167604446 -0.1211065501
0.9209452271 -2.18337059 -0.04066231102
0.920451045 -2.170552492 0.04045288265
0.9193918705 -2.170162678 0.1213158891
0.9176306129 -2.167057514 0.202175945
0.9082189202 -2.146918535 0.2810872495
0.8993443251 -2.128009796 0.3592250645
0.9104652405 -2.15537262 0.4465559125
0.9085429907 -2.152918339 0.5295313597
0.8987087011 -2.131692171 0.608276844
0.3550743759 -0.8451012373 -0.2340244651
0.4269825518 -1.017241716 -0.2447433174
0.906715095 -2.161211729 -0.4473191202
0.9060072303 -2.161639929 -0.3645438552
0.9095443487 -2.172205448 -0.2840121388
0.9093141556 -2.172719955 -0.2023502439
0.9114664793 -2.179999113 -0.1216299087
0.9148593545 -2.190262556 -0.04073211923
0.9120942354 -2.171908855 0.0404179804
0.9164473414 -2.184409142 0.1219439209
0.9100602865 -2.170247555 0.202175945
0.9014864564 -2.15190649 0.2813310027
0.8964864016 -2.14206934 0.361102283
0.9014206529 -2.154915333 0.4457926154
0.901022315 -2.15607667 0.5295313597
0.8897738457 -2.13125062 0.6072415113
0.3550905883 -0.8534701467 -0.2360950261
0.396502912 -0.9539445043 -0.2285468578
0.901425004 -2.169802666 -0.4484639764
0.8939130902 -2.153842449 -0.3626666367
0.9042375088 -2.180868149 -0.2847433388
0.8979104757 -2.16667819 -0.2014786899
0.8962113857 -2.164714098 -0.1205831841
0.9003300071 -2.176811695 -0.0404179804
0.9022040367 -2.169540167 0.04031326249
0.907284081 -2.18390584 0.121734567
0.9062996507 -2.182611227 0.2030474991
0.8871234655 -2.138537884 0.2791373432
0.8882473111 -2.143360615 0.3607894182
0.8953956962 -2.161676407 0.4465559125
0.8934906721 -2.159208775 0.5295313597
0.8838050365 -2.137914419 0.608276844
0.3462223709 -0.8404147029 -0.231953904
0.4198704362 -1.020197868 -0.2447433174
0.8886173368 -2.160226345 -0.4457926154
0.8848875165 -2.153295279 -0.3620409071
0.8883261681 -2.163811684 -0.2820622325
0.894123733 -2.17901516 -0.2023502439
0.8909221292 -2.173372984 -0.1208971962
0.8874213696 -2.166987181 -0.04017364234
0.896148324 -2.176373959 0.04038307071
0.8966161013 -2.179671288 0.1213158891
0.8948868513 -2.176548004 0.202175945
0.8758823276 -2.132440329 0.2779186368
0.8747612238 -2.131827831 0.3582864404
0.879650116 -2.144808054 0.4423580766
0.8763433099 -2.138872147 0.5236826539
0.8719460368 -2.130259037 0.6051709652
0.3403682709 -0.8344630599 -0.2298833728
0.3898334503 -0.9566893578 -0.2285468578
0.863298893 -2.119677544 -0.4366338253
0.8728988767 -2.145392656 -0.3601636887
0.8635757565 -2.124602556 -0.2764562368
0.8760134578 -2.156280994 -0.1999098957
0.8720639944 -2.148710012 -0.119327113
0.8700838685 -2.145981073 -0.03971988335
0.8825062513 -2.164675474 0.04010383412
0.8814688325 -2.164290428 0.1202691719
0.8760160208 -2.151978016 0.1995612532
0.8594596982 -2.113418579 0.2749937773
0.8546748757 -2.103756666 0.3529676795
0.8662486672 -2.133313417 0.4393051267
0.852756381 -2.102190018 0.5137848258
0.8499937654 -2.097481251 0.5948182344
0.3432402015 -0.8499765396 -0.2340244651
0.4229449332 -1.048405409 -0.2510419488
0.8507550359 -2.109932661 -0.4339624941
0.8521194458 -2.115444899 -0.3545320332
0.8524488211 -2.118396044 -0.2752375305
0.8506381512 -2.114962101 -0.1957264096
0.8586012125 -2.136914968 -0.1184897348
0.8514143825 -2.121167898 -0.0391963087
0.8652150035 -2.143635988 0.03965007141
0.8634517789 -2.141421318 0.1188037544
0.855093658 -2.121759415 0.1964236498
0.8476288915 -2.105356932 0.2735313475
0.8384807706 -2.084734917 0.3492132723
0.8514742255 -2.118108511 0.4354889691
0.8396033645 -2.090687037 0.5101855993
0.8325964212 -2.075334311 0.5875712633
0.3388369977 -0.8475818038 -0.232989192
0.8346511722 -2.091008902 -0.4293830693
0.8300964832 -2.081708908 -0.3482746482
0.8377028704 -2.102917433 -0.2728001475
0.8358803391 -2.099407911 -0.1939833015
0.8452314734 -2.125052452 -0.1176523715
0.8358821869 -2.103685379 -0.03881235793
0.8399194479 -2.102076769 0.03881235793
0.8463462591 -2.120308161 0.1174430177
0.8373457193 -2.098824024 0.1939833015
0.8270458579 -2.075110435 0.2691440582
0.8246221542 -2.071131706 0.3463974297
0.8295574784 -2.08458519 0.4278565943
0.8236613274 -2.071874142 0.5047867298
0.8153646588 -2.053091526 0.5803243518
0.3500933945 -0.8846856952 -0.2433419526
0.3797938824 -0.9607191086 -0.2285468578
0.8201325536 -2.075650692 -0.4255668819
0.8141220212 -2.062545061 -0.344520241
0.8187063932 -2.076281071 -0.2689003348
0.8241638541 -2.091191053 -0.1929374188
0.8224432468 -2.088963032 -0.115454264
0.8226787448 -2.0917027 -0.03853311762
0.823015511 -2.080821753 0.03835859522
0.8257287741 -2.089813948 0.1155589223
0.8219643831 -2.081349611 0.1920658648
0.8074124455 -2.046592951 0.2650004923
0.8123176694 -2.061133146 0.3442073464
0.8093239665 -2.054588795 0.4209874868
0.8064342141 -2.049349308 0.4984881282
0.8025388718 -2.041542053 0.5761832595
0.3427755535 -0.8751096725 -0.2402361035
0.3764380217 -0.9620390534 -0.2285468578
0.80001086 -2.045589685 -0.4186977446
0.8026042581 -2.054334402 -0.3426430225
0.7966533899 -2.040153265 -0.2637818158
0.8059982657 -2.066212654 -0.1903227568
0.8049938083 -2.065767765 -0.1139888465
0.8063031435 -2.070195913 -0.03807935491
0.811373353 -2.072509289 0.03814916313
0.8078774214 -2.064641714 0.1139888465
0.8067151904 -2.063794136 0.1901484579
0.788710773 -2.019812822 0.2611006796
0.7889595032 -2.021490812 0.3370113671
0.7964420915 -2.042768002 0.4179345369
0.7854822874 -2.015697479 0.4894900918
0.7845516801 -2.015387774 0.5679010153
0.3412689567 -0.8798437119 -0.2412714064
0.3915516734 -1.010526657 -0.2402442843
0.7818788886 -2.018939257 -0.4125918448
0.7843835354 -2.027507544 -0.3376370966
0.7827243209 -2.024268627 -0.2613444328
0.7926808596 -2.05214715 -0.1887539625
0.7916678786 -2.051655769 -0.11304681
0.7886404991 -2.044871807 -0.03755578399
0.7965450883 -2.054678917 0.03776520863
0.7923670411 -2.044961452 0.1127327904
0.791236639 -2.044160843 0.1880567074
0.7748491764 -2.003902197 0.2586632967
0.767297864 -1.985402226 0.3304411173
0.7797643542 -2.019756794 0.4125918448
0.7689719796 -1.992837787 0.4831914306
0.7653570175 -1.985532165 0.5585835576
0.3175705373 -0.8268681169 -0.2257422507
0.3951789141 -1.0300138 -0.2447433174
0.766744554 -1.99952352 -0.4080124497
0.7677630186 -2.004272461 -0.3332569599
0.7678497434 -2.006594658 -0.2586632967
0.7695013285 -2.011963129 -0.1847447902
0.7770193815 -2.033746719 -0.1118954122
0.770802021 -2.01958847 -0.03703221306
0.7804110646 -2.033040047 0.03731144965
0.7773579359 -2.027201176 0.1115813926
0.770192802 -2.009564877 0.1845704764
0.760392487 -1.986068249 0.2559821904
0.7547172308 -1.973308206 0.3279381692
0.7632482052 -1.996657968 0.4072492421
0.7578400373 -1.984586835 0.4804920554
0.7474050522 -1.959312081 0.550301373
0.3201729953 -0.8424181938 -0.2298833728
0.3666802645 -0.9658003449 -0.2285468578
0.750705421 -1.978325844 -0.4030514061
0.7481590509 -1.97369194 -0.3276253045
0.7566226125 -1.998124242 -0.2572008669
0.7540108562 -1.992275953 -0.1826530397
0.7586143017 -2.006555319 -0.1102206558
0.754562974 -1.997947454 -0.03657845035
0.7562669516 -1.990886807 0.03647373244
0.7624825239 -2.009361982 0.1104300097
0.7575211525 -1.997337937 0.183175981
0.7457187772 -1.968290806 0.2533010542
0.7408325672 -1.957455754 0.3248094618
0.7451602221 -1.969929695 0.4011433423
0.7412644625 -1.96169889 0.4741933942
0.73373878 -1.943835139 0.545124948
0.3240305483 -0.8616127968 -0.2350597382
0.3633068502 -0.9670743346 -0.2285468578
0.739654541 -1.969906688 -0.4007617235
0.7315529585 -1.950397491 -0.3232451379
0.7412855625 -1.978446364 -0.2542759776
0.7414619327 -1.979969501 -0.1812585741
0.7390096188 -1.975519419 -0.1083365604
0.7405843139 -1.981837273 -0.03622940183
0.7450913787 -1.982283592 0.03626430407
0.7442308068 -1.982094526 0.1087552533
0.7421441078 -1.977585912 0.1810842454
0.7269977331 -1.939282775 0.2491574883
0.7277601957 -1.943380952 0.3219936788
0.7327740192 -1.957809091 0.3980903924
0.7262225151 -1.942370653 0.4687945843
0.7188382745 -1.924667478 0.5389133096
0.325063318 -0.8736020327 -0.2381655723
0.359928757 -0.9683367014 -0.2285468578
0.7218348384 -1.943030596 -0.3946558237
0.7206164598 -1.941827536 -0.3213679492
0.7205750942 -1.943795323 -0.2494012117
0.7255474329 -1.958257794 -0.1789925247
0.7272564173 -1.964975357 -0.1076038629
0.7197933793 -1.946898222 -0.03553130478
0.7311971784 -1.966129541 0.03591525555
0.7261790633 -1.954724312 0.1070805043
0.7296885848 -1.965221882 0.1796897501
0.7084883451 -1.91016829 0.2450139225
0.709305048 -1.914419532 0.3166748881
0.716390729 -1.934579968 0.3927477598
0.7072685361 -1.911995053 0.4606963694
0.7094369531 -1.919916987 0.5368427634
0.3126685023 -0.8493505716 -0.230918631
0.356546551 -0.9695871472 -0.2285468578
0.7048889995 -1.917897463 -0.3889315724
0.7070260048 -1.925787687 -0.3182392418
0.7042164803 -1.920207143 -0.2459889054
0.7077367306 -1.930847526 -0.176203534
0.7107791305 -1.941245317 -0.1061384603
0.7033765316 -1.923106432 -0.0350426361
0.7146627903 -1.942396283 0.03542659059
0.7124613523 -1.938500762 0.1060337871
0.7118321061 -1.937833786 0.1769007742
0.6949779987 -1.893993855 0.2425765395
0.6910613775 -1.885353804 0.3113561273
0.7042306662 -1.92232132 0.3896948099
0.6938930154 -1.896151543 0.4561973512
0.6894657016 -1.88609314 0.5264900327
0.3189564943 -0.8758500814 -0.2381655723
0.3664836287 -1.007452488 -0.2375448793
0.6887981892 -1.894514799 -0.3835889101
0.6908586025 -1.902249932 -0.3138590753
0.6927706003 -1.909590721 -0.2442827076
0.6921631694 -1.908956289 -0.1739374846
0.6951567531 -1.919302106 -0.1047777236
0.6898560524 -1.906745911 -0.03469358757
0.6983029842 -1.918571711 0.03493792191
0.7002307177 -1.925959468 0.1051964089
0.6907740831 -1.90098238 0.1732402444
0.682266891 -1.879614472 0.2403829098
0.6757222414 -1.86361289 0.3072888255
0.6848071814 -1.889697909 0.3824440241
0.679310143 -1.876573563 0.4507984817
0.6690825224 -1.850337148 0.5156196356
0.305422008 -0.8478776813 -0.2298833728
0.349768877 -0.9720526934 -0.2285468578
0.674872756 -1.87658608 -0.3793911338
0.6721934676 -1.871186733 -0.3082274199
0.6793956757 -1.893313169 -0.2418453246
0.6780970097 -1.890731215 -0.1720200479
0.682390213 -1.904794693 -0.1038356721
0.6791535616 -1.897845507 -0.0344841592
0.6821187139 -1.894656897 0.03444925696
0.6867446899 -1.909597874 0.1041496918
0.6800909042 -1.892132282 0.1721943617
0.6663104296 -1.855827928 0.2369705439
0.6625444293 -1.847366095 0.3041601181
0.6722448468 -1.875443578 0.3790094852
0.6661866307 -1.860586524 0.4462994635
0.6580651402 -1.83992815 0.5119960904
0.312834233 -0.8780554533 -0.2381655723
0.3463737071 -0.9732676744 -0.2285468578
0.6623968482 -1.862282753 -0.3759565353
0.6590444446 -1.85490787 -0.3050987422
0.6648154855 -1.873223901 -0.2389204651
0.6654983759 -1.876186728 -0.1704512537
0.6643977761 -1.875161171 -0.10205625
0.6638511419 -1.875698328 -0.03403039649
0.6681217551 -1.876304269 0.03406530246
0.6693656445 -1.881874919 0.1024749354
0.6694774032 -1.883230686 0.1711484939
0.6511927247 -1.833824158 0.233801946
0.6521295905 -1.838497162 0.3022829294
0.6558542848 -1.850022554 0.373285234
0.6544837952 -1.84820497 0.442700237
0.6451964378 -1.824001312 0.506819725
0.3213233948 -0.9119390249 -0.2474830449
0.6474230886 -1.840507388 -0.3709955215
0.6486362815 -1.846015215 -0.3032215238
0.6477543116 -1.845564008 -0.2350206524
0.6549881697 -1.867217898 -0.169405371
0.649922967 -1.854850054 -0.1008001864
0.6510183215 -1.859016299 -0.03368134797
0.6575830579 -1.867308021 0.03385587409
0.6511856914 -1.850172877 0.1005908474
0.6556308866 -1.864880562 0.1692310721
0.6368947029 -1.813610673 0.2308770865
0.6375249624 -1.816418767 0.2982156277
0.6448457241 -1.839331746 0.3706139028
0.6351466775 -1.813693881 0.4337022305
0.6353151202 -1.815190554 0.5037139058
0.2901699841 -0.8327866197 -0.2247069776
0.6319644451 -1.816796184 -0.3656528592
0.6386190653 -1.836960912 -0.3013443053
0.6344673634 -1.827074051 -0.2323395163
0.6380196214 -1.8393749 -0.1666163951
0.6385348439 -1.841898441 -0.09996281564
0.6360187531 -1.836712599 -0.03322758526
0.6434915662 -1.846818089 0.03343701363
0.6368455291 -1.829799294 0.09933478385
0.6425745487 -1.848338723 0.1674879491
0.6289225817 -1.810087204 0.2301458716
0.6214652061 -1.790640593 0.2935225964
0.6348825693 -1.830330968 0.3683241904
0.6240247488 -1.801059484 0.430103004
0.6213932037 -1.795489907 0.4975022674
0.2911843657 -0.8447025418 -0.2278128117
0.3363332748 -0.9767827392 -0.2285468578
0.6189088821 -1.798461556 -0.3614550531
0.6219288707 -1.809289455 -0.2963384092
0.622928679 -1.814257622 -0.230389595
0.6215694547 -1.811328173 -0.1638274044
0.6295108199 -1.836558819 -0.09954413027
0.6192396879 -1.808651328 -0.03266910836
0.6305276155 -1.83014667 0.0330879651
0.6265549064 -1.820679784 0.09870675206
0.6247777939 -1.816546082 0.1643503457
0.6161506176 -1.793497562 0.2277084738
0.6087993979 -1.774114609 0.290393889
0.6195729375 -1.806536913 0.362981528
0.6114187241 -1.784790993 0.4256039858
0.6051148772 -1.768403172 0.4892200232
0.2932195663 -0.860342443 -0.231953904
0.3442259431 -1.011156797 -0.2366450876
0.6088330746 -1.789459348 -0.3591653705
0.60671103 -1.78526485 -0.2919582427
0.6114872098 -1.801383018 -0.2284397036
0.6107622385 -1.800279617 -0.1626072377
0.6141222715 -1.812262654 -0.09807872027
0.6090759635 -1.799437046 -0.03245967999
0.6118847132 -1.79637146 0.03242477402
0.6163358092 -1.81151104 0.09807872027
0.6126602292 -1.801739097 0.1627815366
0.6022253036 -1.773081779 0.2247836143
0.5968911052 -1.759393096 0.2875780761
0.604437232 -1.782658696 0.3576388955
0.6026842594 -1.779531479 0.4238043725
0.5946050882 -1.757694721 0.4855965972
0.2815791965 -0.8357304335 -0.2247069776
0.3419372141 -1.016046047 -0.2375448793
0.5975761414 -1.776687026 -0.3561124206
0.5954425931 -1.772391558 -0.2894552946
0.6001434326 -1.788450956 -0.2264897823
0.6000397205 -1.789177656 -0.1613870561
0.6001799107 -1.79166925 -0.09682265669
0.6002529263 -1.79396677 -0.03232005984
0.602419734 -1.789020777 0.03225025162
0.6042784452 -1.796613932 0.09713667631
0.6012887955 -1.788758278 0.1613870561
0.5865548849 -1.746945381 0.2211275399
0.5869773626 -1.750228643 0.2857008576
0.5932194591 -1.76986587 0.3545859456
0.590282321 -1.76314497 0.4193053544
0.5835643411 -1.745102644 0.4814554751
0.2945313156 -0.8843629956 -0.2381655723
0.5801299214 -1.743934751 -0.4143564105
0.5864156485 -1.76385808 -0.3530594707
0.5867621899 -1.766960263 -0.2882038057
0.5870222449 -1.769809246 -0.2238086611
0.588775456 -1.776131749 -0.1599925607
0.5888996124 -1.778585196 -0.09598527849
0.5870803595 -1.775166869 -0.03193610907
0.5936449766 -1.783523202 0.03211063147
0.5872915983 -1.766492844 0.0953572467
0.5944128633 -1.78895545 0.1612127423
0.5723246932 -1.724489689 0.2179589272
0.5771350861 -1.741016626 0.2838236392
0.5833333135 -1.760744095 0.3522962332
0.5743288994 -1.735593438 0.4121069014
0.5750443339 -1.739791751 0.4793849289
0.2781539559 -0.8450158238 -0.2267775238
0.5722131133 -1.740395427 -0.4130067229
0.5710620284 -1.737917304 -0.3473351896
0.5756627321 -1.753982782 -0.2857008576
0.572183907 -1.745439053 -0.220396325
0.575748384 -1.757349133 -0.1580751389
0.5752337575 -1.757851362 -0.09472922236
0.5721825957 -1.750595093 -0.03144744039
0.5817914605 -1.768488765 0.03179648891
0.577380836 -1.757147312 0.09472922236
0.5800833702 -1.766411304 0.1589466929
0.5638267994 -1.718932271 0.2169839889
0.5605988503 -1.711108446 0.2785048783
0.5722965002 -1.747843146 0.3492432833
0.5634208322 -1.722770095 0.4085076749
0.5623695254 -1.721588612 0.473690927
0.2811788321 -0.8643525839 -0.231953904
0.5637254715 -1.734968901 -0.4112071097
0.5589284897 -1.721227288 -0.343519032
0.5622233748 -1.733433366 -0.2819464505
0.5624171495 -1.736094713 -0.2189338803
0.5610189438 -1.732810855 -0.1556347758
0.567250371 -1.75414753 -0.09441520274
0.5611515641 -1.737358332 -0.03116820008
0.5681957006 -1.747688055 0.03137762845
0.5681594014 -1.749653935 0.09420586377
0.5640737414 -1.738104105 0.1561577171
0.5553746819 -1.713336349 0.2160090357
0.5497550368 -1.69802022 0.2760019302
0.5589390397 -1.727415323 0.3446638584
0.5538082719 -1.713600397 0.40580827
0.5468612909 -1.694126129 0.4654086828
0.5376968384 -1.672722936 -0.4591970444
0.5529002547 -1.722082257 -0.4076078832
0.5493180156 -1.711951494 -0.3412292898
0.5495376587 -1.714692831 -0.2785048783
0.5527222753 -1.726704001 -0.2174714506
0.5488961339 -1.715782285 -0.1538916528
0.5544371009 -1.735189438 -0.09326381236
0.552651763 -1.731686473 -0.03102858365
0.5529171824 -1.721102953 0.03085405752
0.5571668744 -1.736412525 0.09336848557
0.5549609065 -1.730576396 0.1552861482
0.5427298546 -1.694469213 0.2133278996
0.5414168835 -1.692403078 0.2747504413
0.5445355177 -1.703175783 0.3393212259
0.5430808067 -1.70067203 0.4022090435
0.5374222994 -1.684981704 0.4623028636
0.5341936946 -1.681954622 -0.4612675905
0.5404040217 -1.703569174 -0.4026589692
0.5409656763 -1.706372857 -0.3397028446
0.5363929272 -1.694002032 -0.2747504413
0.53950876 -1.705910325 -0.214546591
0.5417026281 -1.713888288 -0.1535430402
0.5399594307 -1.710449696 -0.09179840982
0.5454009771 -1.729790807 -0.03095877543
0.5444860458 -1.71539855 0.03071443737
0.5462736487 -1.723115802 0.09253110737
0.5447044373 -1.719207525 0.1540659666
0.530223906 -1.675534725 0.2106467783
0.5337199569 -1.688632011 0.273811847
0.5338562727 -1.690089703 0.336268276
0.5306915045 -1.682114601 0.3972601593
0.5274729133 -1.673949599 0.4586794078
0.5260058641 -1.676436067 -0.4591970444
0.5274610519 -1.683130264 -0.3972601593
0.5279647708 -1.685768485 -0.3351234198
0.5269382596 -1.684552312 -0.2728732526
0.527630806 -1.688835621 -0.2121092081
0.5327477455 -1.706259489 -0.1526714712
0.5298230648 -1.698977232 -0.09106569737
0.5304397941 -1.703045487 -0.03043520078
0.5349051356 -1.70584023 0.03050501086
0.5307046175 -1.694516659 0.09085635841
0.5333438516 -1.703985691 0.1524971575
0.5160796642 -1.650850177 0.2072344273
0.5201687217 -1.665971875 0.2697445452
0.5244447589 -1.680697918 0.3339785635
0.5161192417 -1.656049609 0.390511632
0.5164592266 -1.659179568 0.454020679
0.5167195797 -1.667190313 -0.4560912251
0.5175489783 -1.671929955 -0.3941108286
0.5122132897 -1.655716658 -0.3286359012
0.5181390643 -1.676944733 -0.2713088989
0.5158790946 -1.671698928 -0.2096718103
0.5197424889 -1.685261965 -0.1505797356
0.5191859007 -1.68554616 -0.09022831917
0.5174357295 -1.681951284 -0.03001634404
0.5253971815 -1.696236014 0.03029558249
0.5177030563 -1.673462391 0.08960029483
0.5215073228 -1.686802149 0.1507540494
0.5103139877 -1.652641535 0.2072344273
0.5067821741 -1.643238187 0.2656772435
0.5151053071 -1.67126143 0.3316888511
0.5063220263 -1.644803524 0.3873623013
0.5044196844 -1.640660167 0.4483266473
0.5001528859 -1.633886218 -0.4462560713
0.5077211857 -1.660681486 -0.3909615278
0.5029885173 -1.646229148 -0.3263462186
0.506516695 -1.659849524 -0.2681801915
0.5065683722 -1.662096143 -0.2082093954
0.5039877295 -1.654664755 -0.147616446
0.507486105 -1.66824019 -0.089181602
0.5045858026 -1.660787106 -0.02959748544
0.5112832785 -1.67128861 0.02980691381
0.50835675 -1.663798809 0.08897226304
0.5086340308 -1.665745735 0.1486623138
0.4993305206 -1.637323976 0.2050407827
0.4929851592 -1.618541837 0.2612971067
0.5024078488 -1.650511265 0.3271094263
0.497176528 -1.635374188 0.3846628964
0.4919542074 -1.620228767 0.4421150088
0.4916515052 -1.626376152 -0.4436678886
0.4974153638 -1.647518992 -0.3873623013
0.4921351969 -1.631058931 -0.3229116499
0.4927403629 -1.63512814 -0.263800025
0.4979027808 -1.654350042 -0.2069907039
0.4959132671 -1.648782253 -0.1469191909
0.4982123077 -1.658524632 -0.08855357766
0.4970615804 -1.656792402 -0.02949277125
0.4961934984 -1.642435193 0.02924843691
0.4979305565 -1.650266171 0.08813488483
0.4970641434 -1.648435712 0.1469191909
0.4884603918 -1.62195003 0.202847138
0.4850564301 -1.612686157 0.2600456178
0.4864708781 -1.618412137 0.3202403188
0.489223659 -1.629633784 0.3828632832
0.4779734313 -1.594179034 0.4343504012
0.4832087159 -1.618826628 -0.441079706
0.478856504 -1.606292248 -0.3770145476
0.4802726209 -1.612069964 -0.3187138438
0.4780160785 -1.606544733 -0.2587941289
0.4830778241 -1.625632167 -0.2030908763
0.4822142124 -1.623763919 -0.1444788426
0.4816296101 -1.623872042 -0.08656480908
0.4821880758 -1.627839684 -0.02893429436
0.4858840406 -1.628827214 0.02896919847
0.4853238463 -1.629024744 0.08687882125
0.4810735285 -1.615788698 0.1437815875
0.4714799523 -1.585590124 0.1979723722
0.4687394798 -1.57839036 0.2541010976
0.4657368064 -1.569283485 0.3099366426
0.4658105671 -1.571542978 0.3684664071
0.4608903527 -1.556937575 0.4234800041
0.4617182314 -1.566764712 -0.4260682166
0.4622423947 -1.570564985 -0.3680165112
0.4657787979 -1.583600998 -0.312607944
0.4629406631 -1.575983524 -0.253475368
0.4645476043 -1.583497763 -0.1974848807
0.4642115831 -1.583375216 -0.1406439841
0.4658558965 -1.591041327 -0.08468071371
0.4641556144 -1.587287784 -0.02816638723
0.4655073583 -1.580639243 0.02806167491
0.4627272785 -1.573226094 0.08373866975
0.4726212025 -1.6079005 0.1429100335
0.4569959641 -1.556750774 0.1940725446
0.4554465413 -1.553478599 0.249720946
0.4608082473 -1.572783589 0.3103182614
0.4548494518 -1.554456234 0.3639673889
0.4543689787 -1.554828167 0.422444731
0.4513899982 -1.551672339 -0.4214094579
0.4556699991 -1.568426013 -0.3671166897
0.4553216696 -1.56824863 -0.3091734052
0.4585368633 -1.58138442 -0.2541010976
0.4568087161 -1.57748282 -0.1965099275
0.4570201039 -1.579244256 -0.1401210576
0.4569722116 -1.581145406 -0.08405268192
0.4555600882 -1.577291369 -0.02795695886
0.4622197449 -1.589935303 0.0282012932
0.4569506049 -1.572833896 0.08363399655
0.4647847116 -1.601886511 0.1422127783
0.4532167315 -1.564056396 0.1948037595
0.449193567 -1.551185608 0.2490952164
0.4585879147 -1.585698247 0.312607944
0.4499613047 -1.557906628 0.3644172847
0.4497462213 -1.558182716 0.4229623973
0.4433051348 -1.543954372 -0.4188212752
0.4526162446 -1.577421188 -0.3689163029
0.451466918 -1.575490475 -0.3103182614
0.4538342059 -1.584795237 -0.2544139624
0.4532124996 -1.584714651 -0.1972411424
0.4515047073 -1.580829978 -0.1401210576
0.4539190829 -1.590334415 -0.08447137475
0.4511478245 -1.582718015 -0.02802676708
0.4536337256 -1.579927087 0.02799186297
0.4553111792 -1.587858677 0.08436669409
0.4553508461 -1.590091348 0.1409926116
0.4463891089 -1.559825301 0.1940725446
0.4421477616 -1.547045946 0.2481565922
0.4522486925 -1.583434939 0.3118447363
0.4485342801 -1.572508216 0.3675666153
0.4464215338 -1.567174792 0.4250329435
0.4408176243 -1.554708958 -0.4214094579
0.4471074045 -1.578991413 -0.3689163029
0.4483783245 -1.584535241 -0.3118447363
0.4450763166 -1.574964285 -0.2525367737
0.4487564862 -1.590107918 -0.197728619
0.4473415613 -1.586153865 -0.1404696703
0.4494480789 -1.595754027 -0.08468071371
0.4494104981 -1.597758293 -0.02827110328
0.4497514367 -1.587272882 0.02809657902
0.4524848163 -1.599047303 0.08489005268
0.4517018795 -1.597344398 0.141515553
0.4398625195 -1.557553291 0.193585068
0.4372809231 -1.550481439 0.2484694868
0.4456534386 -1.581224442 0.3110814691
0.4419864416 -1.570312619 0.3666667938
0.436766386 -1.553845286 0.4208918214
0.4359085858 -1.558098555 -0.4219270945
0.4373977482 -1.565527797 -0.3653171062
0.4412605166 -1.580417752 -0.3106998801
0.4337397814 -1.555577517 -0.2490952164
0.4357484877 -1.564891934 -0.194316268
0.4428705275 -1.591544509 -0.1408182979
0.4363883436 -1.570372462 -0.08321530372
0.4390181005 -1.581975341 -0.02795695886
0.4447466135 -1.59075892 0.02813148312
0.443677634 -1.58907485 0.08426202834
0.4450525343 -1.595072985 0.1411669254
0.426430434 -1.530395389 0.1899289787
0.4286888242 -1.540579677 0.2465922385
0.4369755387 -1.571421623 0.3087917864
0.4318095446 -1.554946661 0.3626176715
0.428241998 -1.544190884 0.4177860022
0.4263551831 -1.544712901 -0.4177860022
0.429341346 -1.557651639 -0.3630675972
0.428442359 -1.555449724 -0.3053572178
0.4235921204 -1.539940357 -0.2462793738
0.4271281958 -1.554918289 -0.1928538531
0.4315106273 -1.571946263 -0.1389008611
0.4303762019 -1.569959998 -0.08311063796
0.4297972322 -1.569997072 -0.02771262452
0.436000675 -1.580735445 0.02792205475
0.4296420515 -1.559805155 0.08258727938
0.432607919 -1.571644545 0.1389008611
0.4195072949 -1.526132345 0.1891977638
0.4175564945 -1.5211128 0.2431506962
0.4242163301 -1.546430945 0.3034491241
0.4196857512 -1.532011151 0.3567689359
0.4192809165 -1.532632589 0.4141625166
0.4158856273 -1.527551651 -0.412609607
0.4193000793 -1.542216539 -0.3590184748
0.4178627431 -1.537990093 -0.3015410304
0.4171794355 -1.537596822 -0.2456536442
0.4123536646 -1.521911621 -0.1884665489
0.4213345349 -1.556134701 -0.1373320669
0.4228082895 -1.563740492 -0.08269194514
0.4175378084 -1.546390533 -0.02725886367
0.4262805581 -1.566811204 0.02764281631
0.4215764105 -1.551658511 0.0820639208
0.4218988717 -1.553917289 0.1371577531
0.4089828432 -1.508428335 0.1867603809
0.4075979292 -1.505400658 0.2403348833
0.4177901149 -1.544112206 0.3026858866
0.409252286 -1.514653921 0.3522699177
0.4078891873 -1.511705041 0.4079508483
0.4065431058 -1.514068007 -0.4084685147
0.4118953049 -1.536141753 -0.3572188616
0.409442842 -1.528061271 -0.2992513478
0.4067038 -1.519961119 -0.2425249666
0.4049887359 -1.515670657 -0.1874915957
0.4102462828 -1.536421418 -0.1354146451
0.4111721218 -1.542048812 -0.08143588156
0.408021301 -1.532379746 -0.02697962523
0.4145901203 -1.545113087 0.0272239577
0.4130558968 -1.541545391 0.08143588156
0.4102879167 -1.532285571 0.1350660175
0.4062789679 -1.519435167 0.1879790723
0.4018311501 -1.504905701 0.2400220186
0.4078424871 -1.528489113 0.2992513478
0.4019556642 -1.508541107 0.3504703045
0.3976425827 -1.494450688 0.402774483
0.3997722864 -1.509875298 -0.4069156051
0.3980626762 -1.50554204 -0.3495705128
0.4010972679 -1.518092394 -0.2969616055
0.3953483999 -1.498451352 -0.2387705296
0.3986842334 -1.513235927 -0.1870041192
0.3998079896 -1.51857686 -0.1336715221
0.4017243683 -1.528021693 -0.08059850335
0.3996229172 -1.522189736 -0.02677019686
0.4030560851 -1.523352861 0.02680510096
0.4066519439 -1.539115906 0.08122654259
0.4029024243 -1.526002884 0.1343687773
0.3948996961 -1.497810125 0.1850542128
0.3940608501 -1.496747732 0.2384576648
0.3940127492 -1.497626543 0.2927638292
0.3956972361 -1.506165504 0.3495705128
0.390462786 -1.488355041 0.4007039368
0.3891320527 -1.490700364 -0.4012215734
0.3898554146 -1.495608211 -0.3468711078
0.3933212757 -1.509983897 -0.2950535417
0.3911099136 -1.503645658 -0.2393962592
0.3884093463 -1.49540484 -0.1845667362
0.3945046961 -1.519963264 -0.1336715221
0.3903748691 -1.506214142 -0.07934244722
0.3933051527 -1.519703388 -0.02670038491
0.395717293 -1.517010689 0.02666548081
0.3972493112 -1.525063872 0.08038916439
0.3955658674 -1.519687414 0.1336715221
0.3841757774 -1.478045821 0.1823730916
0.3838711679 -1.478994012 0.2353289872
0.3873039484 -1.493291616 0.291618973
0.3865286112 -1.492445588 0.3459712863
0.3823626637 -1.478487134 0.3975981176
0.3786305785 -1.471469522 -0.3955275416
0.3817227483 -1.485635161 -0.3441716731
0.3851187825 -1.49993825 -0.2927638292
0.3848778009 -1.501174808 -0.2387705296
0.3802328706 -1.485213161 -0.1831042916
0.3852461278 -1.505889177 -0.1322770268
0.3821489513 -1.495956898 -0.07871441543
0.3840438426 -1.505566001 -0.02642114647
0.3864354491 -1.502889156 0.02638624236
0.3849697709 -1.499357939 0.07892375439
0.3882779181 -1.5133394 0.1329742819
0.3755655587 -1.465916872 0.1806669086
0.3757686019 -1.468842387 0.2334517539
0.3806304038 -1.488928199 0.2904741168
0.3740866482 -1.465462923 0.339222759
0.3724279702 -1.46109283 0.3924217224
0.3730169535 -1.470909715 -0.3950099051
0.3727076054 -1.471845746 -0.3405724764
0.371211797 -1.467014551 -0.2858946919
0.3762479722 -1.489102721 -0.2365804464
0.3721326292 -1.474982619 -0.1816418618
0.3770650327 -1.495633125 -0.1312311739
0.3739994168 -1.485660791 -0.07808638364
0.3729361296 -1.483624935 -0.02600228973
0.3792223334 -1.49647522 0.0262466222
0.37581411 -1.48520267 0.07808638364
0.3771322072 -1.491506219 0.1308825463
0.3685022593 -1.459520102 0.1796919554
0.3653272986 -1.449075222 0.2300102115
0.3739917278 -1.484536409 0.2893292606
0.3675427139 -1.461090207 0.3378730416
0.3673254848 -1.462383986 0.3924217224
0.3599184453 -1.440340996 -0.3862100542
0.3685111403 -1.476919293 -0.3414722681
0.3646638095 -1.462586522 -0.2847498357
0.3653210998 -1.467404604 -0.2328260243
0.3655448258 -1.470493317 -0.1809106469
0.3641569018 -1.466002226 -0.1284421831
0.3678493798 -1.483080268 -0.07787703723
0.3648708761 -1.473271489 -0.02579286136
0.3701209128 -1.482268929 0.02596738562
0.371593833 -1.490381479 0.07829573005
0.3680703938 -1.477347374 0.1294880509
0.3605301082 -1.449239373 0.1782295257
0.3564571142 -1.43500483 0.2275072485
0.3645509481 -1.468683958 0.2858946919
0.3605650663 -1.454798102 0.3360734284
0.3538649976 -1.429902196 0.3831042349
0.3521178961 -1.430333495 -0.3831042349
0.3568412364 -1.451702952 -0.3351736367
0.3567465544 -1.452411056 -0.2824601233
0.3550208807 -1.447567225 -0.2293844521
0.3613540828 -1.475616574 -0.1813981235
0.3580902219 -1.463393807 -0.1280935556
0.3588780165 -1.468833685 -0.07703965902
0.357829988 -1.466765285 -0.0256532412
0.3582569659 -1.456366539 0.0254787188
0.3635308146 -1.480031729 0.07766769081
0.3591117263 -1.463143468 0.1280935556
0.3531067669 -1.440848708 0.1770108342
0.3523848653 -1.440077901 0.228132993
0.3524274528 -1.4413414 0.2801704407
0.3554848135 -1.456047893 0.3360734284
0.3488716781 -1.43112874 0.3831042349
0.3457571864 -1.425921559 -0.3815513253
0.3462688923 -1.430211425 -0.329774797
0.3507510126 -1.449831247 -0.2816969156
0.3495020568 -1.44687736 -0.2290715873
0.3492196798 -1.447922587 -0.1777420491
0.3511126041 -1.456887126 -0.1273963153
0.3486086726 -1.448717356 -0.0758882761
0.3517736197 -1.464116573 -0.02558343112
0.3522294462 -1.453721166 0.02540890686
0.3527264297 -1.457996726 0.07641163468
0.3525978625 -1.458578229 0.1275706291
0.3429514468 -1.420846224 0.174329713
0.3450417817 -1.431697249 0.2265686542
0.3478536904 -1.444471598 0.2805520594
0.344021827 -1.430753589 0.329774797
0.3429720104 -1.42858088 0.3820689917
0.3385341763 -1.417724609 -0.3789631426
0.3376587927 -1.416246653 -0.3261756003
0.343413204 -1.441497564 -0.2797887921
0.3426208496 -1.440401554 -0.2278201133
0.3414109647 -1.437544584 -0.1762796044
0.3437247276 -1.448411107 -0.1265247613
0.3412471116 -1.440208197 -0.07536491752
0.3413879871 -1.441924334 -0.02516457438
0.3452963829 -1.447161436 0.02526928857
0.3432577252 -1.439730287 0.07536491752
0.347504288 -1.459800124 0.1275706291
0.3329404593 -1.400790334 0.1716485769
0.3339018524 -1.405926585 0.2221884727
0.3387327492 -1.42848444 0.2771174908
0.3336378336 -1.409189939 0.3243759871
0.3355643749 -1.418430448 0.3789631426
0.32916224 -1.400091887 -0.3737867475
0.3320690989 -1.413564205 -0.3252758086
0.3329997659 -1.419750929 -0.2752093971
0.3351379335 -1.429990292 -0.2259429097
0.3334759772 -1.425138593 -0.1745734513
0.3341341615 -1.430200577 -0.1247816384
0.3355611861 -1.437441945 -0.07515556365
0.3322675526 -1.425579667 -0.02485043183
0.3377497494 -1.436618805 0.0250598602
0.3354915082 -1.429253221 0.07473687828
0.3374055922 -1.439666152 0.1256531924
0.3282933831 -1.401886702 0.1716485769
0.3262939453 -1.395542622 0.2203112692
0.3344404399 -1.431511641 0.2774991095
0.3263069987 -1.398901939 0.3216765821
0.3288581371 -1.412067175 0.3768925667
0.3188509941 -1.376709342 -0.3670574427
0.3271329403 -1.414714694 -0.3252758086
0.325638026 -1.409370303 -0.2729196846
0.3274802566 -1.419602513 -0.2240656912
0.3271628022 -1.420490623 -0.1738422215
0.3255677819 -1.415824533 -0.123387143
0.3287526667 -1.4308182 -0.07473687828
0.3263948858 -1.422832727 -0.02478061989
0.329125911 -1.422203422 0.02478061989
0.3313998282 -1.434307575 0.07494622469
0.3276994824 -1.419422507 0.1237357706
0.3207226098 -1.391417861 0.1701861471
0.317433387 -1.379347563 0.2174954414
0.3285615146 -1.428843737 0.276735872
0.3205497861 -1.396233678 0.3207767904
0.317452997 -1.384961247 0.3691280186
0.3129449785 -1.37410152 -0.3660221994
0.3178686202 -1.396846533 -0.3207767904
0.3196002543 -1.406725287 -0.2721564472
0.3187789917 -1.40538168 -0.2215627432
0.3200086057 -1.411944032 -0.17262353
0.3197441995 -1.41306591 -0.1230385303
0.3208655715 -1.420324683 -0.07410884649
0.3209860921 -1.422012687 -0.02474571578
0.3206072152 -1.407745481 0.0245013833
0.322848469 -1.419875264 0.07410884649
0.3194073141 -1.407013416 0.122515589
0.3136680722 -1.382849455 0.1689674556
0.3121802807 -1.378520608 0.2171825767
0.3163952529 -1.399399519 0.2706299722
0.3145719767 -1.393597364 0.3198769987
0.311766386 -1.382292032 0.3680927455
0.3085691035 -1.377070546 -0.3665398061
0.3093432486 -1.382788181 -0.3171775639
0.3138312101 -1.40400064 -0.2713932097
0.3104295433 -1.39106226 -0.2190597802
0.3113779128 -1.397606611 -0.1706736237
0.3122122586 -1.402504683 -0.1219926476
0.3098394275 -1.394140363 -0.07264344394
0.3153388202 -1.421227455 -0.02471081167
0.3141346872 -1.403056979 0.02439666912
0.3141564727 -1.405455828 0.07327146828
0.3157970011 -1.413953304 0.1230385303
0.3038453162 -1.362677097 0.1662863195
0.3049796522 -1.370014668 0.2156182379
0.3110820353 -1.398579121 0.2702483535
0.3063260317 -1.379467726 0.3162777722
0.3066980839 -1.383425474 0.3680927455
0.3029284775 -1.374366283 -0.3655045629
0.3036769331 -1.380053282 -0.3162777722
0.3047127426 -1.385912895 -0.2675770521
0.3047249019 -1.388278484 -0.2184340507
0.3030981123 -1.383172512 -0.1687237173
0.3064622283 -1.399693489 -0.121644035
0.3032650352 -1.387408614 -0.07222475111
0.3052599728 -1.398874879 -0.02429195307
0.3083749712 -1.40023911 0.02432685718
0.3058176935 -1.39093852 0.07243409753
0.310859412 -1.41504705 0.1230385303
0.2965354621 -1.352095485 0.1648238897
0.2976603508 -1.359492898 0.2137410194
0.302841723 -1.384313226 0.2671954036
0.2973506749 -1.361490011 0.311778754
0.2977516949 -1.365612507 0.3629163802
0.2936277092 -1.35464704 -0.3598105311
0.2976213098 -1.375390887 -0.3149280548
0.296554178 -1.371616721 -0.2645241022
0.2990434468 -1.385471821 -0.2178083062
0.296595484 -1.376459956 -0.1677487642
0.2973812222 -1.381276965 -0.1199009195
0.2980006635 -1.3865062 -0.07212008536
0.298520118 -1.390103817 -0.02411742881
0.301792264 -1.39348948 0.02418724075
0.2986689508 -1.380232453 0.07180606574
0.3008696139 -1.392753839 0.1209467873
0.2913954258 -1.351181865 0.1645801514
0.2881574035 -1.337299824 0.2099865824
0.2980075479 -1.38536191 0.2671954036
0.2909598947 -1.354898453 0.3099791408
0.2916003466 -1.359036922 0.3608458042
0.2868839204 -1.346216798 -0.3572223186
0.2922471464 -1.372558355 -0.3140282631
0.2901315987 -1.36496222 -0.2629976273
0.291164577 -1.370997667 -0.2153053731
0.2920292914 -1.377435923 -0.1677487642
0.2884325683 -1.362814546 -0.1181578115
0.2921615541 -1.381624579 -0.07180606574
0.2920136154 -1.383311152 -0.02397781052
0.2946688533 -1.382748008 0.02397781052
0.2921869755 -1.373452425 0.07138738036
0.2910394371 -1.370408416 0.1188550442
0.2873252928 -1.354082584 0.1648238897
0.2822594941 -1.3325001 0.2090479732
0.2893470824 -1.367135525 0.263379246
0.2856595218 -1.352042437 0.3090793192
0.2820705175 -1.337363243 0.354634136
0.2816254795 -1.34337914 -0.3561870754
0.2854583263 -1.364032984 -0.311778754
0.2839964926 -1.358229876 -0.2614711523
0.2827445269 -1.354602337 -0.2124895453
0.285599798 -1.370673299 -0.166773811
0.282287389 -1.355961204 -0.1174605638
0.2840860486 -1.366992235 -0.07096869498
0.2863709331 -1.380406022 -0.02390800044
0.2857409418 -1.364195824 0.02362876199
0.2865733802 -1.37055397 0.07117803395
0.2856785059 -1.367465496 0.1185064316
0.2793545723 -1.339530945 0.1628739834
0.2780092061 -1.335411072 0.2093608528
0.2797753513 -1.345071793 0.2587998211
0.2785611749 -1.341583133 0.3063799143
0.2750479877 -1.326989889 0.3515283167
0.2753753662 -1.336785555 -0.3541164994
0.2759850025 -1.342115402 -0.3063799143
0.279253602 -1.359212995 -0.2614711523
0.2756331265 -1.343970418 -0.210612312
0.2768319249 -1.352214456 -0.164336428
0.2779516876 -1.358890295 -0.1176348701
0.2761159837 -1.352320433 -0.07013131678
0.2795539796 -1.371600032 -0.02373347618
0.2781555653 -1.351474524 0.02338442951
0.2785718739 -1.355894804 0.07034065574
0.280903399 -1.368454337 0.1185064316
0.2698954344 -1.317161798 0.1599491239
0.2725543082 -1.332502723 0.2087351084
0.2750785947 -1.346040249 0.2587998211
0.2715393603 -1.331090927 0.3036805093
0.2696432173 -1.324155807 0.3504930437
0.2699412107 -1.333951592 -0.3530812263
0.2697550356 -1.335430026 -0.304580301
0.2706236243 -1.340934873 -0.2576549649
0.2709400654 -1.34492445 -0.210612312
0.2701534927 -1.343441844 -0.1631177366
0.2716367543 -1.352038741 -0.1169376224
0.2678594589 -1.335651636 -0.06918927282
0.2716241777 -1.356881261 -0.02345423773
0.275021255 -1.360277295 0.02352404594
0.2706764638 -1.341196775 0.06950328499
0.2745495737 -1.361614227 0.1178091839
0.2641210854 -1.312257528 0.159217909
0.2651776373 -1.319889307 0.20654504
0.2688326538 -1.339292884 0.2572733462
0.263828665 -1.316744447 0.3000812829
0.265019536 -1.325088978 0.3504930437
0.2618941665 -1.317832589 -0.3484224677
0.2654711902 -1.338275075 -0.3050302267
0.2621243596 -1.322613597 -0.2538387775
0.2647104859 -1.338110805 -0.2093608528
0.2620013356 -1.326849341 -0.160924077
0.2626737058 -1.331476927 -0.1150202006
0.2651248872 -1.346376657 -0.0697126314
0.2634151876 -1.340161681 -0.02314009517
0.2675454021 -1.347499251 0.02327971347
0.2636632621 -1.330378532 0.0688752532
0.2651512623 -1.33911097 0.1157174483
0.2576141655 -1.303434372 0.1579992175
0.2563630342 -1.299488544 0.2031034678
0.2633967996 -1.336370587 0.2565101087
0.256973654 -1.306184888 0.2973818779
0.2574144602 -1.310840964 0.3463519514
0.2554427385 -1.309258223 -0.345834285
0.2589355409 -1.329629421 -0.3027806878
0.2552564442 -1.311957598 -0.2515490651
0.2570253015 -1.323513389 -0.2068579048
0.2581236362 -1.331653237 -0.1614115536
0.2553727329 -1.31869328 -0.113800019
0.2589073479 -1.339450002 -0.06929393858
0.2579779029 -1.337146163 -0.0230702851
0.2613097429 -1.340573907 0.02314009517
0.2582550645 -1.32736969 0.06866591424
0.2589544058 -1.332205296 0.1150202006
0.2545752823 -1.312120676 0.1589741707
0.24919644 -1.286800265 0.2009133995
0.2557471395 -1.321861863 0.2534571886
0.2524126172 -1.307073951 0.2973818779
0.2484495342 -1.288968205 0.3401402831
0.248691231 -1.298757672 -0.3427284658
0.2528293729 -1.322868943 -0.3009811044
0.2499390095 -1.308983803 -0.2507858276
0.2487057 -1.30499804 -0.2037292123
0.2534738481 -1.332546234 -0.1614115536
0.2503962219 -1.317619324 -0.1136257052
0.2501361966 -1.318760633 -0.0681425482
0.2525648475 -1.334108829 -0.02300047502
0.2528712749 -1.321837068 0.02279104665
0.2528710067 -1.32433939 0.06845656037
0.2520626485 -1.321358442 0.1139743254
0.2477656305 -1.301301122 0.1575117409
0.245072037 -1.289602757 0.2012262642
0.2474692911 -1.303458571 0.2496409565
0.2463973761 -1.300288439 0.2955822647
0.243230626 -1.286031246 0.33910501
0.2441560179 -1.299617887 -0.3427284658
0.2439005524 -1.300758958 -0.2955822647
0.2453680634 -1.309848428 -0.2507858276
0.2434227616 -1.301974654 -0.2031034678
0.2444511205 -1.310005903 -0.1584866792
0.2443347722 -1.310650826 -0.1129284576
0.2437046021 -1.309807897 -0.06761918962
0.2479064912 -1.334982276 -0.02300047502
0.2467802912 -1.314850211 0.02265142649
0.2460400164 -1.313435435 0.06782853603
0.2474486828 -1.322230339 0.1139743254
0.2381191552 -1.274839163 0.1540994048
0.2391209006 -1.282682776 0.1999747753
0.2421990484 -1.30045414 0.2488777488
0.2390077859 -1.285813093 0.2919830382
0.2394447774 -1.290671349 0.3401402831
0.2382179052 -1.292862654 -0.3406579196
0.2379485667 -1.293936014 -0.2937826514
0.2372470647 -1.291387439 -0.2469696552
0.2374514937 -1.295044422 -0.2018519938
0.2391621917 -1.306946039 -0.1579992175
0.2393999398 -1.309535861 -0.1127541512
0.23769705 -1.302791357 -0.06720050424
0.2389460206 -1.312231541 -0.02258161828
0.241465047 -1.31177032 0.02258161828
0.2371232659 -1.290713668 0.066572465
0.2421123534 -1.31916666 0.1136257052
0.2333101034 -1.273709893 0.1538556516
0.2346420139 -1.283509612 0.1999747753
0.2369526774 -1.297429204 0.2481144816
0.2317225784 -1.271302462 0.2883838415
0.2328636497 -1.280095339 0.3370344639
0.2316430658 -1.282279968 -0.3375521004
0.233084783 -1.292840958 -0.2933327556
0.2299536318 -1.276750445 -0.2439167053
0.2322306782 -1.291976929 -0.2012262642
0.231794551 -1.292141676 -0.1560492963
0.2316643745 -1.292713165 -0.1111853495
0.2324447185 -1.299680948 -0.06699115783
0.2315531969 -1.297308803 -0.02230237983
0.2354640067 -1.304733515 0.02244199812
0.231200099 -1.283671141 0.06615378708
0.2346836627 -1.304316521 0.1122312099
0.2274590284 -1.266701102 0.1528806984
0.2249336392 -1.255154848 0.195281744
0.2324223071 -1.29824841 0.2481144816
0.2252271026 -1.260593295 0.2856844068
0.2263591439 -1.269489288 0.3339286149
0.2237975746 -1.264057994 -0.3323757052
0.2282314152 -1.291727662 -0.2928828597
0.2248131782 -1.27367866 -0.2431534678
0.2263486683 -1.284998059 -0.1999747753
0.2272828519 -1.292942882 -0.1560492963
0.2243935317 -1.277815104 -0.1097908542
0.2265274823 -1.292615294 -0.066572465
0.2256453186 -1.290230036 -0.02216275968
0.2288184911 -1.293732643 0.02223256789
0.2267179787 -1.28447032 0.06615378708
0.2266695499 -1.285506487 0.1104881018
0.2237242162 -1.271397591 0.153368175
0.2205507755 -1.25593245 0.195281744
0.225175485 -1.283581972 0.2450615615
0.2214973718 -1.265210986 0.2865842283
0.2192665935 -1.255047441 0.3297875226
0.2177331746 -1.25531435 -0.3297875226
0.2207297385 -1.275234818 -0.2888337374
0.2196969241 -1.270586371 -0.2423902303
0.218502894 -1.266314268 -0.1968460977
0.222094506 -1.289815784 -0.1555618197
0.220607385 -1.282517672 -0.1101394817
0.2193110287 -1.277650476 -0.06573509425
0.2191144824 -1.279183984 -0.02195333131
0.2222527415 -1.282701612 0.02202314138
0.2208718807 -1.277381539 0.06573509425
0.2208243757 -1.278436661 0.1097908542
0.216924414 -1.258477092 0.1516619921
0.2158306688 -1.254747987 0.1949688792
0.2180335671 -1.268880963 0.2420086116
0.2164210081 -1.26213491 0.2856844068
0.2129292935 -1.244379997 0.3266816735
0.2133498043 -1.256066799 -0.3297875226
0.211392194 -1.247177362 -0.2820851803
0.2152602226 -1.271345615 -0.2423902303
0.212765038 -1.259278178 -0.1955946088
0.216270715 -1.282753348 -0.1545868665
0.2167910933 -1.287209272 -0.1104881018
0.211539641 -1.258711815 -0.06468837708
0.2153095305 -1.283885241 -0.02202314138
0.2150978595 -1.267697334 0.02174390107
0.2150777429 -1.270267844 0.06531640887
0.2170249671 -1.283128858 0.1101394817
0.2098872215 -1.243567348 0.1497121006
0.2114495635 -1.255493641 0.1949688792
0.2116488069 -1.258018017 0.239718914
0.2087874264 -1.243664384 0.2811853886
0.2092228085 -1.248926401 0.3277169764
0.2070630044 -1.245369554 -0.3266816735
0.2076751888 -1.251752734 -0.2829850018
0.2095372379 -1.264341831 -0.2408637553
0.2077233046 -1.256115556 -0.1949688792
0.2079133987 -1.259997129 -0.1516619921
0.2087320089 -1.266333818 -0.10857068
0.2064962983 -1.255500913 -0.06447903067
0.2078088671 -1.264859796 -0.02167409286
0.2093609124 -1.260549784 0.02160428464
0.2075952291 -1.251270771 0.06426969171
0.2105923444 -1.272084594 0.1090936065
0.204574585 -1.238416672 0.1489808857
0.2050335407 -1.242544651 0.192778796
0.207256183 -1.258749127 0.239718914
0.2028654218 -1.234770775 0.2789358795
0.2032028288 -1.238175154 0.3246111274
0.200543344 -1.232737422 -0.3230582178
0.202272892 -1.244740486 -0.2811853886
0.202922985 -1.25150001 -0.2381924391
0.2041884512 -1.260697246 -0.1955946088
0.201200366 -1.245002389 -0.1497121006
0.2039933503 -1.265087724 -0.1083963588
0.2016965151 -1.252235174 -0.06426969171
0.2008541226 -1.249782562 -0.02139485441
0.204858616 -1.259263277 0.02156937681
0.2032263279 -1.251987815 0.06426969171
0.2048764378 -1.264944911 0.1083963588
0.2001496404 -1.237128735 0.1487371475
0.1984913647 -1.229601979 0.1905887276
0.2024558932 -1.255553007 0.2389556617
0.1987695992 -1.235436678 0.2789358795
0.1964298934 -1.223617554 0.3204700351
0.1937194318 -1.216225386 -0.3183994889
0.1973149627 -1.241589785 -0.2802855968
0.1963094622 -1.236654282 -0.2351394892
0.1960783303 -1.237989664 -0.1918401867
0.19623366 -1.241775513 -0.1492246091
0.1966905147 -1.246076941 -0.1066532433
0.1973243058 -1.252931476 -0.06426969171
0.19546552 -1.242540121 -0.02125523426
0.2001473159 -1.257995844 0.0215344727
0.1993868947 -1.254627347 0.06437435746
