# .PCD v0.7 - Point Cloud Data file format
VERSION 0.7
FIELDS x y z
SIZE 4 4 4
TYPE F F F
COUNT 1 1 1
WIDTH 1274
HEIGHT 1
VIEWPOINT 0 0 0 1 0 0 0
POINTS 1274
DATA ascii
8.424465179 -2.244726181 1.686432719
8.350734711 -2.228202343 1.985414624
7.233133793 -1.932700872 1.994511724
8.353957176 -2.243124962 -2.306129694
8.427363396 -2.265989065 -2.004760504
8.456871986 -2.275506496 -1.694065094
8.484897614 -2.286224127 -1.385122538
8.443014145 -2.278100014 -1.068606973
8.492194176 -2.294550419 -0.7658993602
8.506563187 -2.30002594 -0.4596155286
8.519896507 -2.306822538 -0.1533699483
8.510791779 -2.286829233 0.1531256139
8.484294891 -2.282885313 0.4582547843
8.507659912 -2.29076457 0.7671195269
8.472160339 -2.284377813 1.072263122
8.436022758 -2.277793169 1.377300739
8.458274841 -2.285385609 1.69482851
8.348549843 -2.258865356 1.986764431
7.222613811 -1.95692718 1.99347651
8.394141197 -2.286931992 -2.319588423
8.44572258 -2.302568436 -2.011059046
8.490142822 -2.317862511 -1.702460885
8.51457119 -2.327725649 -1.391379833
8.479048729 -2.319605112 -1.074212909
8.512956619 -2.332075596 -0.7685139775
8.54430294 -2.343869448 -0.4621276557
8.546504021 -2.346077204 -0.1539982408
8.537486076 -2.325985193 0.1537539065
8.518663406 -2.324051619 0.4605575502
8.53572464 -2.331907511 0.7704313397
8.504345894 -2.324930429 1.077381611
8.469936371 -2.318701029 1.384183884
8.480136871 -2.324676037 1.700934291
8.347730637 -2.291512489 1.988563895
7.20456171 -1.979056597 1.990370631
8.414039612 -2.323933601 -2.327352762
8.471035957 -2.342858553 -2.01915741
8.523626328 -2.359004974 -1.710856318
8.533044815 -2.364818811 -1.395760059
8.512572289 -2.36234498 -1.0795753
8.57579422 -2.381502151 -0.7749634385
8.582250595 -2.386522293 -0.4646397531
8.607616425 -2.395194292 -0.1552548259
8.561670303 -2.366317034 0.1543473005
8.572099686 -2.37081027 0.463907063
8.581295013 -2.376578093 0.7753121257
8.526374817 -2.364573002 1.081281424
8.49985981 -2.358816862 1.390441179
8.498452187 -2.361621857 1.706276894
8.339680672 -2.320637465 1.988563895
7.19016552 -2.002120495 1.988300085
8.446803093 -2.364747524 -2.338740826
8.493243217 -2.379347563 -2.026355743
8.564487457 -2.40253067 -1.720778465
8.566996574 -2.404847383 -1.402643085
8.52953434 -2.397544146 -1.082743883
8.615376472 -2.424918175 -0.7793212533
8.620428085 -2.427963972 -0.4671519101
8.635769844 -2.435539007 -0.1559180021
8.599991798 -2.40763402 0.1551849991
8.598388672 -2.410422325 0.4657911658
8.607475281 -2.416210413 0.7784497142
8.547152519 -2.400886536 1.084937453
8.539113998 -2.40184474 1.398262978
8.539710045 -2.40362072 1.71619904
8.320685387 -2.345108509 1.985864639
7.186851501 -2.028255939 1.989335179
8.472369194 -2.40223074 -2.348058462
8.516756058 -2.418028116 -2.034004211
8.582487106 -2.439927816 -1.726121068
8.598448753 -2.446088076 -1.409213305
8.551660538 -2.436004162 -1.086643696
8.654758453 -2.468639374 -0.7836790681
8.646040916 -2.469416857 -0.4690360129
8.669516563 -2.477758169 -0.1566859186
8.635781288 -2.45019269 0.1559878141
8.630267143 -2.451883554 0.4679892659
8.643494606 -2.457271576 0.7824589014
8.578814507 -2.442120552 1.090055943
8.56107235 -2.44030118 1.403268814
8.576151848 -2.447836399 1.72535789
8.308701515 -2.373068333 1.984964728
7.17601347 -2.052268028 1.988300085
8.500640869 -2.443943024 -2.358411074
8.554653168 -2.462705135 -2.045251846
8.611214638 -2.482243538 -1.733753443
8.636876106 -2.491273403 -1.417035103
8.580816269 -2.47834754 -1.091518402
8.67053318 -2.507539511 -0.7859451175
8.686811447 -2.515533447 -0.4717574716
8.687265396 -2.517308474 -0.1571745723
8.672864914 -2.495096684 0.1568255275
8.663445473 -2.495661736 0.4702920914
8.668889046 -2.498868704 0.7855965495
8.627022743 -2.490062237 1.09736824
8.586229324 -2.481534958 1.408900499
8.608610153 -2.491259813 1.733753443
8.296203613 -2.402420998 1.984065056
7.164731503 -2.077479362 1.987264752
8.52130127 -2.483732939 -2.366693497
8.601690292 -2.510421991 -2.058748722
8.643959045 -2.524395227 -1.742149115
8.665606499 -2.534000397 -1.423292398
8.623112679 -2.524842501 -1.098099351
8.68849659 -2.545633316 -0.7883854508
8.720140457 -2.558210135 -0.4740602374
8.71680069 -2.558882475 -0.1578726768
8.702054977 -2.538065672 0.1575236171
8.693027496 -2.537079096 0.4723855257
8.692183495 -2.540125608 0.7885597944
8.661657333 -2.534487009 1.102974176
8.621118546 -2.524258375 1.416096568
8.626237869 -2.529026747 1.739096045
8.294822693 -2.435007811 1.985864639
7.151875973 -2.100843191 1.985711813
8.549634933 -2.524403572 -2.377046108
8.61948204 -2.546662569 -2.065047264
8.672745705 -2.56569171 -1.749781489
8.687461853 -2.571694374 -1.428298473
8.656564713 -2.565834999 -1.103461742
8.727308273 -2.590117693 -0.7927432656
8.742241859 -2.596210241 -0.4757349789
8.757650375 -2.60411334 -0.1587802023
8.712770462 -2.572571516 0.1578726768
8.724339485 -2.579298735 0.4745836258
8.725294113 -2.582893372 0.7923946977
8.689369202 -2.573908329 1.107605219
8.652025223 -2.566132307 1.422666788
8.647917747 -2.566555738 1.745202065
8.284833908 -2.461945534 1.985414624
7.150053501 -2.127447844 1.987264752
8.604148865 -2.571549892 -2.394645929
8.642278671 -2.586232662 -2.072695732
8.709326744 -2.607953548 -1.75894022
8.716276169 -2.613350153 -1.434555769
8.689383507 -2.608592987 -1.108823895
8.774007797 -2.635667086 -0.7977982759
8.771379471 -2.638216019 -0.4778284729
8.798290253 -2.649659634 -0.1596877277
8.757380486 -2.619012117 0.1588499993
8.757375717 -2.622341394 0.4768863916
8.76439476 -2.626110077 0.7967523932
8.705049515 -2.611639738 1.110773802
8.688419342 -2.609956741 1.430175543
8.691550255 -2.612551212 1.75588727
8.268725395 -2.488604307 1.98361516
7.149982929 -2.154623032 1.989335179
8.624704361 -2.610522985 -2.402927876
8.674226761 -2.628818035 -2.082593441
8.737746239 -2.649733543 -1.766572595
8.746793747 -2.655811787 -1.441125989
8.704915047 -2.646414995 -1.111992478
8.810502052 -2.680194855 -0.8019818068
8.807970047 -2.682784319 -0.4803405702
8.821503639 -2.690271139 -0.1602810919
8.794116974 -2.663476706 0.1596877277
8.77875042 -2.662168026 0.4785611629
8.800930977 -2.670571804 0.8009359241
8.731967926 -2.652974606 1.115404844
8.717053413 -2.651767492 1.436432838
8.727454185 -2.656595707 1.765046239
8.252532005 -2.515179396 1.981815457
7.144266605 -2.180131435 1.989853024
8.65617466 -2.65306735 -2.414316177
8.715298653 -2.674516916 -2.094740868
8.765978813 -2.691743851 -1.774204969
8.790338516 -2.702581882 -1.449886322
8.741628647 -2.68927598 -1.117842317
8.831558228 -2.720316887 -0.8047707081
8.84054184 -2.726462841 -0.4826433659
8.84119606 -2.728354692 -0.1608046889
8.838297844 -2.710574865 0.1606650501
8.823336601 -2.707671165 0.4814919531
8.835360527 -2.714735985 0.8049451113
8.787163734 -2.703284502 1.123691916
8.745972633 -2.692283154 1.442690372
8.759403229 -2.699765205 1.773441792
8.244145393 -2.542531729 1.981815457
7.140688896 -2.204950809 1.990888238
8.673160553 -2.689768791 -2.421563148
8.758493423 -2.719584227 -2.10733819
8.798251152 -2.733613491 -1.782600641
8.824710846 -2.745212317 -1.457082391
8.774360657 -2.731228828 -1.12320447
8.860530853 -2.761444569 -0.8082569242
8.8810215 -2.771232367 -0.4853647947
8.877911568 -2.771962166 -0.1616423875
8.855998039 -2.748165846 0.1611537188
8.852457047 -2.748760939 0.4835853875
8.866262436 -2.756441355 0.8086056113
8.817955017 -2.744798899 1.128810525
8.778488159 -2.734194517 1.449573517
8.79163456 -2.741656542 1.781837225
8.233809471 -2.569276333 1.981365561
7.120429993 -2.224585533 1.987264752
8.72317791 -2.737022638 -2.438127518
8.78289032 -2.759126186 -2.115436316
8.834088326 -2.776903868 -1.791759372
8.84570694 -2.783949614 -1.462088227
8.81967926 -2.779141903 -1.130272865
8.89263916 -2.805545092 -0.812091887
8.909876823 -2.812693119 -0.4874582887
8.917756081 -2.818603754 -0.1625499129
8.877362251 -2.787102461 0.1617122144
8.890441895 -2.79461813 0.4862022102
8.893184662 -2.797185659 0.8119175434
8.846673012 -2.785950422 1.13368535
8.817872047 -2.780264378 1.45770812
8.816196442 -2.781428099 1.788706422
8.224790573 -2.598001719 1.981365561
7.116305828 -2.250591755 1.988300085
8.735179901 -2.775997162 -2.444339037
8.797348022 -2.797444582 -2.121284962
8.872489929 -2.824749231 -1.801681399
8.874967575 -2.828950405 -1.468658447
8.843966484 -2.820769072 -1.134660244
8.93214035 -2.852327108 -0.8166239858
8.933750153 -2.856278419 -0.4893423319
8.96500206 -2.867994547 -0.1635970622
8.920941353 -2.835031033 0.1626895368
8.920600891 -2.838351488 0.4884003103
8.936027527 -2.846695662 0.8167982697
8.867155075 -2.826460123 1.137585044
8.857043266 -2.826642752 1.465842724
8.858305931 -2.830453396 1.799391747
8.204076767 -2.624566793 1.978666186
7.112085819 -2.276596785 1.989335179
8.769575119 -2.820668221 -2.456762314
8.837119102 -2.845797777 -2.133432388
8.914897919 -2.872561932 -1.812366843
8.917677879 -2.876893997 -1.47741878
8.880794525 -2.868418455 -1.140753627
8.978497505 -2.903437138 -0.8218532801
8.973132133 -2.903431892 -0.4920638204
8.990574837 -2.912543058 -0.1642602533
8.963788986 -2.884862423 0.1636668742
8.946256638 -2.882666349 0.4903890789
8.963961601 -2.890098095 0.8202844858
8.913410187 -2.877234936 1.144897342
8.895494461 -2.874880791 1.473977327
8.893203735 -2.875855207 1.808550596
8.18003273 -2.648386717 1.975067019
7.112882614 -2.305626869 1.991923451
8.814284325 -2.870739222 -2.472291708
8.879011154 -2.893534422 -2.146029711
8.934171677 -2.914960623 -1.818472624
8.95965004 -2.926734686 -1.486179113
8.9009161 -2.909267664 -1.14465344
9.002391815 -2.945913792 -0.8249908686
9.007982254 -2.951224327 -0.4945759475
9.016457558 -2.955744028 -0.1649234444
8.999298096 -2.930996656 0.1645045877
8.979813576 -2.928118229 0.4927965105
8.998764992 -2.937773466 0.8244680166
8.942937851 -2.921275616 1.150015831
8.917322159 -2.916352749 1.479295969
8.927382469 -2.923092842 1.817709446
8.179531097 -2.681385756 1.977316499
7.108462334 -2.331645489 1.992958903
8.829896927 -2.909954786 -2.479538441
8.918313026 -2.94254446 -2.158177137
8.974277496 -2.962746859 -1.82877636
8.994393349 -2.972869158 -1.493687987
8.945363045 -2.958395958 -1.151721954
9.033664703 -2.99109745 -0.8288257122
9.052603722 -3.000875473 -0.4976114333
9.04973793 -3.001678467 -0.1657262594
9.030274391 -2.977738142 0.1652724892
9.016954422 -2.975090504 0.4954133332
9.026291847 -2.981665611 0.8279542327
8.988711357 -2.972732067 1.15732789
8.952096939 -2.962356091 1.486804843
8.958125114 -2.967820883 1.826104999
8.161344528 -2.705429077 1.975067019
7.072777271 -2.347316742 1.985194206
8.889843941 -2.962428093 -2.499208927
8.941781044 -2.98320365 -2.166275501
9.012822151 -3.008652687 -1.838698387
9.010714531 -3.011445761 -1.498068094
8.986334801 -3.005041838 -1.158302903
9.070929527 -3.036851168 -0.833183527
9.082370758 -3.044207573 -0.4998095334
9.09661293 -3.050747156 -0.1667734087
9.054497719 -3.019053221 0.1659007818
9.065772057 -3.024570227 0.4986581504
9.056040764 -3.024837017 0.8316147327
9.022105217 -3.017003298 1.162933946
8.981563568 -3.005188942 1.493375063
8.996635437 -3.013724327 1.836027145
8.152328491 -2.732478142 1.975067019
7.066785812 -2.3713727 1.985711813
8.923909187 -3.006695032 -2.511631966
8.974308014 -3.027164698 -2.176623106
9.041858673 -3.051707983 -1.846712351
9.051207542 -3.058383226 -1.506515622
9.01339817 -3.049113512 -1.163177609
9.105564117 -3.083834648 -0.8373669982
9.096817017 -3.08264184 -0.5011702776
9.133250237 -3.098543167 -0.1676460356
9.097494125 -3.066948652 0.1668781042
9.093008041 -3.068971395 0.5007516146
9.098814011 -3.072700024 0.8364954591
9.044018745 -3.05771327 1.167077422
9.030893326 -3.056788683 1.503386855
9.031219482 -3.058655977 1.845185995
8.139050484 -2.75966692 1.974167228
7.071270466 -2.400372982 1.989335179
8.938426971 -3.048112154 -2.518878937
9.015327454 -3.07609272 -2.18922019
9.080775261 -3.101962805 -1.857015967
9.090402603 -3.108795404 -1.51496315
9.044020653 -3.09469676 -1.168539882
9.145635605 -3.133034468 -0.8420734406
9.144023895 -3.136049271 -0.5044151545
9.163990974 -3.144684315 -0.1684139222
9.135941505 -3.11546731 0.1677856445
9.123822212 -3.11488986 0.5030543804
9.151591301 -3.127937317 0.8424220085
9.091518402 -3.109176874 1.174633384
9.070628166 -3.105570078 1.511834383
9.071949959 -3.109560728 1.855871201
8.110447884 -2.783154011 1.96966815
7.061021805 -2.424414396 1.988817692
8.978868484 -3.096931696 -2.533372879
9.055569649 -3.126924515 -2.201817751
9.110715866 -3.147746563 -1.865411758
9.135500908 -3.159879923 -1.524349093
9.075760841 -3.142764091 -1.174145937
9.177387238 -3.18154335 -0.8460825682
9.191516876 -3.188238859 -0.5076599717
9.193961143 -3.192682505 -0.1691818237
9.169829369 -3.164587975 0.168623358
9.163313866 -3.165919065 0.5058805346
9.183926582 -3.174835443 0.8464311957
9.126958847 -3.158708811 1.180726886
9.085315704 -3.147848368 1.51621449
9.105560303 -3.156642675 1.865030169
8.100683212 -2.811448097 1.96966815
7.042963982 -2.447107792 1.986229539
8.996640205 -3.140005827 -2.541655064
9.090594292 -3.174577713 -2.213065147
9.147301674 -3.197963715 -1.875333786
9.159282684 -3.20574069 -1.530293584
9.122815132 -3.194763899 -1.181701779
9.203830719 -3.226742744 -0.8495688438
9.230653763 -3.239765167 -0.5104861259
9.23370266 -3.242645502 -0.1701242626
9.20781517 -3.213709831 0.1695308834
9.203113556 -3.215673447 0.5087066889
9.204199791 -3.219658375 0.8493945003
9.166465759 -3.208254576 1.187307715
9.12087822 -3.195873737 1.524036288
9.149505615 -3.209490538 1.876478553
8.09400177 -2.84241128 1.970567822
7.023443699 -2.467834711 1.98312366
8.989821434 -3.171107769 -2.542690277
9.125395775 -3.222512484 -2.224312782
9.179222107 -3.243322849 -1.884110928
9.189572334 -3.250588655 -1.537176728
9.167743683 -3.246468306 -1.189013958
9.249418259 -3.277207851 -0.8547981381
9.266918182 -3.287049294 -0.5131029487
9.273780823 -3.291306019 -0.1710666865
9.238025665 -3.260473251 0.170298785
9.248898506 -3.266125917 0.5118468404
9.246069908 -3.268757343 0.8542752266
9.207608223 -3.258776665 1.194132447
9.173541069 -3.248521328 1.53467381
9.170269966 -3.250965834 1.882966161
8.08453083 -2.869236231 1.970567822
7.020682812 -2.493051052 1.9846766
9.011449814 -3.214150667 -2.552007914
9.151367188 -3.265855789 -2.233310699
9.225157738 -3.295820713 -1.895941138
9.228966713 -3.298997641 -1.545624256
9.198046684 -3.291566372 -1.194376111
9.30169487 -3.33232069 -0.8607247472
9.320583344 -3.344594717 -0.1721487343
9.279899597 -3.309899807 0.1712761223
9.280702591 -3.313838482 0.514254272
9.298391342 -3.323814631 0.8602018356
9.232265472 -3.301994085 1.19876349
9.212359428 -3.298501968 1.543121219
9.209340096 -3.299234629 1.893269777
8.063965797 -2.892082214 1.967868447
7.010118961 -2.516890049 1.984158874
8.98620224 -3.23877573 -2.547866821
9.123413086 -3.291827917 -2.229261637
9.265882492 -3.34506011 -1.906626463
9.269412041 -3.34999156 -1.554384589
9.223834991 -3.337160587 -1.199251056
9.279353142 -3.359079123 -0.8596788645
9.283761978 -3.364340782 -0.5153010488
9.29252243 -3.369350195 -0.171834603
9.302150726 -3.354483128 0.1719044
9.282814026 -3.349341631 0.5149870515
9.304183006 -3.360722303 0.8617706299
9.252417564 -3.345675945 1.202907085
9.231091499 -3.339786053 1.548127174
9.253145218 -3.351418495 1.90471828
8.04649353 -2.917556286 1.966068983
7.003550529 -2.540781021 1.9846766
8.980287552 -3.27210784 -2.549419641
9.039212227 -3.295365095 -2.211265564
9.291035652 -3.39084506 -1.914258718
9.315773964 -3.401716471 -1.564083576
9.259327888 -3.384768248 -1.205344439
9.299379349 -3.403089523 -0.862642169
9.304437637 -3.406781912 -0.5170804858
9.293847084 -3.406583548 -0.1720789373
9.29661274 -3.387365818 0.1720091254
9.28044796 -3.385145903 0.5155103207
9.283037186 -3.389762402 0.8608990312
9.23381424 -3.373615026 1.201932073
9.215665817 -3.37063098 1.547501326
9.300978661 -3.403674841 1.916930079
8.036774635 -2.944223166 1.966068983
6.985569954 -2.561886787 1.982088327
8.958510399 -3.297865152 -2.546313763
9.003883362 -3.318137407 -2.205416918
9.325790405 -3.438616753 -1.923799276
9.344612122 -3.449262619 -1.570966601
9.316351891 -3.442526817 -1.214362741
9.324816704 -3.449354172 -0.8661283851
9.341190338 -3.457264662 -0.5198019147
9.371905327 -3.472352743 -0.1737543643
9.320384026 -3.432927847 0.1726723015
9.328540802 -3.439630985 0.5188598633
9.316607475 -3.437077761 0.8650825024
9.268536568 -3.423019648 1.208025575
9.298336983 -3.4377141 1.563457727
9.327707291 -3.450423717 1.924944043
8.028276443 -2.972935677 1.96651876
6.976584911 -2.58625555 1.982088327
8.928257942 -3.323937416 -2.541137457
8.963027 -3.338663101 -2.198218346
9.37750721 -3.496782064 -1.937155843
9.378172874 -3.500759602 -1.5787884
9.425154686 -3.520171404 -1.230205774
9.335114479 -3.49025631 -0.8682201505
9.416371346 -3.524383783 -0.5247215033
9.460852623 -3.542915106 -0.1756392121
9.405794144 -3.501720905 0.1744873524
9.419411659 -3.510535002 0.5246168375
9.427149773 -3.517167091 0.8765870929
9.390433311 -3.505336046 1.225574732
9.358446121 -3.497117996 1.575659633
9.360969543 -3.501785278 1.934484482
8.020975113 -3.003707409 1.967418551
6.965705872 -2.60991478 1.981570721
8.918409348 -3.355763197 -2.541655064
8.939787865 -3.367370129 -2.19551897
9.420358658 -3.550265074 -1.948604465
9.426887512 -3.556484222 -1.589113116
9.458615303 -3.572226286 -1.236299276
9.32101059 -3.522116184 -0.8680458665
9.347968102 -3.5360322 -0.5215813518
9.519495964 -3.602815151 -0.1769656092
9.471498489 -3.565762997 0.1759533733
9.47251606 -3.568034172 0.5282803178
9.487522125 -3.577468634 0.883385241
9.422094345 -3.556555033 1.23142457
9.403469086 -3.551399231 1.58535862
9.403780937 -3.555268049 1.945933104
8.006796837 -3.030308485 1.96651876
6.965586185 -2.637634039 1.984158874
8.9301157 -3.395800114 -2.548384428
8.946785927 -3.403926849 -2.200017929
9.38772583 -3.575440407 -1.944406629
9.413196564 -3.587021828 -1.588800192
9.433734894 -3.598619938 -1.234593153
9.453732491 -3.611919641 -0.528175652
9.484449387 -3.627450228 -0.1765467376
9.500742912 -3.612788916 0.1767212749
9.493602753 -3.613867521 0.5301644802
9.482423782 -3.61340189 0.8840824962
9.447346687 -3.601923704 1.236299276
9.429772377 -3.598993778 1.59192884
9.402943611 -3.5906353 1.948222876
7.982141972 -3.051276684 1.962919593
6.956336498 -2.661932707 1.984158874
8.9404459 -3.433706284 -2.554595947
8.963952065 -3.446325064 -2.207216263
9.342835426 -3.593863964 -1.937537432
9.387713432 -3.614889145 -1.58660996
9.397035599 -3.622246027 -1.23142457
9.426944733 -3.635665178 -0.8802475929
9.437339783 -3.643458366 -0.5279663205
9.440020561 -3.648280859 -0.1759533733
9.476873398 -3.641627312 0.176511839
9.456697464 -3.637662649 0.5288037062
9.455512047 -3.639101505 0.8826879859
9.405076981 -3.62346077 1.232399464
9.365546227 -3.611985683 1.583168507
9.37936306 -3.619194984 1.945933104
7.975077629 -3.080524683 1.963819385
6.948804379 -2.68689537 1.9846766
8.928405762 -3.464893341 -2.554595947
9.008179665 -3.499469995 -2.221163273
9.315594673 -3.620764971 -1.934484482
9.35110569 -3.638325453 -1.582542896
9.376935005 -3.652144194 -1.230449557
9.386350632 -3.657697678 -0.8776329756
9.405956268 -3.669120312 -0.5269196033
9.410464287 -3.674664021 -0.1756392121
9.436141968 -3.663828135 0.1759882718
9.42532444 -3.663414717 0.527756989
9.405613899 -3.657642841 0.8792017102
9.379422188 -3.651227474 1.230693221
9.336315155 -3.638199568 1.580352664
9.346551895 -3.644068003 1.941735268
7.971538067 -3.111178875 1.965619087
6.919589043 -2.703401804 1.978982449
8.873091698 -3.47911334 -2.54217267
9.032189369 -3.545133114 -2.230161428
9.284625053 -3.64608407 -1.930668473
9.303419113 -3.657212973 -1.576598287
9.338269234 -3.674676895 -1.227037191
9.351279259 -3.681681633 -0.8755412102
9.372652054 -3.693875551 -0.5257682204
9.38083744 -3.700885296 -0.1753250808
9.386064529 -3.682138681 0.1752901822
9.397607803 -3.690452337 0.5269196033
9.377954483 -3.684623718 0.8778072596
9.344451904 -3.675226688 1.227768421
9.207761765 -3.62517786 1.560642004
9.299068451 -3.663000345 1.934484482
7.964254856 -3.140415192 1.96651876
6.92448616 -2.733213425 1.98312366
8.805215836 -3.488008976 -2.526125908
9.088598251 -3.603936195 -2.24725771
9.268190384 -3.677022934 -1.929905057
9.281416893 -3.686020374 -1.575033903
9.318005562 -3.704317808 -1.226062179
9.323559761 -3.708409786 -0.8741467595
9.333723068 -3.716226339 -0.5243027806
9.362289429 -3.7313869 -0.1752203703
9.354563713 -3.707511425 0.1749411225
9.362390518 -3.714395285 0.5256635547
9.342812538 -3.708515882 0.8757154942
9.300205231 -3.695361376 1.223624825
9.160176277 -3.643424749 1.554697394
9.271632195 -3.689630508 1.931431651
7.949623585 -3.166754246 1.965619087
6.922080994 -2.760230064 1.985194206
8.900601387 -3.561788559 -2.557184219
9.235154152 -3.699408293 -2.286849022
9.291747093 -3.7239604 -1.937537432
9.306993484 -3.733841658 -1.581604123
9.328966141 -3.746437788 -1.229230762
9.366021156 -3.763217449 -0.8793761134
9.357753754 -3.763690472 -0.526396215
9.375177383 -3.774500847 -0.175709039
9.34527874 -3.741629124 0.1750109494
9.327120781 -3.738137484 0.5244074464
9.322414398 -3.738140106 0.8750182986
9.272511482 -3.72188735 1.221675038
9.123574257 -3.665803671 1.550630093
9.244124413 -3.716114283 1.928378701
7.920442581 -3.187209606 1.96111989
6.90344429 -2.780766487 1.982605934
8.974084854 -3.627587557 -2.582030773
9.261926651 -3.747703314 -2.296746969
9.295069695 -3.763002396 -1.94097209
9.332348824 -3.781886578 -1.588174343
9.334227562 -3.786441803 -1.231668234
9.380518913 -3.80712676 -0.8819907904
9.377865791 -3.809863329 -0.5282803178
9.391583443 -3.81925559 -0.1762675047
9.406312943 -3.804217339 0.1764071286
9.378811836 -3.796904564 0.5280710459
9.287148476 -3.761682272 0.8729265332
9.244745255 -3.748264313 1.219725013
9.088758469 -3.688714266 1.546875715
9.127412796 -3.706258059 1.906626463
7.912879944 -3.216305256 1.96201992
6.884748459 -2.801207066 1.980017781
8.988194466 -3.669844389 -2.589795351
9.24157238 -3.777061701 -2.294947386
9.281877518 -3.795425177 -1.94097209
9.313606262 -3.812194586 -1.587235808
9.348505974 -3.830290079 -1.235324264
9.354268074 -3.834557772 -0.8807705641
9.392226219 -3.853947878 -0.5298504233
9.376344681 -3.851255655 -0.1762326062
9.392976761 -3.837028027 0.1764071286
9.374743462 -3.833398581 0.5285943151
9.251832962 -3.785024643 0.8708348274
9.222420692 -3.776750565 1.218506336
9.057549477 -3.712924957 1.543747067
9.181627274 -3.765659571 1.920746326
7.912420273 -3.248347044 1.964719057
6.862420559 -2.820082188 1.976394415
8.993190765 -3.708561659 -2.594971895
9.249947548 -3.818220615 -2.300346136
9.293976784 -3.838293552 -1.946314692
9.309370995 -3.848455667 -1.588800192
9.360759735 -3.87352562 -1.238736629
9.370280266 -3.87938118 -0.883559525
9.38794136 -3.890532494 -0.5303737521
9.405326843 -3.901584625 -0.1770354062
9.379526138 -3.869792223 0.1764071286
9.398225784 -3.881346941 0.5306877494
9.216467857 -3.808166265 0.868743062
9.192671776 -3.802091122 1.216312647
9.039057732 -3.742251873 1.542808414
9.141219139 -3.786417246 1.915021896
7.908234596 -3.278932095 1.96651876
6.854319096 -2.844759464 1.976912022
8.964138985 -3.733246326 -2.590312958
9.259945869 -3.860233068 -2.306195021
9.311325073 -3.883559465 -1.952802062
9.332338333 -3.896148682 -1.595057607
9.369159698 -3.915362358 -1.241661549
9.384254456 -3.923594236 -0.886174202
9.398255348 -3.933303118 -0.5317345262
9.423005104 -3.947526455 -0.1776288003
9.406569481 -3.919429779 0.1771750301
9.379089355 -3.911822796 0.5303737521
9.188408852 -3.834176779 0.8673486114
9.126224518 -3.811969042 1.209244251
9.093372345 -3.80197525 1.554384589
9.122513771 -3.816029787 1.91387713
7.896740437 -3.306517124 1.96651876
6.849692345 -2.870908737 1.978464842
8.936805725 -3.758522749 -2.586171865
9.239230156 -3.889508486 -2.304395199
9.276000977 -3.906894445 -1.948222876
9.305939674 -3.923328638 -1.592867494
9.329831123 -3.93723774 -1.238249183
9.355817795 -3.95012784 -0.8847796917
9.366071701 -3.958309889 -0.5306877494
9.377859116 -3.967150688 -0.1770354062
9.394674301 -3.953016758 0.1772099286
9.334086418 -3.931359053 0.5285943151
9.160281181 -3.860037565 0.8659541011
9.11103344 -3.843030453 1.209000587
9.101883888 -3.842914104 1.558139086
9.087434769 -3.83868289 1.909297705
7.886945248 -3.334820747 1.966968656
6.836071014 -2.893294811 1.977429628
8.959195137 -3.804798365 -2.596524715
9.205870628 -3.913349867 -2.299446583
9.233400345 -3.926955462 -1.942116857
9.279464722 -3.950372219 -1.590677261
9.29480648 -3.958820105 -1.235324264
9.318144798 -3.972603798 -0.8825136423
9.331990242 -3.982356071 -0.5295364261
9.342583656 -3.988804579 -0.1766165644
9.369775772 -3.981094122 0.1770005077
9.297103882 -3.952132702 0.5272336006
9.128417015 -3.884187937 0.8642109632
9.082951546 -3.868587494 1.207050562
9.0382061 -3.851393223 1.549378633
9.063144684 -3.865758896 1.907008052
7.872258186 -3.359426498 1.966068983
6.815779686 -2.911395073 1.974323869
6.107291222 -2.61758852 -1.768821478
6.166241646 -2.64540267 -1.539111733
9.262684822 -3.979563236 -1.590051651
9.283452034 -3.990405321 -1.235568047
9.28112793 -3.993244886 -0.8802475929
9.307266235 -4.010268211 -0.1761977077
9.330792427 -4.001110554 0.176511839
9.27293396 -3.978216648 0.5266055465
9.086194992 -3.901859283 0.8614220023
9.053658485 -3.891631126 1.204856992
9.014496803 -3.876661062 1.547501326
9.025030136 -3.88492465 1.90166533
7.923717976 -3.412491798 1.981815457
6.798991203 -2.930922031 1.972253203
6.153858185 -2.664287806 -1.538211942
9.200502396 -3.98904109 -1.581604123
6.217468262 -2.698272228 -0.8270620108
6.212160587 -2.69725728 -0.588798821
6.229872227 -2.707532644 -0.3537922204
9.291780472 -4.02091217 0.1760231704
9.246161461 -4.005003929 0.5258728862
9.054924965 -3.924046516 0.8596788645
9.018850327 -3.912153006 1.201932073
8.984602928 -3.901023626 1.544685602
8.985087395 -3.903098345 1.895941138
6.785176754 -2.953095198 1.97121799
8.991038322 -3.926219463 -2.617230177
5.944531918 -2.59833765 -1.48782289
9.170235634 -4.014003754 -1.5787884
9.200820923 -4.031219482 -1.228255868
9.231834412 -4.046728134 -0.8781558871
9.241818428 -4.054950714 -0.5267102718
9.240594864 -4.058260918 -0.1754647046
6.251162052 -2.733664274 0.3553622961
9.030220985 -3.950838327 0.8586329818
8.974227905 -3.930073738 1.197788596
8.956457138 -3.926017761 1.542182684
8.955225945 -3.927341461 1.89250648
6.773057938 -2.975984812 1.970700264
9.165202141 -4.049981117 -1.580352664
9.168539047 -4.055281162 -1.225818515
9.188502312 -4.066028595 -0.8753669262
9.196562767 -4.073435307 -0.5249308348
9.213575363 -4.084818363 -0.1752203703
9.234208107 -4.072771072 0.1754647046
9.157681465 -4.04283762 0.5224186778
9.005440712 -3.977506399 0.8575871587
8.949561119 -3.956559658 1.196326137
8.930053711 -3.951661825 1.539992571
8.92530632 -3.95142436 1.889071941
6.767926216 -3.001959085 1.972253203
6.249071598 -2.784879684 -1.32160604
9.122144699 -4.069073677 -1.575346828
9.141637802 -4.081595421 -1.224112272
9.165156364 -4.094014645 -0.8744953275
9.174994469 -4.10225153 -0.5245121121
9.175533295 -4.106336117 -0.174766615
9.212627411 -4.101726055 0.1753250808
9.183649063 -4.092665195 0.5247215033
8.969664574 -3.999180317 0.8554954529
8.928444862 -3.98453927 1.195351124
8.890954018 -3.971530437 1.535612464
8.906082153 -3.980152845 1.887927175
7.98914814 -3.573718786 2.01060915
6.752117157 -3.023196697 1.970700264
5.904315472 -2.652266026 -1.722751737
6.279575348 -2.823470116 -1.579602957
9.091675758 -4.093592644 -1.572530985
9.116477013 -4.108587265 -1.222649813
9.118117332 -4.111241341 -0.8713577986
9.14969635 -4.129323959 -0.5238841176
9.152752876 -4.132626057 -0.1745920777
9.178190231 -4.124842167 0.1749411225
9.16638279 -4.121458054 0.5245121121
8.933847427 -4.020653725 0.8534036875
8.9018116 -4.009973526 1.193645
8.854323387 -3.990440845 1.531545162
8.874238014 -4.003143311 1.884110928
7.951760292 -3.590357304 2.004310608
6.724449158 -3.037617922 1.965523839
5.89150238 -2.67126441 -1.721716404
8.983672142 -4.075174809 -2.2675035
9.025315285 -4.097864151 -1.918456674
9.049273491 -4.110647202 -1.567525029
9.088345528 -4.132223129 -1.220700026
9.092830658 -4.138092995 -0.8703119159
9.119594574 -4.1521945 -0.5229420662
9.125533104 -4.158744812 -0.1743477434
9.135321617 -4.142043591 0.1743826568
9.142848015 -4.149303436 0.5239887834
8.90161705 -4.043574333 0.8516605496
8.85774231 -4.025508404 1.189501405
8.834944725 -4.018869877 1.530606508
8.835898399 -4.021164894 1.878768325
7.943356514 -3.618321896 2.0052104
6.719077587 -3.063476562 1.967076778
5.910720825 -2.703643799 -1.729998589
8.960534096 -4.102452755 -2.265253782
9.018709183 -4.134800434 -1.564709306
9.048606873 -4.152331352 -1.21728766
9.066383362 -4.16240406 -0.8690917492
9.072376251 -4.168991089 -0.5210579634
9.083709717 -4.178039551 -0.1738241613
9.10262394 -4.165585041 0.1740335971
9.110149384 -4.172874928 0.5229420662
8.873670578 -4.066430569 0.8502660394
8.821985245 -4.046472549 1.186576605
8.81368351 -4.046389103 1.529355049
8.811103821 -4.047066689 1.876478553
6.706588745 -3.086104155 1.966559172
5.897738934 -2.722640038 -1.728963256
8.93731308 -4.129618168 -2.263004303
8.989879608 -4.159620762 -1.562206388
9.012442589 -4.173881054 -1.214362741
9.031912804 -4.184812546 -0.8671742678
9.041461945 -4.193071365 -0.520115912
9.061814308 -4.206354141 -0.1736845523
9.075320244 -4.191464424 0.1737892628
9.062893867 -4.189564705 0.5210579634
8.852189064 -4.094035625 0.8495688438
8.795196533 -4.071404934 1.184870481
8.774412155 -4.06550312 1.524974942
8.788016319 -4.073669434 1.874570489
7.753503323 -3.597411633 1.963369489
6.699279308 -3.111123562 1.967594504
5.888199329 -2.743210316 -1.728963256
8.882222176 -4.141848564 -2.252656698
6.288980484 -2.933936119 -1.340686917
8.964565277 -4.185961246 -1.56032908
8.983430862 -4.198590755 -1.212412834
9.002811432 -4.209563255 -0.8657798171
9.010490417 -4.21698761 -0.5191739202
9.027157784 -4.228629589 -0.1733005941
9.051571846 -4.218894005 0.1736147553
9.031925201 -4.213575363 0.520115912
8.812566757 -4.113112926 0.8471283913
8.761147499 -4.092838764 1.182189226
8.735115051 -4.084393024 1.520594597
8.761295319 -4.098497391 1.871899128
7.767371655 -3.636849642 1.970117927
6.690128326 -3.135308743 1.968112111
5.875091553 -2.762103558 -1.727928042
8.873000145 -4.175316334 -2.254006147
8.932029724 -4.208807468 -1.557200313
8.957947731 -4.224842548 -1.210950494
8.975448608 -4.235011578 -0.8645596504
8.97946167 -4.240737438 -0.5182318091
8.988839149 -4.249004841 -0.1728468388
9.013266563 -4.239399433 0.1731609851
9.00632 -4.239972591 0.5194879174
8.776527405 -4.133662224 0.8450367451
8.746807098 -4.12339592 1.182189226
8.704726219 -4.107272625 1.517778873
8.722080231 -4.117322445 1.866556525
6.665172577 -3.152035952 1.963971138
5.85843277 -2.779282808 -1.725857496
7.731737137 -3.671298742 -1.966068983
7.782669067 -3.700478077 -1.35821569
8.932391167 -4.250967503 -1.209488034
8.940823555 -4.256894588 -0.862642169
8.950180054 -4.265182495 -0.5173944831
8.957708359 -4.27260828 -0.1725326926
8.969508171 -4.257117271 0.1726025045
8.97883606 -4.265385151 0.5187551975
8.751246452 -4.159142017 0.8439908624
8.719813347 -4.14793396 1.180483103
8.68320179 -4.134235859 1.516527295
8.673977852 -4.131701469 1.859305739
7.731237888 -3.685955048 1.967418551
6.657615662 -3.176946163 1.965006351
5.827785492 -2.789705992 -1.719645858
7.717117786 -3.69742322 -1.965619087
8.945346832 -4.287811756 -1.919983029
7.78395319 -3.73445797 -1.360718727
8.894234657 -4.270950794 -1.206319451
8.909747124 -4.280313015 -0.8610734344
8.904637337 -4.281684875 -0.5156149864
8.937334061 -4.30124855 -0.1724279672
8.941968918 -4.282354832 0.1723581702
8.945881844 -4.288068295 0.5177084208
8.722303391 -4.182771206 0.8425962925
8.66769886 -4.160307884 1.175364614
8.656253815 -4.158533096 1.514337301
8.64180851 -4.153450489 1.855489612
7.706031799 -3.707005978 1.96426928
6.643004894 -3.198490143 1.963971138
8.777911186 -4.243407726 -2.240959167
8.81367588 -4.262595177 -1.894796252
8.839459419 -4.278872967 -1.548752904
8.857834816 -4.291584492 -1.203394532
8.889372826 -4.30878067 -0.8605504036
8.907607079 -4.32145977 -0.5166617632
8.933058739 -4.337659836 -0.172637403
8.926966667 -4.313541889 0.1723581702
8.905687332 -4.307095051 0.5162430406
8.696889877 -4.207986355 0.841550529
8.638830185 -4.183616638 1.173414588
8.62390995 -4.18010807 1.511208653
8.623723984 -4.181876659 1.854726315
7.6685009 -3.721970081 1.957970619
6.642224789 -3.226723909 1.967076778
8.75253582 -4.268897057 -2.238259792
8.774041176 -4.281281948 -1.88945353
8.817368507 -4.30623436 -1.547501326
8.824965477 -4.313760757 -1.200957179
8.852800369 -4.329280853 -0.8584586978
11.79141045 -5.771449566 -0.6858115792
8.869059563 -4.327645779 0.5149870515
8.667823792 -4.231325626 0.8401559591
8.625958443 -4.214617729 1.17365849
8.586196899 -4.198904037 1.507141352
8.598492622 -4.206777096 1.852436543
7.660713196 -3.751286983 1.959320426
6.629186153 -3.24903965 1.966559172
8.634532928 -4.244974136 -2.566501617
8.725341797 -4.293400288 -2.235110521
8.750236511 -4.307547092 -1.887545466
8.781021118 -4.326510429 -1.543747067
8.810832024 -4.346933365 -0.8558440208
8.816332817 -4.35347414 -0.5131029487
8.812924385 -4.355618 -0.170892179
12.75279427 -6.272387981 0.2473686188
8.850315094 -4.356813431 0.5147776604
8.627977371 -4.249232292 0.8377156258
8.595169067 -4.236803055 1.171464682
8.5626297 -4.224479675 1.505576968
8.562631607 -4.226338863 1.847857356
7.651066303 -3.779730797 1.960220218
6.60568285 -3.266166449 1.962935805
8.630046844 -4.280238152 -2.569607496
8.684119225 -4.310834408 -2.228361845
8.722838402 -4.331952095 -1.884874105
8.73756218 -4.343067169 -1.538741112
8.741315842 -4.34873867 -1.193645
8.786686897 -4.373223782 -0.8549724221
8.801082611 -4.384222507 -0.5131029487
8.803034782 -4.38903141 -0.1709968746
8.804279327 -4.368567467 0.1708572656
8.820742607 -4.38057375 0.5139402747
8.598817825 -4.272232056 0.8363211155
8.553665161 -4.253521442 1.167808652
8.533684731 -4.247302055 1.50307405
8.528493881 -4.246575832 1.843659401
7.637825966 -3.806414843 1.960220218
6.594241619 -3.289204836 1.962935805
8.621964455 -4.313794613 -2.571678162
8.648108482 -4.330649853 -2.222963095
8.69011116 -4.353580475 -1.881057978
8.711752892 -4.368227959 -1.536863804
8.708342552 -4.370321751 -1.191207647
8.753561974 -4.394928932 -0.8532294035
8.764308929 -4.404155731 -0.5118468404
8.780514717 -4.416138649 -0.1708572656
8.788977623 -4.399273396 0.1708572656
8.787540436 -4.40239048 0.5128935575
8.576727867 -4.298650265 0.8356238604
8.506827354 -4.267332077 1.163421392
8.511744499 -4.273518562 1.501822472
8.506601334 -4.2727952 1.842132926
7.617527485 -3.82955122 1.958420515
6.593074322 -3.317412615 1.966041565
8.52752018 -4.303824902 -2.547866821
8.584235191 -4.33620882 -2.210365772
8.503144264 -4.297110081 -1.843659401
8.524780273 -4.315517426 -1.168052435
8.693732262 -4.402953148 -0.8488715887
8.709691048 -4.414855957 -0.5095440745
8.720462799 -4.424143314 -0.1699846536
8.753931999 -4.42001152 0.1704733074
8.747163773 -4.420426846 0.5114281178
8.551001549 -4.323168755 0.8345779777
8.479480743 -4.290726662 1.16171515
8.475628853 -4.292494297 1.498068094
8.481126785 -4.297138691 1.839843154
7.590209484 -3.849067211 1.954821348
6.59006691 -3.344778061 1.968629718
8.342007637 -4.246797562 -2.496620655
8.384995461 -4.272368431 -2.162676096
8.425124168 -4.294667721 -1.829921246
7.595370293 -3.875045061 -1.343823671
8.492010117 -4.338102818 -0.83056885
8.502170563 -4.347035885 -0.4982394278
8.501008034 -4.348313332 -0.1659705788
8.57807827 -4.368863583 0.1673318744
8.568736076 -4.365989208 0.5017983317
8.514561653 -4.34212923 0.8324863315
8.475060463 -4.325714111 1.163177609
8.438475609 -4.308897972 1.494000793
8.455586433 -4.321356773 1.83755362
7.57672739 -3.875538826 1.954821348
6.575500011 -3.364853144 1.967594504
8.296198845 -4.260006905 -2.487303019
8.363847733 -4.296588421 -2.160876513
8.387384415 -4.312380314 -1.824960232
7.559641838 -3.888464451 -1.33975637
8.447554588 -4.348911285 -1.161471486
8.452019691 -4.354942799 -0.8281285167
8.47705555 -4.369715214 -0.4976114333
8.462675095 -4.36604166 -0.1655168235
8.503061295 -4.36622858 0.1661451161
8.494823456 -4.365746021 0.4983440936
8.474546432 -4.359065533 0.8300458789
8.435957909 -4.341078281 1.159765363
8.409335136 -4.331091881 1.491497874
8.422012329 -4.339481831 1.833355784
7.567297935 -3.902429104 1.955721021
6.555130959 -3.383355379 1.965006351
8.278594971 -4.285718441 -2.486267805
8.336687088 -4.319482327 -2.157727242
8.366065979 -4.336556435 -1.823433757
7.526735306 -3.904822588 -1.336314917
8.426310539 -4.380853176 -0.4955179691
8.424322128 -4.383555889 -0.1650630534
8.457582474 -4.380249023 0.165551722
8.467120171 -4.38893795 0.4976114333
8.445895195 -4.379806519 0.8286514282
8.420753479 -4.370499134 1.159765363
8.387153625 -4.356777191 1.490246415
8.382424355 -4.356178284 1.828013182
7.550172329 -3.927021742 1.954821348
6.550134659 -3.409784317 1.967076778
8.235433578 -4.301720619 -2.477985382
8.299105644 -4.336823463 -2.151878595
8.334458351 -4.35900116 -1.819999218
7.503621578 -3.927802324 -1.334750533
7.9456954 -4.160974979 -1.096149445
7.952001572 -4.167814732 -0.7817616463
8.388972282 -4.400574207 -0.4942619205
8.40011692 -4.408289909 -0.1648885459
8.4351511 -4.406041622 0.1654121131
8.434048653 -4.40921402 0.4965647161
8.419194221 -4.405190945 0.8276055455
8.372030258 -4.382374287 1.15513432
8.356145859 -4.377776623 1.487430573
8.355969429 -4.381402493 1.82572341
7.532277584 -3.952857256 1.953921556
6.5467453 -3.437118292 1.969665051
8.145163536 -4.290824413 -2.455209494
8.232366562 -4.342270851 -1.800918221
7.477637291 -3.947515965 -1.33256042
7.912840366 -4.180796146 -1.093712091
7.926836014 -4.18996048 -0.7807157636
8.36120224 -4.42329216 -0.4935292006
8.374073029 -4.431972504 -0.164679125
8.408331871 -4.431334972 0.1652026922
8.386804581 -4.421860218 0.4946806133
8.389668465 -4.427113533 0.8262110353
8.336603165 -4.402832508 1.152453065
8.319854736 -4.39584446 1.483676076
8.32326889 -4.401365757 1.821907163
7.511543751 -3.975479364 1.952121854
6.544951439 -3.465373278 1.972770929
8.154021263 -4.33191967 -2.462456465
8.242814064 -4.380936623 -2.145129919
8.263957977 -4.3958745 -1.811221957
7.464505672 -3.972290993 -1.33256042
7.890172005 -4.202347279 -1.092493415
7.901613712 -4.21198225 -0.7796699405
8.335913658 -4.445355892 -0.4929011762
8.33914566 -4.450818539 -0.1642951667
8.382994652 -4.453564167 0.1649932563
8.364263535 -4.447358131 0.4942619205
8.363611221 -4.45075655 0.8251652122
8.323709488 -4.431386471 1.152696848
8.288770676 -4.416499615 1.480860353
8.305163383 -4.42709589 1.821143985
7.494880199 -3.998532057 1.951222181
6.529406548 -3.486378431 1.971735597
8.153234482 -4.366231441 -2.466597557
8.232625008 -4.412445068 -2.146479607
7.429707527 -3.987113714 -1.328806043
7.864961624 -4.224227428 -1.091030955
7.877072334 -4.232503891 -0.7786240578
8.30803299 -4.467805386 -0.4921684861
8.311233521 -4.473267078 -0.1640508324
8.35682106 -4.477133274 0.1647838205
8.341649055 -4.472753048 0.4938432574
8.327737808 -4.467164993 0.8230734468
8.292448997 -4.451963902 1.150503159
8.26112175 -4.43886137 1.478670239
8.27236557 -4.446763515 1.817327738
7.484309673 -4.026515961 1.952121854
6.513795376 -3.507317305 1.970700264
8.127744675 -4.389157295 -2.463491678
8.196600914 -4.430036545 -2.141080856
5.70728159 -3.085915565 -1.252914786
7.396634102 -4.002682209 -1.325364351
8.294143677 -4.497731209 -0.4922731817
8.306113243 -4.507974625 -0.1642602533
8.309473991 -4.48916769 0.1641555279
8.315443993 -4.496143818 0.4932152331
8.298073769 -4.488623619 0.8216789365
8.264638901 -4.474267483 1.148797035
8.236893654 -4.462965488 1.477105856
8.232629776 -4.462513924 1.811985135
7.466783047 -4.050758362 1.951222181
6.511698723 -3.535564184 1.973806143
8.102194786 -4.411958218 -2.460385799
8.145152092 -4.439037323 -2.131632805
5.696475029 -3.105818748 -1.252914786
7.370479107 -4.021853447 -1.323174357
8.223793983 -4.491208553 -1.145384669
8.24860096 -4.510365009 -0.4904937446
8.269275665 -4.525420189 -0.1638413966
8.28321743 -4.512405872 0.163946107
8.28567028 -4.517493725 0.4923778474
8.278856277 -4.51565361 0.8213303685
8.219348907 -4.486918926 1.14465344
8.216064453 -4.488849163 1.476167321
8.210112572 -4.487458229 1.810458779
7.452597618 -4.076797962 1.951222181
6.487456799 -3.551778316 1.970182657
8.076584816 -4.434634686 -2.457279921
8.119360924 -4.461811066 -2.12893343
5.658072472 -3.110551357 -1.246808887
7.349472523 -4.043748379 -1.321922898
8.162855148 -4.494991302 -1.139047503
8.195300102 -4.51472187 -0.8148807883
8.217065811 -4.530451775 -0.489551723
8.237670898 -4.545563221 -0.1635272652
8.25164032 -4.532627583 0.1636319607
8.227846146 -4.523296356 0.4898657203
8.252568245 -4.538764 0.8202844858
8.193203926 -4.509839535 1.143191099
8.183042526 -4.507969379 1.473038554
8.184082031 -4.510403633 1.808169007
7.424670696 -4.095257759 1.947623014
6.480093002 -3.577203274 1.971735597
8.050914764 -4.457185268 -2.454174042
8.096918106 -4.486347675 -2.127133846
5.635159969 -3.123620033 -1.244137526
7.330129623 -4.066502571 -1.320984244
8.154057503 -4.527312279 -1.140022516
8.16904068 -4.537497044 -0.8138349056
8.194219589 -4.555225372 -0.4891330004
8.2042799 -4.56456852 -0.1631782055
8.223524094 -4.554622173 0.1633876264
8.206766129 -4.549084187 0.489551723
8.222736359 -4.559813499 0.8188900352
8.17046833 -4.534558296 1.142216086
8.148262024 -4.525955677 1.469597101
8.157990456 -4.533222675 1.805879235
7.417142391 -4.124937534 1.949422479
6.462502956 -3.596982479 1.970182657
8.026874542 -4.480554104 -2.451586246
8.084611893 -4.516484737 -2.128033638
5.627650261 -3.14518714 -1.244900823
7.303822041 -4.085314751 -1.318794131
8.133008003 -4.552838326 -1.139291286
8.059281349 -4.513414383 -0.8044221401
8.166072845 -4.576965332 -0.4884003103
8.174344063 -4.585351944 -0.1628989726
8.190115929 -4.573549747 0.1630385816
8.176888466 -4.569908142 0.4887143075
8.185900688 -4.57682085 0.8167982697
8.14419651 -4.557235241 1.140753627
8.122073174 -4.548579693 1.467719913
8.131839752 -4.555913925 1.803589582
7.409497738 -4.154615879 1.951222181
6.433060646 -3.610064745 1.965006351
5.502691269 -3.09681201 -1.680305362
5.623478413 -3.168667316 -1.246427298
7.26542902 -4.097201347 -1.314414024
8.108422279 -4.576321602 -1.138072491
7.989693165 -4.511151314 -0.7990184426
8.134397507 -4.596599579 -0.4874582887
8.147844315 -4.607951641 -0.1626895368
8.153191566 -4.590338707 0.1626197398
8.155666351 -4.595481873 0.4884003103
8.155990601 -4.597539902 0.8154037595
8.114407539 -4.577832699 1.13880384
8.09754467 -4.572046757 1.466155529
8.095374107 -4.572684288 1.799010158
7.38816452 -4.176618099 1.949422479
6.423782349 -3.634401321 1.966041565
5.491847515 -3.116001368 -1.680305362
5.641485214 -3.203507423 -1.48782289
5.615797997 -3.190217018 -1.247190595
7.240779877 -4.116679192 -1.312536836
8.082045555 -4.598706722 -1.136610031
7.973897934 -4.539012909 -0.7990184426
8.104418755 -4.61705637 -0.4866208732
8.12302494 -4.631412506 -0.1625150144
8.126684189 -4.612847805 0.162410304
8.11700058 -4.611097336 0.487039566
8.129499435 -4.620074749 0.8143579364
8.079398155 -4.595333576 1.136122584
8.057502747 -4.586603642 1.461775422
8.072540283 -4.597029686 1.797483802
7.373539925 -4.202382565 1.949422479
6.414412975 -3.658716202 1.967076778
5.460814953 -3.123641968 -1.674093723
5.59644413 -3.203816891 -1.478824854
8.016988754 -4.59137249 -1.787561655
7.222937584 -4.139964104 -1.311911106
8.048726082 -4.617013931 -1.134172797
7.951093674 -4.562853336 -0.7983212471
8.081325531 -4.641338825 -0.4862022102
8.090283394 -4.648361683 -0.1621659696
8.107060432 -4.639200211 0.1623404771
8.080863953 -4.626081944 0.4857834876
8.113322258 -4.648424149 0.8143579364
8.052974701 -4.617583275 1.134660244
8.03025341 -4.606417656 1.459585309
8.046228409 -4.619314671 1.79519403
7.350378036 -4.223240852 1.94717288
6.403919697 -3.680930138 1.967594504
5.326036453 -3.071271181 -1.63578856
5.619549274 -3.24183321 -1.48782289
7.995811462 -4.616384029 -1.786416769
7.20061636 -4.158953667 -1.310346723
8.019621849 -4.63573122 -1.132222891
7.917871952 -4.580602646 -0.7965781093
8.05551815 -4.662110329 -0.4855741858
8.056703568 -4.666551113 -0.1618169099
8.077774048 -4.658067226 0.1620612442
8.062937737 -4.653263569 0.4856788516
8.079792976 -4.666751385 0.8126147389
8.035899162 -4.643269539 1.134416461
8.012415886 -4.633431435 1.459272504
8.027466774 -4.644005299 1.794430614
7.343078613 -4.251498699 1.948972583
6.382674694 -3.698418617 1.965006351
5.39265728 -3.133563757 -1.6595999
5.584614754 -3.247713566 -1.481524229
7.097286224 -4.132377148 -1.294077516
8.001675606 -4.662697315 -1.131979108
7.884623051 -4.598176003 -0.794835031
8.035743713 -4.688187122 -0.4853647947
8.024824142 -4.685570717 -0.1615027785
8.051092148 -4.680205822 0.1618518233
8.029380798 -4.67133522 0.4846321046
8.043609619 -4.681492329 0.8105230331
8.007635117 -4.664297581 1.132710338
7.980834007 -4.652418137 1.456456542
7.987463951 -4.658151627 1.789088011
7.331559181 -4.279068947 1.949872375
6.359716892 -3.714829683 1.961900473
5.401136875 -3.165027857 -1.665811419
7.201388836 -4.225029945 -1.614688635
7.044617176 -4.136358261 -1.28719449
7.952830315 -4.671496391 -1.127348065
7.859936237 -4.620621681 -0.7939634323
7.987522125 -4.699378014 -0.4834807515
8.001524925 -4.709496975 -0.1613631546
8.007102013 -4.692104816 0.1612933427
8.007858276 -4.696303368 0.4843181074
8.019524574 -4.706908703 0.8098258376
7.981034279 -4.686190128 1.131247878
7.962841988 -4.679246902 1.456143737
7.946646214 -4.673462868 1.783745408
7.319185734 -4.307889462 1.950772285
6.351705551 -3.739946842 1.963453412
5.42664957 -3.205477953 -1.677199483
7.903070927 -4.672001362 -2.109587669
7.217013359 -4.268129349 -1.621557713
7.030135632 -4.160923004 -1.28719449
7.959565639 -4.71477747 -1.130760431
7.833475113 -4.641935349 -0.7929175496
7.957326412 -4.719081402 -0.4826433659
7.979878426 -4.734337807 -0.1612584442
7.98124218 -4.716333389 0.1611188203
7.98969698 -4.723211765 0.4842134416
7.989327431 -4.726757526 0.8084313273
7.948431969 -4.706308842 1.129054308
7.934562683 -4.699966908 1.453953624
7.923528671 -4.697167873 1.782218814
7.30745554 -4.335399628 1.951672077
6.330305099 -3.757166147 1.960865259
5.415427208 -3.224400759 -1.677199483
5.607223034 -3.339923143 -1.496820927
7.205444336 -4.295307159 -1.62232101
6.968794346 -4.155884266 -1.278434157
7.909796238 -4.720799446 -1.125885606
7.817224026 -4.669251442 -0.7929175496
7.933061123 -4.740319729 -0.4821200073
7.942708969 -4.749848366 -0.1608395875
7.95524931 -4.736636639 0.1609093845
7.956004143 -4.740848064 0.4831666946
7.972779274 -4.754616737 0.8084313273
7.919143677 -4.724504471 1.127104402
7.906236172 -4.720547199 1.451763511
7.901167393 -4.719390869 1.780692458
7.293038845 -4.359608173 1.951672077
6.327098846 -3.785190582 1.963971138
5.497475624 -3.29799509 -1.706187248
7.157501221 -4.298960209 -1.614688635
6.896681786 -4.145583153 -1.267796636
7.789747715 -4.687957287 -0.7916973829
7.909622669 -4.763860226 -0.4817012846
7.914092064 -4.770318508 -0.1605952531
7.933523178 -4.761289597 0.1608046889
7.92742157 -4.761392593 0.4824340045
7.943305969 -4.772819519 0.8070367575
7.895798683 -4.748026371 1.126129389
7.864322662 -4.732837677 1.447070599
7.877916813 -4.742891312 1.779165983
7.274438381 -4.383028507 1.950772285
6.313847542 -3.807253599 1.963971138
6.82670927 -4.132773399 -1.542944431
6.856825829 -4.154276848 -1.263103485
7.752894402 -4.702720642 -0.7896056175
7.887823582 -4.788332462 -0.4813872874
7.893974781 -4.795837879 -0.1605254412
7.910011292 -4.784813404 0.1606650501
7.903918743 -4.784897804 0.4820153415
7.90614748 -4.788133144 0.8049451113
7.872385979 -4.771443367 1.125154376
7.839308739 -4.75513792 1.445506215
7.847885609 -4.762214184 1.776113033
7.272419453 -4.416486263 1.954371452
6.287312508 -3.821242809 1.959829926
5.45122242 -3.322218657 -1.698940396
6.823973179 -4.163735867 -1.545615792
6.828796387 -4.169951439 -1.260600567
7.729632378 -4.725597858 -0.788908422
7.854023933 -4.805412769 -0.4803405702
