# .PCD v0.7 - Point Cloud Data file format
VERSION 0.7
FIELDS x y z
SIZE 4 4 4
TYPE F F F
COUNT 1 1 1
WIDTH 1247
HEIGHT 1
VIEWPOINT 0 0 0 1 0 0 0
POINTS 1247
DATA ascii
-1.733776093 1.010297418 0.171845749
-1.737622499 1.01335144 0.2418453246
-1.735948086 1.013186574 0.311668992
-1.835769176 1.071877241 0.4049594998
-2.690692663 1.573573709 0.8236142993
-1.598930001 0.9377117157 -0.4850789607
-1.613618612 0.9470825195 -0.4220047593
-1.599512458 0.9391791224 -0.3522962332
-1.640967131 0.9642902613 -0.2947740555
-2.642499924 1.554066658 -0.3712705672
-2.701481104 1.589389086 -0.2705060542
-1.605860949 0.9455468059 -0.0954619199
-1.726275086 1.017259359 -0.03427473083
-1.723050714 1.010907412 0.03417001665
-1.720687509 1.010328889 0.1023702696
-1.730239153 1.016342878 0.171845749
-1.751187444 1.029470801 0.2442827076
-1.72559011 1.015233517 0.3104175031
-1.762646675 1.037449598 0.3893131614
-2.66687727 1.572164655 0.8179202676
-1.590658188 0.9403375983 -0.4835260212
-1.591853619 0.9417947531 -0.4170558453
-2.319333553 1.372742414 -0.5156286955
-2.577462673 1.526736975 -0.4677906036
-2.638766766 1.564293504 -0.3715143204
-2.680493593 1.58966279 -0.2689372599
-1.605985641 0.9531853199 -0.09567126632
-1.727871299 1.02634275 -0.03437944129
-1.722953796 1.018951535 0.03423982486
-1.727463007 1.022432327 0.1029982939
-1.733538389 1.026436806 0.1725429893
-1.739044785 1.030517101 0.2430640161
-1.730531096 1.026288986 0.3119818568
-1.772522211 1.051609874 0.3923661113
-2.644765377 1.57159543 0.8127439022
-1.675322533 0.998296082 -0.5109608173
-2.358465672 1.406485319 -0.6240108609
-2.326329708 1.387871027 -0.5183000565
-2.536500454 1.514458895 -0.4612203836
-2.599480391 1.552676916 -0.3666395545
-2.659536839 1.589809299 -0.2673684359
-1.606076479 0.9608362913 -0.09588060528
-1.751912236 1.048497796 -0.03493792191
-1.719386458 1.024959683 0.03423982486
-1.717201352 1.024063468 0.1025796086
-1.733366132 1.034524322 0.1728916019
-1.745662332 1.042688966 0.2445264459
-1.73898828 1.039114952 0.3141719699
-1.753676534 1.048722029 0.3889315724
-2.641197443 1.581349134 0.8132615089
-2.374259949 1.425471306 -0.7304394245
-2.360470295 1.418313146 -0.6258104444
-2.30825305 1.387486339 -0.5152471066
-2.521308184 1.516752362 -0.4593431354
-2.577308655 1.55105257 -0.3642021716
-2.655956984 1.599647999 -0.2675427496
-1.606302619 0.968219161 -0.09608995914
-1.741575956 1.050171256 -0.03479830176
-1.715978146 1.030655742 0.03423982486
-1.712083936 1.028723478 0.1024749354
-1.733341336 1.042319775 0.1732402444
-1.725186586 1.038236141 0.2420890629
-1.7219944 1.036724567 0.311668992
-1.745144248 1.051491976 0.3877867162
-2.634284496 1.589101076 0.8127439022
-2.371172905 1.434336782 -0.7309570909
-2.365756035 1.432189107 -0.6285098791
-2.286846399 1.384963155 -0.5114309192
-2.50274992 1.51691401 -0.4568401873
-2.553208828 1.548715115 -0.3615210354
-2.64184165 1.603739262 -0.2666711807
-1.611618757 0.978723824 -0.09661331773
-1.751570463 1.064552546 -0.03507754207
-1.727948189 1.045658231 0.03455396742
-1.711899638 1.036763072 0.1026842892
-1.733283281 1.05012691 0.1735888571
-1.738708496 1.054243684 0.2445264459
-1.752140045 1.063224912 0.3179263771
-1.756751776 1.06644237 0.3912212551
-1.938808322 1.17788744 0.5137848258
-2.615515709 1.590257883 0.8086027503
-2.362601757 1.441005588 -0.7299218178
-2.374050856 1.448557973 -0.6321091056
-2.26499939 1.383103251 -0.5076147318
-2.492116928 1.522986054 -0.4559015632
-2.5443995 1.555547714 -0.3610335588
-2.598837852 1.590074897 -0.2628363371
-1.623350501 0.9940108061 -0.09755536169
-1.734202147 1.062303782 -0.03479830176
-1.748188972 1.066260934 0.0350426361
-1.721908092 1.051056981 0.1035216525
-1.736223817 1.060627341 0.1742860973
-1.748568654 1.06858778 0.2464763522
-1.719770312 1.051813126 0.3126076162
-1.772924781 1.085173488 0.3958007097
-2.591829538 1.588275313 0.8029087186
-2.360848427 1.451267838 -0.7309570909
-2.372045517 1.459291339 -0.6330088973
-2.255141497 1.387914777 -0.5064698458
-2.464920282 1.518208623 -0.4518342614
-2.530504227 1.559212685 -0.3598148823
-2.610230446 1.609594584 -0.2645794451
-1.63006866 1.005964875 -0.09818339348
-1.73728919 1.072553039 -0.03493792191
-1.723828316 1.060091496 0.03462377936
-1.736941218 1.06857276 0.1046730503
-1.727420926 1.063547611 0.1737631559
-1.746330261 1.076030731 0.2467200756
-1.737948537 1.071284652 0.3166748881
-1.767455578 1.090324521 0.3954190612
-2.584626436 1.596297145 0.8023911119
-2.360950232 1.462139726 -0.7325099707
-2.375475168 1.47228241 -0.6352583766
-2.242183924 1.390212297 -0.5045617819
-2.441409111 1.514917731 -0.4483927488
-2.513514042 1.560267091 -0.3581086993
-2.601493359 1.616138697 -0.2642308176
-1.619939089 1.007146716 -0.09776470065
-1.743911505 1.084644675 -0.03514735028
-1.720303416 1.065802217 0.03462377936
-1.729992867 1.072222471 0.1044637039
-1.737429619 1.077671766 0.1751576513
-1.749498725 1.086003661 0.2476950586
-1.73942101 1.080168486 0.3176134825
-1.757160187 1.092034459 0.393892616
-1.866997957 1.160747886 0.4975883365
-2.574397802 1.601797938 0.8008381724
-2.375756979 1.482231855 -0.7387216091
-2.373885393 1.482216597 -0.6361581683
-2.234231472 1.395560026 -0.5037985444
-2.41292119 1.508346081 -0.4440125525
-2.491222858 1.558503032 -0.3556712866
-2.567408562 1.606788158 -0.2612675428
-1.633516908 1.023114681 -0.09881142527
-1.76722455 1.107718349 -0.0357058309
-1.733723521 1.082088947 0.03497282788
-1.724545598 1.077196836 0.1043590307
-1.722018838 1.076036811 0.1739374846
-1.737472653 1.086536288 0.2464763522
-1.757408142 1.099857092 0.3216807842
-1.74687314 1.093687654 0.3923661113
-1.862934828 1.167257786 0.4975883365
-2.549150467 1.598458886 0.794626534
-2.390193701 1.50285542 -0.7449332476
-2.380243063 1.497758389 -0.6393074989
-2.207746744 1.389754415 -0.4988375604
-2.400956154 1.512547374 -0.4427610934
-2.468975544 1.556602955 -0.3532339036
-2.563469648 1.616802573 -0.2614418268
-1.631624579 1.02987659 -0.09891609102
-1.756584406 1.109608531 -0.03556620702
-1.743477225 1.096651912 0.03525206819
-1.734296679 1.091722369 0.1051964089
-1.735111713 1.092658281 0.1756805927
-1.737027884 1.0947119 0.2469638288
-1.746875286 1.101769447 0.3204293251
-1.756327748 1.108160257 0.3954190612
-2.494877338 1.575367332 0.6712505817
-2.527224064 1.597027421 0.7894501686
-2.376773357 1.506020188 -0.7423450947
-2.37170887 1.503970742 -0.6384077072
-2.202882051 1.397452593 -0.4988375604
-2.385655642 1.514566779 -0.4408838749
-2.450123072 1.556694865 -0.3512839973
-2.564251184 1.630464315 -0.262139082
-1.651612997 1.050572753 -0.100381501
-1.752700448 1.115733504 -0.03556620702
-1.749772549 1.109154463 0.03546149284
-1.723729253 1.093490124 0.1047777236
-1.731287241 1.098707914 0.1756805927
-1.758331418 1.116732359 0.2506199181
-1.749686837 1.112099409 0.3216807842
-1.769015789 1.124818325 0.3992352486
-2.521634579 1.605838776 0.7894501686
-2.374494076 1.516800761 -0.7433803678
-2.387791395 1.525882483 -0.644256413
-2.1977458 1.405516624 -0.4988375604
-2.353467941 1.506262779 -0.435877949
-2.431300163 1.556674957 -0.3493341208
-2.509895563 1.608232379 -0.2570840418
-1.661201358 1.065244436 -0.1012188792
-1.752161503 1.124003768 -0.03563601524
-1.739149451 1.110949636 0.03532187641
-1.74682653 1.116712332 0.10645248
-1.720535278 1.100751638 0.1749833524
-1.756094694 1.123932958 0.2508636713
-1.75411129 1.123527408 0.3232451379
-1.77645123 1.13871038 0.4019065499
-1.909451604 1.224904537 0.5137848258
-2.503006458 1.606284738 0.7853090763
-2.380556345 1.532399297 -0.7470038533
-2.369076967 1.526180506 -0.6406571865
-2.206027985 1.421687722 -0.5018904805
-2.331594944 1.503762126 -0.4327492714
-2.38888526 1.541892648 -0.3439718485
-2.5210042 1.627791405 -0.2588271797
-1.647408009 1.064532518 -0.1005908474
-1.748227358 1.130113125 -0.03563601524
-1.735065937 1.117316365 0.03532187641
-1.742917895 1.122803211 0.10645248
-1.716682673 1.106750369 0.1749833524
-1.750295162 1.129286051 0.2506199181
-1.765116215 1.139284372 0.3260609806
-1.754325151 1.133187532 0.3977087736
-2.489419937 1.609244943 0.6743998528
-2.487650871 1.608717799 0.7822031975
-2.386537313 1.548059464 -0.7506272793
-2.390158653 1.551001072 -0.6478556395
-2.215870619 1.43900311 -0.5053250194
-2.324939013 1.510409832 -0.4324364364
-2.363787889 1.536821604 -0.341046989
-2.51530695 1.636581421 -0.2588271797
-1.645542741 1.071079135 -0.1006955206
-1.747622848 1.13839221 -0.0357058309
-1.744772196 1.131769896 0.03560111299
-1.745688677 1.133230209 0.1068711653
-1.732858181 1.125761032 0.177075088
-1.744876504 1.134001851 0.2503761947
-1.752848864 1.14005363 0.3244966269
-1.75714016 1.143281102 0.3992352486
-2.479170561 1.614301205 0.6730501652
-2.480401993 1.616336346 0.7816855311
-2.376574993 1.554002404 -0.6456061602
-2.209443569 1.445268631 -0.5049434304
-2.341137886 1.53258121 -0.4365036786
-2.348445892 1.538536549 -0.3395845294
-2.496534824 1.636176586 -0.2574326694
-1.6651752 1.092151999 -0.1021609232
-1.753669024 1.151068807 -0.03591525555
-1.754201889 1.146606088 0.0358803533
-1.74840796 1.143690348 0.1072898433
-1.735783935 1.135865092 0.1777723283
-1.749210954 1.145523548 0.2515948713
-1.755467296 1.150496483 0.325748086
-1.75970614 1.153713703 0.4007617235
-2.467003107 1.618669271 0.6712505817
-2.465055704 1.61862278 0.7785797715
-2.403375149 1.582327604 -0.7594271302
-2.392290831 1.576226473 -0.6514548659
-2.206024408 1.454052567 -0.5053250194
-2.33412528 1.539655805 -0.4361908436
-2.357971191 1.55656743 -0.3417782187
-2.467531919 1.629510164 -0.2549923062
-1.671350121 1.104565144 -0.102788955
-1.742968798 1.152770877 -0.03577563912
-1.75686872 1.157122016 0.03601996973
-1.731064558 1.140993237 0.10645248
-1.738461971 1.146304488 0.1784695834
-1.743544579 1.150529146 0.2513511479
-1.749792337 1.155528784 0.325435251
-1.75075388 1.15660274 0.3996168673
-2.461337805 1.627270937 0.6712505817
-2.449723959 1.620821595 0.7754738927
-2.401056767 1.592843294 -0.7604624629
-2.3948915 1.589957356 -0.6537043452
-2.212383509 1.469347596 -0.5079963803
-2.389606476 1.588251948 -0.4477669895
-2.450325966 1.62922585 -0.356158793
-2.453535557 1.632595181 -0.2541207671
-1.677459002 1.117034197 -0.1034169868
-1.762435675 1.174065471 -0.03626430407
-1.762816191 1.169881821 0.03622940183
-1.747238517 1.159983635 0.1077085361
-1.729471684 1.149057627 0.177946642
-1.744476914 1.159905672 0.2520823479
-1.750885248 1.164606571 0.3263738155
-1.763048887 1.173585653 0.4034330547
-2.455928326 1.635423541 0.6712505817
-2.429867268 1.619294643 0.7708151937
-2.472862482 1.652314305 -0.7853090763
-2.212393999 1.479950666 -0.5091412067
-2.441779852 1.634628415 -0.4587174058
-2.454806089 1.643969893 -0.3576211929
-2.448107958 1.640722394 -0.2541207671
-1.670428038 1.120365739 -0.1032076478
-1.758532643 1.179903626 -0.03626430407
-1.733989835 1.159052253 0.0357058309
-1.746702909 1.167991281 0.1079178825
-1.733930945 1.160326958 0.1788181961
-1.752166748 1.173416257 0.2537885308
-1.766707063 1.183600068 0.3301282823
-1.773823261 1.189265251 0.4068675935
-2.439162493 1.63596034 0.6681011915
-2.424484015 1.627343535 0.7708151937
-2.464164019 1.658348203 -0.7842737436
-2.390759468 1.610159874 -0.6555039883
-2.223756075 1.498249054 -0.5129573345
-2.446172714 1.649342656 -0.4605945945
-2.437534332 1.64475596 -0.3559150398
-2.437700033 1.645486951 -0.2535978258
-1.663393378 1.123662949 -0.1029982939
-1.764343023 1.192754507 -0.03647373244
-1.743406653 1.173730016 0.03598506376
-1.759178877 1.18524158 0.1089645997
-1.738334298 1.17163825 0.1796897501
-1.741683006 1.17478013 0.2528135777
-1.783849597 1.204127312 0.3341955841
-1.740583062 1.175364614 0.3999984562
-2.420519829 1.635735631 0.664501965
-2.413988352 1.632549524 0.7692622542
-2.442371368 1.656097412 -0.7790973783
-2.398024559 1.627249241 -0.6591031551
-2.226634741 1.511515379 -0.5148655176
-2.42732811 1.648991704 -0.4580916464
-2.421928167 1.646558166 -0.35445261
-2.426998138 1.650625229 -0.2530748844
-1.672669768 1.138452768 -0.1038356721
-1.760169148 1.198905587 -0.03647373244
-1.747573376 1.185421348 0.03615958989
-1.751726151 1.18913126 0.1087552533
-1.732585549 1.176579714 0.1795154363
-1.731004477 1.176388979 0.2518385947
-1.779635072 1.210347295 0.3341955841
-1.778672934 1.210146308 0.4099205434
-2.401908636 1.635401487 0.6609027982
-2.405081987 1.63879025 0.7682270408
-2.427004814 1.65807426 -0.775991559
-2.416460276 1.652107835 -0.6658517122
-2.221344948 1.519278646 -0.5148655176
-2.424818039 1.659685612 -0.4587174058
-2.414528131 1.653880596 -0.3542088866
-2.414359093 1.655003071 -0.2523776591
-1.681862831 1.153321266 -0.1046730503
-1.736188173 1.191464782 -0.0360548757
-1.748377681 1.19489944 0.03626430407
-1.744267583 1.192983747 0.1085459143
-1.741622686 1.191620946 0.1809099317
-1.762921929 1.20709753 0.2572008669
-1.755845189 1.203152418 0.3304411173
-1.793869615 1.229667902 0.4144999385
-2.396185637 1.643775344 0.6609027982
-2.383419991 1.636242628 0.7630506158
-2.408182621 1.658193111 -0.7718504667
-2.421912432 1.668271065 -0.6690009832
-2.222227335 1.531867027 -0.516391933
-2.404084682 1.658466578 -0.4559015632
-2.398937464 1.655533791 -0.3527464271
-2.398730993 1.656627536 -0.2513317764
-1.694054961 1.170832992 -0.1057197675
-1.75833559 1.215713739 -0.0366133526
-1.754078507 1.207799077 0.03647373244
-1.740092635 1.199065089 0.1085459143
-1.720841408 1.186685562 0.1791668236
-1.765233636 1.217752814 0.2581758201
-1.758137226 1.213763356 0.3316926062
-1.808733463 1.249626398 0.4190793931
-2.382130146 1.647005439 0.6586532593
-2.366571903 1.636859775 0.7594271302
-2.399204731 1.664387584 -0.7708151937
-2.394972086 1.662688732 -0.6631523371
-2.229766607 1.548573971 -0.5194448829
-2.393414974 1.663465619 -0.4549629688
-2.392853498 1.664315224 -0.3527464271
-2.389662027 1.662715197 -0.2509831488
-1.680123448 1.169891715 -0.1050917432
-1.770274639 1.233582735 -0.0369623974
-1.739782453 1.207379818 0.03626430407
-1.765214205 1.225942135 0.1104300097
-1.746140957 1.213147521 0.182304427
-1.767277956 1.228747487 0.2591508031
-1.77962029 1.23825109 0.3366985023
-1.778579235 1.237986803 0.4129734933
-2.371569157 1.651969671 0.6573035717
-2.358972073 1.644417286 0.7589095235
-2.39021349 1.670538783 -0.769779861
-2.379571676 1.664337873 -0.6604529023
-2.235607386 1.564226508 -0.5221162438
-2.376266479 1.663879514 -0.4527728856
-2.369146824 1.66012609 -0.3500652909
-2.377317905 1.666471362 -0.2502858937
-1.682569861 1.180336833 -0.1055104285
-1.759411216 1.235158801 -0.03682278097
-1.765057087 1.234070182 0.03689258918
-1.757650971 1.229806304 0.1102206558
-1.74516046 1.221519828 0.1826530397
-1.775985003 1.244019985 0.2611006796
-1.784992576 1.251258373 0.3385757208
-1.774246931 1.244187713 0.4129734933
-2.359407902 1.655759692 0.6555039883
-2.364283562 1.660414219 0.7625330091
-2.379629374 1.675534964 -0.7682270408
-2.368968487 1.669266462 -0.6591031551
-2.226924896 1.569757938 -0.5213530064
-2.363987446 1.667609453 -0.4515214264
-2.351985216 1.660372853 -0.3483591378
-2.368231535 1.672461152 -0.2499372661
-1.686594486 1.19196701 -0.1060337871
-1.777945876 1.257458448 -0.03731144965
-1.760738611 1.240223765 0.03689258918
-1.730493546 1.219823837 0.1087552533
-1.757168293 1.239086747 0.1843961626
-1.778119802 1.25478971 0.2620756328
-1.767705321 1.248365521 0.3360727727
-1.795548916 1.268497944 0.4190793931
-2.329745293 1.64711082 0.6487554312
-2.352165699 1.664193511 0.7604624629
-2.362736225 1.676007271 -0.7646034956
-2.358360291 1.67414093 -0.6577534676
-2.223032236 1.578658462 -0.5217345953
-2.356541872 1.67470634 -0.4512085319
-2.346175194 1.668572664 -0.3483591378
-2.34939146 1.671477556 -0.2485427856
-1.690558434 1.203638911 -0.1065571457
-1.773545623 1.263657093 -0.03731144965
-1.75639832 1.246362805 0.03689258918
-1.732738614 1.230482578 0.1091739386
-1.759329557 1.249828458 0.1850934178
-1.806086898 1.283993006 0.2669504285
-1.785871267 1.270560384 0.3404529393
-1.800706744 1.281588554 0.4213690758
-2.325569153 1.656363606 0.6492053866
-2.327464342 1.658938527 0.7542507648
-2.340165377 1.671072841 -0.7589095235
-2.351503611 1.680408955 -0.6573035717
-2.230838537 1.594768643 -0.5247875452
-2.348055601 1.679803371 -0.4505828023
-2.329623461 1.667845845 -0.3466529846
-2.33602953 1.673049808 -0.2476712167
-1.703002572 1.220578671 -0.1076038629
-1.763067007 1.264560699 -0.03717182949
-1.758983135 1.256523848 0.03703221306
-1.748361707 1.249858499 0.1104300097
-1.755394697 1.25534904 0.1850934178
-1.782672882 1.275797367 0.264025569
-1.772234797 1.269263506 0.3385757208
-1.812631011 1.29867363 0.425185293
-2.323521137 1.665932655 0.6501051784
-2.312824011 1.659484506 0.7511449456
-2.334317923 1.679231286 -0.7589095235
-2.339297295 1.684052587 -0.6555039883
-2.236410141 1.610577226 -0.5274589062
-2.319741726 1.671819448 -0.4462026358
-2.323787212 1.675967693 -0.3466529846
-2.310786247 1.667205095 -0.245579496
-1.693873405 1.223008871 -0.1072898433
-1.771609426 1.280076027 -0.0374510698
-1.761078715 1.267328382 0.03717182949
-1.763436794 1.269959807 0.1116860732
-1.754235029 1.263798118 0.1854420304
-1.803972244 1.30058682 0.2679253519
-1.780609131 1.284688473 0.3410786688
-1.792167544 1.293502688 0.4213690758
-2.309793234 1.668327928 0.6478556395
-2.307016611 1.667548418 0.7511449456
-2.322184801 1.682834983 -0.7568389177
-2.319206476 1.681911707 -0.6514548659
-2.238720417 1.624138474 -0.5293669701
-2.296308279 1.667140841 -0.4427610934
-2.303468704 1.673568368 -0.3444592953
-2.309787989 1.678774714 -0.2461024374
-1.692824483 1.231263995 -0.1074991971
-1.783297777 1.298020482 -0.0378001146
-1.750168085 1.268773198 0.03703221306
-1.75899303 1.276107788 0.1116860732
-1.746587634 1.267573833 0.1850934178
-1.773722768 1.288211703 0.264025569
-1.788897395 1.300186753 0.3435816169
-2.292594671 1.666890025 0.5427235961
-2.29922843 1.672940373 0.6465059519
-2.302743435 1.676728249 0.7516625524
-2.314736605 1.689791083 -0.7563213706
-2.27712965 1.663557053 -0.641107142
-2.23779273 1.635417819 -0.5305117965
-2.308013678 1.687973499 -0.4462026358
-2.286399841 1.673391223 -0.3427531421
-2.311951876 1.692712307 -0.2469739914
-1.696571946 1.243067145 -0.1080225557
-1.769079804 1.297143221 -0.03759068623
-1.745728493 1.274874687 0.03703221306
-1.722277641 1.25867033 0.1095926315
-1.751803041 1.280717731 0.1861392856
-1.788439751 1.308461189 0.2669504285
-1.800286531 1.318092823 0.3467103243
-2.280426502 1.670243025 0.5411971211
-2.266654968 1.661371469 0.6388576031
-2.284415007 1.675614953 0.7475214601
-2.294816494 1.687560916 -0.7516625524
-2.293282747 1.687665701 -0.6474057436
-2.236813068 1.646711469 -0.5316566825
-2.28779459 1.685474277 -0.4433868229
-2.283740044 1.683718204 -0.3432406187
-2.280373573 1.681850433 -0.2441850007
-1.700257301 1.254912257 -0.1085459143
-1.754890323 1.296181798 -0.03738125786
-1.754154086 1.290440559 0.03731144965
-1.759691834 1.295461297 0.112314105
-1.756947398 1.293913722 0.1871851534
-1.803037763 1.328828216 0.2698752582
-1.789315343 1.319678783 0.3454588354
-2.276162624 1.679358244 0.5415787101
-2.278086424 1.682006598 0.6438065171
-2.259907246 1.669802666 0.7413098216
-2.276493311 1.68636179 -0.7475214601
-2.288943052 1.696821213 -0.6478556395
-2.275205851 1.687253833 -0.5423419476
-2.280310392 1.692273259 -0.4430739582
-2.265099764 1.68221128 -0.3412907422
-2.260095358 1.679106712 -0.2426162064
-1.700674891 1.26441443 -0.1088599339
-1.779233456 1.323785663 -0.0380095467
-1.775345087 1.315604687 0.03786992654
-1.780827045 1.320631027 0.1139888465
-1.75562048 1.30241251 0.187533766
-1.779261708 1.320914507 0.2669504285
-1.813239813 1.347121596 0.351090461
-2.257680655 1.677924633 0.5385257602
-2.248746395 1.672503233 0.63705796
-2.254064798 1.677680969 0.7413098216
-2.267496347 1.691986799 -0.746486187
-2.27051425 1.695473433 -0.644256413
-2.275593996 1.699885368 -0.5438684821
-2.249075174 1.681298971 -0.4380680621
-2.260803699 1.691296339 -0.3415344656
-2.260600567 1.691760659 -0.2433134466
-1.699448109 1.272737741 -0.1090692729
-1.784202814 1.337183952 -0.03821897134
-1.745102644 1.302655101 0.03731144965
-1.789007306 1.336401463 0.1148262247
-1.776599526 1.32761538 0.1903227568
-1.787357926 1.336628079 0.2689003348
-2.158046484 1.615012407 0.4202345312
-2.243951797 1.67991209 0.5366176963
-2.267848253 1.699037671 0.644256413
-2.248194695 1.685539126 0.7413098216
-2.260032177 1.698730707 -0.7459685206
-2.250566006 1.69284606 -0.6402073503
-2.249252796 1.692472219 -0.5389074087
-2.244770288 1.690327644 -0.4383809268
-2.243788242 1.690815806 -0.3398282826
-2.254681587 1.699641466 -0.2433134466
-1.694994926 1.278662324 -0.1090692729
-1.776332498 1.340993762 -0.03814916313
-1.746937633 1.313546181 0.0374510698
-1.749221563 1.316218734 0.112523444
-1.762402892 1.326619744 0.1892768741
-1.782681704 1.342858672 0.2689003348
-2.240730286 1.689124703 0.4377551973
-2.228669405 1.680642128 0.5343280435
-2.252570629 1.699900389 0.6415569782
-2.242297411 1.693376541 0.7413098216
-2.246387482 1.700778842 -0.7433803678
-2.243090153 1.69951427 -0.6397573948
-2.233943462 1.693198085 -0.5366176963
-2.237282991 1.696959019 -0.4380680621
-2.228385448 1.691436648 -0.3383658528
-2.237330914 1.699457765 -0.2420932651
-1.703243256 1.29423821 -0.1099066511
-1.784374595 1.356869936 -0.03842840344
-1.771035194 1.341368318 0.03807935491
-1.757350087 1.331968307 0.1133608222
-1.757761359 1.332763672 0.1892768741
-1.77798295 1.349073648 0.2689003348
-2.228527784 1.69215703 0.4365036786
-2.222788811 1.688411832 0.5343280435
-2.223352194 1.690063238 0.6348084807
-2.230222464 1.696514845 0.7392392755
-2.224779844 1.697283387 -0.7382039428
-2.2324965 1.703786969 -0.6384077072
-2.229283094 1.702566266 -0.5369993448
-2.221630812 1.697950959 -0.4361908436
-2.21300602 1.691970229 -0.3369034231
-2.220308542 1.698782563 -0.2408730984
-1.71434617 1.312614083 -0.1109533682
-1.779627204 1.363090277 -0.03842840344
-1.772701979 1.352393389 0.03821897134
-1.806664348 1.379302025 0.1169196591
-1.781362772 1.360969305 0.1924144924
-1.807961106 1.381790876 0.2742625773
-2.203778744 1.68552494 0.4327492714
-2.216585875 1.696547031 0.5343280435
-2.210954428 1.693461657 0.6330088973
-2.208952427 1.692539215 0.7340628505
-2.209650755 1.697976589 -0.7350981832
-2.223147154 1.70958221 -0.6375079155
-2.201540947 1.69357872 -0.5316566825
-2.206299067 1.698465109 -0.4343136251
-2.214652061 1.706127882 -0.3381221294
-2.20489645 1.69922471 -0.2398272157
-1.71924293 1.325908542 -0.1115813926
-1.781191587 1.374179482 -0.03856801987
-1.769318461 1.360100389 0.03825387731
-1.801839113 1.385599613 0.1169196591
-1.767127156 1.35988903 0.1913686246
-1.790302753 1.378718257 0.2723126411
-2.196316719 1.692002535 0.4324364364
-2.204430819 1.699479103 0.5328015089
-2.198858023 1.696406841 0.6312092543
-2.203710318 1.705679417 -0.7350981832
-2.200271606 1.704860687 -0.5328015089
-2.188164234 1.696090817 -0.4318106472
-2.205845356 1.711028576 -0.3376346231
-2.198951721 1.706911087 -0.2398272157
-1.714836717 1.331602573 -0.1115813926
-1.777449369 1.375751972 0.03853311762
-1.822255492 1.411449552 0.1185944155
-1.765519381 1.3684901 0.1917172521
-2.099469423 1.627928376 0.3210604191
-2.187275887 1.69723618 0.4318106472
-2.177071095 1.689926505 0.5274589062
-2.197837353 1.707275748 0.6325589418
-2.174203873 1.690135241 0.7262982726
-2.191946507 1.708227873 -0.7330275774
-2.194555521 1.711492538 -0.6325589418
-2.186866283 1.706109762 -0.530893445
-2.185344696 1.706150055 -0.4324364364
-2.174831152 1.699163914 -0.3337348402
-2.185430288 1.708059192 -0.2389556617
-1.713324904 1.340041041 -0.1117907465
-2.177828789 1.704568624 -0.04757346213
-1.778944492 1.386866093 0.03867273405
-1.811018586 1.412887692 0.1181757301
-1.78924346 1.396401882 0.1948548555
-2.168869495 1.69389677 0.3327598572
-2.179781914 1.703644514 0.4314978123
-2.175798655 1.701143265 0.5286037326
-2.178051472 1.704129934 0.6285098791
-2.178938866 1.706050634 0.7299218178
-2.187490463 1.717061162 -0.7335452437
-2.185502768 1.716734886 -0.6316591501
-2.177810669 1.711306453 -0.5301302075
-2.176270008 1.711325765 -0.4318106472
-2.170446396 1.707972646 -0.3339785635
-2.176323652 1.713212729 -0.238607049
-1.724325895 1.358372927 -0.1128374636
-2.160872936 1.70349431 -0.04732913151
-1.792965889 1.40788734 0.03909159452
-1.818639398 1.429072618 0.1190131083
-1.790623546 1.407564163 0.1955520958
-2.167623997 1.70513916 0.333491087
-2.162956476 1.702689886 0.4293076992
-2.160592794 1.701440215 0.5263140202
-2.159844875 1.702072978 0.6249106526
-2.163868904 1.706468821 0.7268159389
-2.170874834 1.716300249 -0.7299218178
-2.171856165 1.718307376 -0.6294096708
-2.162586451 1.711588264 -0.5278404951
-2.162540913 1.712779284 -0.4302463233
-2.161359787 1.713072538 -0.333491087
-2.157840729 1.710895777 -0.2372125536
-1.725831985 1.36934936 -0.113256149
-2.128584862 1.689517021 -0.04673574865
-1.784903407 1.41165626 0.03902178258
-1.807624936 1.430138707 0.1185944155
-1.816940904 1.438541293 0.1990383416
-2.155435085 1.707764268 0.3325161338
-2.146461725 1.701264381 0.4271176159
-2.153102398 1.70775187 0.5259323716
-2.149310827 1.705967784 0.6235609055
-2.146094561 1.704024792 0.7226748466
-2.149758101 1.711833596 -0.7247454524
-2.169194221 1.7279284 -0.6303094625
-2.151993275 1.715455294 -0.5266956091
-2.056460619 1.639887929 -0.4099098444
-2.147909164 1.714039683 -0.3322723806
-2.145627499 1.713445187 -0.2365152985
-1.736886263 1.387530923 -0.1143028662
-2.125798464 1.699433565 -0.04680555686
-1.820884824 1.449954748 0.039929308
-1.802621841 1.436439753 0.1185944155
-1.811908722 1.444874406 0.1990383416
-2.152863741 1.717378497 0.3330036104
-2.140510321 1.708746195 0.4271176159
-2.14742732 1.714882493 0.5259323716
-2.149731874 1.717951059 0.6253604889
-2.131080866 1.70426631 0.7195689678
-2.145576715 1.720161438 -0.7252629995
-2.14490962 1.720855832 -0.6249106526
-2.143230677 1.720124602 -0.5259323716
-2.130810499 1.711378694 -0.4261790216
-2.138818741 1.719039321 -0.331784904
-2.136828661 1.718053579 -0.2361666709
-1.73981297 1.399845123 -0.1148262247
-2.124526024 1.710606098 -0.04691027477
-2.065407991 1.656479478 0.04551408067
-1.803826928 1.447724342 0.1190131083
-2.12249136 1.704087853 0.2344235629
-2.128286123 1.709963202 0.3300787508
-2.13299346 1.714969993 0.426804781
-2.12307024 1.707602501 0.5213530064
-2.139167309 1.721779585 0.6240108609
-2.123615026 1.710482597 0.7190513611
-2.139559507 1.727640152 -0.7252629995
-2.131310463 1.722209215 -0.6226611137
-2.138740301 1.728829026 -0.5263140202
-2.129430532 1.722533941 -0.4271176159
-2.122004747 1.717751861 -0.3300787508
-2.126172781 1.721740961 -0.2356437296
-1.72870934 1.400879979 -0.1144075394
-2.118542433 1.71801126 -0.04691027477
-2.112502813 1.706401587 0.04670084268
-1.814295292 1.466567278 0.1200598255
-2.125825405 1.719003081 0.2354694307
-2.111502171 1.708640218 0.3283725679
-2.123923063 1.719919086 0.4261790216
-2.115571499 1.713766694 0.5209713578
-2.118005991 1.716964602 0.6195118427
-2.11613059 1.716667891 0.7185336947
-2.130518436 1.732660055 -0.7242277861
-2.126797438 1.730867863 -0.6231110096
-2.126602411 1.731326222 -0.5247875452
-2.123405218 1.729955912 -0.4271176159
-2.105225325 1.716368318 -0.3283725679
-2.118304729 1.728262305 -0.2354694307
-1.743923426 1.423323512 -0.1157682762
-2.106337309 1.720336199 -0.04677065089
-2.118943214 1.723861217 0.04698008299
-1.84014225 1.49811101 0.1221532673
-2.121356726 1.727671146 0.2356437296
-2.114757776 1.723525047 0.3298349977
-2.114845276 1.724825144 0.425553292
-2.103491783 1.716176867 0.5194448829
-2.105961561 1.719417453 0.6177121997
-2.112199068 1.730662227 -0.7200866342
-2.113206863 1.73210454 -0.6208614707
-2.108098984 1.729148269 -0.5217345953
-2.112469673 1.733967185 -0.4261790216
-2.085414171 1.712368488 -0.3261789382
-2.098404646 1.724262118 -0.2339006215
-1.744866014 1.434779286 -0.1161869615
-2.087964296 1.717516065 -0.04649141803
-2.098991871 1.719840765 0.04666594043
-2.088192225 1.712210536 0.1393194646
-2.108849287 1.730379581 0.2349465042
-2.101056814 1.724599123 0.3286163211
-2.092020988 1.71840477 0.4221117496
-2.104770184 1.730108857 0.5213530064
-2.09663558 1.724648714 0.616812408
-2.09961915 1.7277174 0.7169808149
-2.092734814 1.726958394 -0.7154279351
-2.103839397 1.737356067 -0.619961679
-2.099023104 1.733995795 -0.5209713578
-2.10031414 1.736296177 -0.4249275625
-2.095948935 1.733919382 -0.3288600743
-1.742923498 1.443409085 -0.1163963005
-2.078876257 1.722242236 -0.04642160237
-2.089589834 1.724976301 0.04659612849
-2.085283279 1.722032309 0.139528811
-2.087438107 1.725038528 0.2332033813
-2.090132236 1.728493094 0.3278850913
-2.089053631 1.728215218 0.4227374792
-2.089644909 1.729933023 0.5190632939
-2.092103004 1.733199954 0.6172622442
-2.072751522 1.717777729 0.7097339034
-2.086693764 1.734253049 -0.7154279351
-2.083081484 1.731864929 -0.6154626608
-2.089938879 1.738800883 -0.5202081203
-2.077843666 1.729350805 -0.4214859903
-2.082560778 1.734508157 -0.3276413381
-2.074071884 1.728664637 -0.2325061262
-1.738127351 1.449180961 -0.1163963005
-2.075923204 1.732050419 -0.04649141803
-2.073092937 1.722949266 0.04635179415
-2.073116779 1.724192858 0.1391101032
-2.085998535 1.736137867 0.2337263227
-2.073709965 1.726523876 0.3261789382
-2.076937914 1.730438471 0.4214859903
-2.071831703 1.726797462 0.516010344
-2.08035779 1.735135555 0.6154626608
-2.080931187 1.741163373 -0.7154279351
-2.069552422 1.732870817 -0.6132131815
-2.087171316 1.748243213 -0.5209713578
-2.073307991 1.737862945 -0.4217988551
-2.064326763 1.731560946 -0.3256914616
-2.0774858 1.743217349 -0.2335520089
-1.687172055 1.416709065 -0.113256149
-1.506692886 1.265610099 -0.033646442
-2.067066431 1.73017478 0.04635179415
-2.067387581 1.731058121 0.1391101032
-2.07870245 1.741766095 0.2335520089
-2.057023048 1.724823833 0.3244727552
-2.068161488 1.73477757 0.4208602607
-2.05075407 1.721396923 0.5121941566
-2.07130456 1.739879489 0.6145628691
-2.061011076 1.73184669 0.7097339034
-2.071886301 1.745926261 -0.7143926024
-2.054855108 1.732187748 -0.6105137467
-1.513817787 1.277011991 -0.3767197728
-1.485278249 1.254268408 -0.2335582078
-1.471806884 1.243773222 -0.1648732871
-1.487229705 1.257251501 -0.09985814244
-1.488525748 1.259238124 -0.03333229944
-2.05825901 1.73444283 0.04628198594
-2.049117565 1.727963686 0.1382727325
-2.066519022 1.743871689 0.2328547686
-2.048258066 1.729074717 0.3239852488
-2.053038836 1.734338164 0.4189830422
-2.051032782 1.733256936 0.5137206316
-2.049155474 1.732896924 0.609613955
-2.05200386 1.736534595 0.7086986303
-1.48702538 1.262874722 -0.4404507279
-1.470449686 1.249239326 -0.3667977154
-1.475682259 1.254571795 -0.3000928164
-1.472008109 1.2527771 -0.1653962135
-1.482611537 1.262694001 -0.09985814244
-1.482598901 1.263129711 -0.03329739347
-2.053412437 1.743269801 0.04631689191
-2.040029049 1.732519865 0.1380633861
-2.051309824 1.743333697 0.2318088859
-2.040395021 1.735283732 0.3237415254
-2.033431292 1.729973912 0.4161672294
-2.041676521 1.738216639 0.5129573345
-2.038340092 1.736604571 0.6082642078
-1.55778861 1.327658296 0.5368427634
-1.459008813 1.246991992 -0.5026786327
-1.473942399 1.260200739 -0.437751323
-1.470555305 1.258193612 -0.3679425716
-1.479017138 1.2658813 -0.3016571999
-1.48100841 1.268481374 -0.2342894226
-1.470651984 1.260500669 -0.1657448411
-1.49206233 1.279303908 -0.1008001864
-1.496392608 1.283922672 -0.03371625394
-2.032419205 1.737076759 0.04596783966
-2.037004709 1.74222672 0.1382727325
-2.039157152 1.745301366 0.2311116606
-2.036137342 1.743331552 0.3239852488
-2.025880098 1.735776067 0.4158543348
-1.534086585 1.315800428 0.4566472173
-1.538485408 1.320505738 0.531666398
-1.469509602 1.264423728 -0.5078550577
-1.468057752 1.264066577 -0.4373014271
-1.476787567 1.272032142 -0.3706139028
-1.47010088 1.267166853 -0.3007185757
-1.482584238 1.278829694 -0.2352643907
-1.490599155 1.286196232 -0.1685338169
-1.499680996 1.294947028 -0.1016375646
-1.514597535 1.308750033 -0.03423982486
-2.017249823 1.736333847 0.04575841501
-2.026371002 1.745416164 0.1379587203
-2.028830051 1.748152375 0.2305887192
-2.022522449 1.74394691 0.3227665722
-1.524498582 1.315911293 0.3832073212
-1.551605463 1.340254903 0.4633957446
-1.532405019 1.32460463 0.5311487317
-1.475306988 1.278400898 -0.5114784837
-1.470997691 1.275566816 -0.4395509362
-1.488651276 1.291330695 -0.3748116791
-1.489536524 1.2930094 -0.3057244718
-1.500590682 1.303524017 -0.2389204651
-1.514674664 1.316222191 -0.171845749
-1.499673367 1.304105401 -0.1019515842
-1.526613355 1.328468919 -0.03462377936
-2.008154392 1.740745068 0.0456886068
-2.009704351 1.7433182 0.1372260153
-1.518804193 1.318881035 0.2418453246
-1.54402864 1.341730237 0.3173006475
-1.518413901 1.319937229 0.3828256726
-1.541036606 1.340546966 0.4615961611
-1.54525733 1.345166445 0.5373603702
-1.485390663 1.296245456 -0.5166548491
-1.494425416 1.305048108 -0.4480991066
-1.491527557 1.302977085 -0.3767197728
-1.510296822 1.320302844 -0.3110432625
-1.508214235 1.318947315 -0.2408703715
-1.514568567 1.325438023 -0.1723686606
-1.507132292 1.319858909 -0.102788955
-1.522199512 1.333524108 -0.03462377936
-1.50295651 1.312498212 0.1023702696
-1.536497235 1.342734814 0.1748090386
-1.520168781 1.329401493 0.2428202927
-1.524703264 1.333836675 0.3141719699
-1.527091861 1.336867571 0.3862602115
-1.526320457 1.336662889 0.4584468603
-1.549505472 1.357922912 0.540466249
-1.492694974 1.311364055 -0.520796001
-1.507652164 1.32543695 -0.4534979165
-1.50783813 1.326067567 -0.3820624352
-1.510358572 1.329219341 -0.3119818568
-1.500852346 1.32131815 -0.2403829098
-1.507175207 1.327818871 -0.1720200479
-1.513234258 1.33409524 -0.1035216525
-1.514769793 1.335918903 -0.03455396742
-1.520103097 1.335913301 0.03462377936
-1.512095809 1.329343438 0.1033123136
-1.523060679 1.339926481 0.1737631559
-1.526181459 1.34361732 0.2445264459
-1.515824199 1.334968686 0.3132333457
-1.530014992 1.348414779 0.388168335
-1.543805957 1.361047864 0.4651953876
-1.543545246 1.361775756 0.5399485826
-1.495573521 1.322705984 -0.5233841538
-1.503248692 1.330429316 -0.4534979165
-1.515192151 1.341471314 -0.3851153851
-1.511856556 1.339460373 -0.3132333457
-1.505142927 1.334450483 -0.2418453246
-1.511707187 1.340741515 -0.1730659306
-1.51178968 1.341757774 -0.1037310064
-1.507107019 1.338542342 -0.0344841592
-1.509673715 1.335646629 0.0344841592
-1.516418695 1.342557311 0.1039403453
-1.515625715 1.342327833 0.1734145433
-1.524688959 1.351303935 0.2450139225
-1.528889418 1.355980515 0.3169877529
-1.534346223 1.3612988 0.3904580176
-1.555075645 1.380660534 0.4701443017
-1.543114781 1.371004701 0.5415015221
-1.503930449 1.339482546 -0.5280429125
-1.516052604 1.35122788 -0.4588967264
-1.503172994 1.340219975 -0.3832073212
-1.495380402 1.334208488 -0.3107303977
-1.5034374 1.342340589 -0.2423328161
-1.505532265 1.344682693 -0.1728916019
-1.50262928 1.343033671 -0.1034169868
-1.511368513 1.351793885 -0.03469358757
-1.507988811 1.343568563 0.03455396742
-1.520667434 1.355817914 0.1045683846
-1.522826195 1.358219743 0.1748090386
-1.525886416 1.361905813 0.2459889054
-1.541826606 1.377099395 0.3207421601
-1.528121114 1.365338445 0.3900764287
-1.557510734 1.392574549 0.4723938107
-1.552716732 1.389264464 0.5466778874
-1.502121925 1.347303987 -0.5290782452
-1.493923903 1.34089148 -0.4534979165
-1.492642283 1.340212226 -0.3816808164
-1.490713596 1.339420676 -0.3107303977
-1.489885926 1.339616418 -0.2408703715
-1.500828862 1.349930167 -0.1728916019
-1.497932315 1.348270416 -0.1034169868
-1.517041326 1.366429567 -0.03493792191
-1.516685128 1.36084342 0.0348681137
-1.514439106 1.359783173 0.1044637039
-1.531416416 1.375509024 0.1763778329
-1.524075866 1.369877815 0.2464763522
-1.542884707 1.38775754 0.3219936788
-1.532102346 1.378543019 0.3923661113
-1.555536151 1.400611162 0.4732936025
-1.553598881 1.399848223 0.5487484336
-1.490241885 1.34606421 -0.5264900327
-1.483451009 1.340871572 -0.451698333
-1.483586431 1.341463804 -0.3805359602
-1.500676632 1.357869744 -0.3138590753
-1.495500922 1.354135752 -0.2425765395
-1.518257499 1.375224233 -0.1755062789
-1.497655988 1.357515335 -0.1037310064
-1.518187284 1.377090573 -0.03507754207
-1.516376853 1.370151401 0.03497282788
-1.521535277 1.375777245 0.1053010821
-1.536949039 1.390202045 0.1775980294
-1.52958703 1.384514093 0.2481825352
-1.533638716 1.389156342 0.3210550547
-1.541829705 1.397064924 0.3961822987
-1.557855844 1.41257751 0.4755431116
-1.555855989 1.411754012 0.5513366461
-1.471243262 1.338258743 -0.5213136077
-1.491731882 1.357847333 -0.4557474256
-1.48034656 1.3479563 -0.3809175789
-1.507608891 1.373743296 -0.3163620234
-1.501032472 1.368710756 -0.2442827076
-1.506088257 1.373801708 -0.17463471
-1.463405609 1.33580482 -0.1016375646
-1.516323924 1.385078788 -0.03514735028
-1.529333591 1.391585588 0.03539168462
-1.53149128 1.394527078 0.1063477993
-1.536505342 1.399583936 0.1781209707
-1.5364815 1.400543094 0.2501324415
-1.534618258 1.399825811 0.3223065138
-1.526792049 1.393175244 0.3935109675
-1.554354787 1.419320345 0.4759930074
-1.558049321 1.423692226 0.5539248586
-1.472261429 1.348605633 -0.5233841538
-1.497038722 1.372263789 -0.4588967264
-1.485761166 1.362403512 -0.3835889101
-1.504259586 1.380332828 -0.3166748881
-1.510867476 1.387368083 -0.2467200756
-1.507152915 1.384441972 -0.17533198
-1.452852488 1.335498095 -0.1012188792
-1.52472508 1.402547956 -0.03546149284
-1.522992015 1.395564795 0.03535677865
-1.525142074 1.398514748 0.1062431261
-1.540420175 1.4130193 0.1791668236
-1.54328227 1.416637063 0.2520823479
-1.550089478 1.423882723 0.3266867101
-1.513245583 1.390526414 0.3912212551
-1.56803894 1.441885233 0.4818417132
-1.551648855 1.427813649 0.5534071922
-1.474644423 1.360286117 -0.5259723663
-1.496535182 1.3814466 -0.4602464437
-1.491092801 1.376904726 -0.3862602115
-1.500883102 1.386916041 -0.3169877529
-1.511845469 1.398024797 -0.2476950586
-1.518399596 1.404577017 -0.1772494018
-1.448181868 1.34056139 -0.1012188792
-1.524221301 1.41193819 -0.03556620702
-1.515172124 1.398160577 0.03528697044
-1.529055119 1.411959887 0.1068711653
-1.544259548 1.426499367 0.1802126914
-1.536870122 1.420668006 0.2518385947
-1.543659687 1.427943587 0.3263738155
-1.509823918 1.397133231 0.3916028738
-1.571575403 1.455294371 0.4845411479
-1.559408307 1.445038915 0.5580659509
-1.481210113 1.37594378 -0.5301134586
-1.46743989 1.364106059 -0.4525981247
-1.499216795 1.394133687 -0.3896948099
-1.504709363 1.40022099 -0.3188649714
-1.50695622 1.40329349 -0.2476950586
-1.525150061 1.420733094 -0.1786438823
-1.430345178 1.333351493 -0.1002768278
-1.536830187 1.433618546 -0.03598506376
-1.526395917 1.418414593 0.03567092121
-1.512416244 1.406407952 0.1060337871
-1.540729284 1.433238029 0.1803869903
-1.540619731 1.43413949 0.2533010542
-1.557455897 1.450827122 0.3304411173
-1.510682821 1.407748699 0.3931293488
-1.566485763 1.460771322 0.4845411479
-1.571303606 1.466289639 0.5642775893
-1.490506172 1.394303322 -0.5352898836
-1.465514421 1.371884108 -0.4534979165
-1.501506448 1.406068325 -0.3916028738
-1.515667677 1.420322776 -0.3223065138
-1.507840872 1.413976431 -0.2486700118
-1.527196884 1.433130264 -0.1795154363
-1.437331557 1.349272013 -0.101114206
-1.530359268 1.4376055 -0.03595016152
-1.530196428 1.431931853 0.0358803533
-1.497292757 1.402122378 0.1053010821
-1.548803926 1.450866222 0.1819558144
-1.52836287 1.432720304 0.2520823479
-1.556704044 1.460309267 0.3313797414
-1.511486292 1.418387413 0.3946558237
-1.562797785 1.467564702 0.4849910736
-1.578845501 1.4836725 0.5689362884
-1.485386133 1.399756551 -0.5352898836
-1.452208519 1.368970871 -0.4507984817
-1.490630388 1.406173348 -0.3900764287
-1.517634392 1.432648182 -0.3238708675
-1.512998581 1.428771973 -0.2503761947
-1.525081515 1.44118917 -0.1798640788
-1.414962649 1.338063478 -0.09985814244
-1.531142831 1.448435068 -0.03608977795
-1.533920527 1.445492983 0.03608977795
-1.493842602 1.408710361 0.1054057479
-1.546373606 1.459268332 0.182304427
-1.533457398 1.447585106 0.2537885308
-1.553033352 1.467090845 0.3316926062
-1.531957746 1.448193908 0.401524961
-1.570149779 1.485335112 0.4890401661
-1.575060248 1.490502119 0.5694539547
-1.488898635 1.41291213 -0.5383957028
-1.444355488 1.371600151 -0.44989869
-1.50279355 1.427594066 -0.3946558237
-1.516919374 1.442020059 -0.3248094618
-1.525264025 1.450460196 -0.2533010542
-1.524371028 1.450624466 -0.1803869903
-1.418961883 1.351258397 -0.1004861742
-1.533316374 1.460667729 -0.03626430407
-1.532963157 1.45523572 0.03619449586
-1.491812944 1.416667104 0.1056151018
-1.505163908 1.430345058 0.177946642
-1.535333514 1.460035801 0.2550072074
-1.559352875 1.483394861 0.3341955841
-1.546800733 1.472483754 0.4068675935
-1.572271585 1.497253299 0.4912896752
-1.57684052 1.502654791 0.5720421672
-1.49398315 1.427182913 -0.5420191288
-1.431347251 1.368302822 -0.4471993148
-1.509402275 1.443424821 -0.3977087736
-1.512129068 1.447042346 -0.3248094618
-1.526181579 1.461001158 -0.2542759776
-1.53250134 1.468075752 -0.1819558144
-1.394288063 1.336606503 -0.09902077168
-1.529907942 1.467128277 -0.03629921004
-1.532465935 1.464455962 0.03629921004
-1.485662937 1.420226216 0.1055104285
-1.511930108 1.44634676 0.1793411374
-1.530483365 1.465119243 0.2550072074
-1.562985182 1.496755123 0.3360727727
-1.547579288 1.483038425 0.4083940983
-1.581365347 1.515944481 0.4957886934
-1.580213428 1.515899777 0.5751479864
-1.504559636 1.446858644 -0.5477131605
-1.423993468 1.370339274 -0.4462994635
-1.510265112 1.453868151 -0.3992352486
-1.524393916 1.468494892 -0.3285639286
-1.516785264 1.462186098 -0.2535448074
-1.534795523 1.480064869 -0.1828273684
-1.386973619 1.338449001 -0.09881142527
-1.534846187 1.482183814 -0.03654354066
-1.540571213 1.482006669 0.0366133526
-1.470624208 1.415707469 0.1047777236
-1.524347186 1.467936873 0.181432873
-1.528475046 1.472941399 0.255494684
-1.562016845 1.50631547 0.3370113671
-1.559608221 1.504519105 0.4129734933
-1.574662089 1.520102024 0.4953388572
-1.58880651 1.534828663 0.5803243518
-1.505051136 1.45747745 -0.5497837067
-1.419201374 1.37530148 -0.4462994635
-1.493903875 1.448199034 -0.3961822987
-1.527765512 1.482059479 -0.3304411173
-1.515944958 1.471619844 -0.2542759776
-1.526760936 1.482637286 -0.1824787408
-1.39375174 1.354417682 -0.09964879602
-1.538264513 1.495897055 -0.03675297275
-1.551187634 1.502680421 0.03699730709
-1.457069159 1.412491322 0.1041496918
-1.519213796 1.473248959 0.181432873
-1.5432688 1.497621775 0.2589070499
-1.561000586 1.51588738 0.3379499912
-1.555755496 1.511321545 0.4133551419
-1.579127192 1.535098076 0.4984881282
-1.593132854 1.549794436 0.5839478374
-1.508252978 1.470814943 -0.5528895855
-1.426944733 1.392496228 -0.4503486156
-1.536713243 1.501187086 -0.3335697949
-1.522154927 1.488003969 -0.2562259138
-1.514195323 1.481257081 -0.1816071868
-1.38330555 1.35368681 -0.09923011065
-1.507316709 1.476073146 -0.03612468764
-1.55165863 1.513671517 0.03713692725
-1.454988122 1.420359135 0.1043590307
-1.509785414 1.474367023 0.1809099317
-1.553648949 1.518261313 0.261588186
-1.558523893 1.524089694 0.3385757208
-1.560294271 1.52635324 0.4160264432
-1.584899545 1.551506758 0.5020873547
-1.583572984 1.551290274 0.5823948979
-1.50423038 1.477686286 -0.5534071922
-1.416514993 1.392005444 -0.4485489726
-1.525568962 1.501267314 -0.3323183358
-1.528268933 1.504448652 -0.2581758201
-1.507596135 1.485135317 -0.181432873
-1.361266613 1.341922283 -0.09797404706
-1.479373693 1.458860278 -0.03556620702
-1.553498507 1.526085019 0.03731144965
-1.444324136 1.419828773 0.1039403453
-1.498690128 1.474301815 0.1802126914
-1.552584291 1.527852297 0.2623193562
-1.563047051 1.539222598 0.3407658041
-1.563079476 1.540330172 0.4183161557
-1.590303063 1.568251491 0.5056865811
-1.579523206 1.558165669 0.5829125643
-1.504556298 1.488363028 -0.5554777384
-1.397554636 1.383477807 -0.4440499544
-1.524529099 1.510754466 -0.3332569599
-1.534020543 1.521222591 -0.2601257265
-1.499314308 1.48784411 -0.1810842454
-1.353739262 1.343851686 -0.09776470065
-1.502390265 1.492458701 -0.03626430407
-1.552158237 1.535988688 0.03741616011
-1.447625399 1.433545232 0.1045683846
-1.507689238 1.493546128 0.1819558144
-1.541334867 1.527942419 0.2613444328
-1.557395339 1.54494071 0.3407658041
-1.560480475 1.54854238 0.4190793931
-1.597264051 1.586151361 0.5097357035
-1.583394289 1.573476195 0.5865359902
-1.511407137 1.506139755 -0.560136497
-1.387196422 1.382844567 -0.442250371
-1.500824213 1.497160792 -0.4038146436
-1.528767467 1.52610147 -0.3354470432
-1.534320116 1.532178402 -0.2611006796
-1.491292953 1.490252137 -0.1807356328
-1.343155503 1.343155265 -0.09734601527
-1.454758763 1.455266595 -0.0352171585
-1.549620509 1.54422009 0.03748597577
-1.427055836 1.423076272 0.1034169868
-1.509256601 1.506098866 0.1828273684
-1.535992026 1.533313394 0.2613444328
-1.500283957 1.498713374 0.3291896582
-1.560348034 1.559803367 0.4206058383
-1.590061784 1.590616822 0.509285748
-1.583354354 1.584459782 0.588606596
-1.519210696 1.522926927 -0.5647952557
-1.382845163 1.387195826 -0.442250371
-1.501918674 1.507169843 -0.4053411484
-1.536777616 1.543227673 -0.3382628262
-1.532299161 1.53980577 -0.261588186
-1.486864686 1.494670391 -0.1807356328
-1.332123876 1.340052366 -0.09682265669
-1.472728729 1.482528687 -0.03577563912
-1.561705351 1.566072941 0.03790483251
-1.41552937 1.420478582 0.1028936282
-1.486501575 1.492220521 0.180561319
-1.557776809 1.564861298 0.2659754753
-1.46909833 1.476810932 0.3232451379
-1.559866548 1.568602204 0.4217506945
-1.585335255 1.595327616 0.509285748
-1.579729915 1.590797067 0.5891242027
-1.511166215 1.52547574 -0.563759923
-1.377994537 1.392014503 -0.442250371
-1.510457873 1.526358366 -0.409157306
-1.538326263 1.555605769 -0.3398271799
-1.53668201 1.555029035 -0.2632943392
-1.473237276 1.491346478 -0.1796897501
-1.338663101 1.356065154 -0.09766003489
-1.453501344 1.473424673 -0.03542659059
-1.567486167 1.58288157 0.0381840691
-1.410562277 1.425411105 0.1028936282
-1.496696949 1.51298058 0.1824787408
-1.578820109 1.597112656 0.270606488
-1.461158276 1.479119062 0.3226194084
-1.562658072 1.582419515 0.4240404367
-1.566069245 1.5869807 0.5047867298
-1.571454525 1.593550801 0.5880889297
-1.512605906 1.537627459 -0.5663481355
-1.375859261 1.399595499 -0.4431501627
-1.521633506 1.548424959 -0.4137367308
-1.538423181 1.56660378 -0.3410786688
-1.54514873 1.574551582 -0.2657317221
-1.46383667 1.49221313 -0.1791668236
-1.356292129 1.383549452 -0.09933478385
-1.411965847 1.441348672 -0.03451906517
-1.564755559 1.591194987 0.03825387731
-1.398578525 1.423203349 0.1023702696
-1.50257647 1.529566526 0.1838732362
-1.581579447 1.611113667 0.2720689476
-1.446302891 1.474339366 0.3204293251
-1.554375648 1.585061193 0.4232771695
-1.557791829 1.589654446 0.5038869381
-1.560476065 1.593504906 0.5860183239
-1.516679168 1.552571535 -0.569971621
-1.36415863 1.397417665 -0.4409006536
-1.52718842 1.56496799 -0.4167896807
-1.538461447 1.577621698 -0.342330128
-1.557653546 1.598417401 -0.2689003348
-1.457228422 1.49588716 -0.1789925247
-1.375138283 1.41260457 -0.101114206
-1.443179846 1.483535647 -0.03542659059
-1.564779997 1.602370024 0.03839349747
-1.397786856 1.432365179 0.1026842892
-1.50835824 1.54621172 0.1852677315
-1.575946331 1.616624355 0.2720689476
-1.438390613 1.476549625 0.3198035955
-1.540615439 1.582037926 0.4209874868
-1.545438051 1.58809948 0.5016374588
-1.545476437 1.589247704 0.5823948979
-1.519320965 1.566175938 -0.5730774403
-1.353847146 1.396573782 -0.4391010404
-1.52581501 1.574518681 -0.4179345369
-1.543938875 1.594334364 -0.344833076
-1.549303293 1.600992441 -0.2684128582
-1.44784236 1.496668458 -0.1784695834
-1.372974873 1.420268416 -0.101323545
-1.401869178 1.451170564 -0.03451906517
-1.57309866 1.622177362 0.03874254599
-1.384438753 1.428629756 0.10205625
-1.518201232 1.567208409 0.1871851534
-1.571674228 1.623541951 0.2723126411
-1.433228016 1.481561184 0.3198035955
-1.565108895 1.618454456 0.4293830693
-1.538531303 1.592082858 0.5011875629
-1.499659777 1.552943349 0.5668658018
-1.517866015 1.57564342 -0.5746303201
-1.34490931 1.397079468 -0.437751323
-1.531200647 1.591151953 -0.4209874868
