# .PCD v0.7 - Point Cloud Data file format
VERSION 0.7
FIELDS x y z
SIZE 4 4 4
TYPE F F F
COUNT 1 1 1
WIDTH 1270
HEIGHT 1
VIEWPOINT 0 0 0 1 0 0 0
POINTS 1270
DATA ascii
3.372720718 1.166591883 -0.6854487062
3.946118116 1.363380551 -0.6545734406
4.804401875 1.658042312 -0.6189091206
5.850460529 2.017901182 -0.5377255678
5.844495296 2.013564348 -0.3217625916
5.818196297 2.002232075 -0.106702216
5.827569008 2.017978191 0.1069465503
5.219144821 1.805252314 0.2872208655
5.368872643 1.855992794 0.4932760894
5.78358078 1.997095704 0.7461407185
5.758227348 1.986088634 0.9580563307
5.757134438 1.984590411 1.175446272
5.745354176 1.978283167 1.392893553
5.742612362 1.975100279 1.615600586
2.616192341 0.8962328434 -0.7294041514
2.972401142 1.017102242 -0.7153409719
3.3786304 1.155446291 -0.6858303547
3.945244312 1.347684741 -0.6536347866
4.787615299 1.633567929 -0.615984261
5.846152306 1.993612409 -0.5366796851
5.851489067 1.9931494 -0.3217625916
5.83082962 1.983841419 -0.1068069339
5.823226452 1.99373579 0.1067371219
5.266991138 1.801240206 0.2895236611
5.369662762 1.835305691 0.4927531779
5.77073288 1.967893362 0.958994925
5.752877235 1.960680604 1.1731565
5.74668932 1.956336141 1.391543865
5.751301289 1.955663204 1.616118193
2.62113452 0.8877154589 -0.7299218178
2.951936007 0.9986016154 -0.7094922066
3.388223171 1.145531058 -0.6869751811
3.942439079 1.331375957 -0.6523833275
4.804573536 1.620653868 -0.617446661
5.856853008 1.974464893 -0.5370283127
5.839482307 1.96633935 -0.3207158744
5.841510296 1.964749217 -0.1068767458
5.813103676 1.967628002 0.1064229831
5.36595726 1.814187169 0.2946525812
5.383586884 1.819103479 0.493450433
5.784216881 1.952223539 0.7444345355
5.779438972 1.948367119 0.9593077898
5.741082191 1.93431747 1.169340372
5.753483772 1.936262846 1.391543865
5.754429817 1.934345484 1.61508286
2.63154459 0.8810143471 -0.7319923043
2.953555822 0.9876739979 -0.7090423703
3.39592433 1.134943962 -0.6877384186
3.954556704 1.320108891 -0.6536347866
4.817734718 1.606383204 -0.6184216142
5.869380474 1.955896854 -0.5375512838
5.850100994 1.947203755 -0.3209252357
5.851788044 1.946630716 -0.1069465503
5.818039417 1.946688175 0.1063880697
5.286705494 1.767883182 0.2899423242
5.386124611 1.799036384 0.4931018054
5.774047375 1.926370859 0.7422409058
5.785868645 1.929189444 0.9593077898
5.755249023 1.916750908 1.170866966
5.750962257 1.913090467 1.389294386
5.766312599 1.917079449 1.616635799
2.649276257 0.8766776919 -0.7361334562
2.958664894 0.9784852266 -0.7094922066
3.392408848 1.120618939 -0.6862120032
3.975795269 1.312560201 -0.6564506292
4.815493584 1.587912679 -0.617446661
5.876171589 1.935398102 -0.5375512838
5.85462904 1.927170157 -0.32082057
5.850948334 1.923695445 -0.1068069339
5.830158234 1.929270029 0.1064927876
5.319393158 1.758191943 0.2914077342
5.39804697 1.782099247 0.4936247468
5.793600082 1.911564946 0.7439470887
5.779434681 1.904654503 0.9571176767
5.765303135 1.898881912 1.171630144
5.759125233 1.894619346 1.389744282
5.776639938 1.898147106 1.617671132
2.635644674 0.8624793887 -0.731474638
2.971323729 0.9711794257 -0.7117417455
3.388641834 1.106923699 -0.6846854687
3.963450909 1.293160319 -0.6536347866
4.821006775 1.571094751 -0.617446661
5.871191025 1.91219759 -0.5365054011
5.870816231 1.909812331 -0.3213438988
5.850020885 1.900786638 -0.1066673175
5.842558384 1.910773277 0.1065975055
5.790305138 1.890328765 0.5291843414
5.802124977 1.891943812 0.7441908121
5.780413628 1.882632256 0.9561790824
5.771896839 1.878744245 1.171630144
5.758291721 1.872093081 1.387944698
5.770368576 1.873795748 1.614047647
2.638639212 0.8532745838 -0.731474638
2.97840476 0.9619987607 -0.7126415372
3.396221161 1.096295238 -0.6854487062
3.973581076 1.281134963 -0.6545734406
4.86047411 1.565208197 -0.6218339205
5.872139454 1.889861822 -0.5359824896
5.879349232 1.889917374 -0.3214485943
5.856619835 1.880356073 -0.1066673175
5.835874081 1.886061192 0.1063531712
4.949500084 1.597691536 0.2703686953
5.800661564 1.8713274 0.529532969
5.803025246 1.869853854 0.7434595823
5.790710449 1.863654971 0.9568048716
5.774681568 1.857384086 1.170866966
5.766645908 1.85257864 1.388394594
5.771356106 1.851869822 1.612494707
2.628720045 0.839943409 -0.727851212
2.970605612 0.9480420351 -0.709942162
3.413310766 1.088013053 -0.6881200671
3.972382307 1.265458822 -0.6536347866
4.84320879 1.541008592 -0.6189091206
5.88472414 1.870135427 -0.5365054011
5.876717567 1.865335941 -0.3209252357
5.866960049 1.86110878 -0.1067371219
5.840517044 1.865071654 0.1063182652
4.960754871 1.582226396 0.2706826925
5.708447933 1.819601655 0.5204687715
5.803842545 1.847777843 0.7427283525
5.797180176 1.843431473 0.9568048716
5.773966312 1.833827734 1.169340372
5.782364368 1.83538723 1.390644073
5.781468868 1.832878947 1.61353004
2.648362398 0.8355336189 -0.7325099707
2.970342875 0.9359772801 -0.7090423703
3.411657095 1.073727846 -0.6869751811
3.967571259 1.247928023 -0.6520704031
4.852611065 1.524437785 -0.6193965673
5.885835171 1.846766114 -0.5359824896
5.870174408 1.839601636 -0.3201925159
5.873741627 1.839594007 -0.1067371219
5.845406532 1.843049526 0.1062833592
4.993191719 1.572431445 0.2721481025
5.669466019 1.784312963 0.5162852407
5.810575962 1.826494694 0.7427283525
5.803898335 1.822169781 0.9568048716
5.776901722 1.811479211 1.168577194
5.776036263 1.810100555 1.387494802
5.793677807 1.813408732 1.61508286
2.655095577 0.8269708157 -0.7335452437
2.981197357 0.9273973107 -0.7108419538
3.417258978 1.062396049 -0.6873568296
3.998531103 1.241575956 -0.6564506292
4.83136034 1.499254227 -0.615984261
5.90747118 1.830926538 -0.5373769403
5.884191036 1.821463466 -0.3206112087
5.878217697 1.818487167 -0.106702216
5.855940819 1.822802782 0.1063531712
4.966229916 1.544905543 0.2703686953
5.679773331 1.764704943 0.5166338682
5.817231178 1.805186868 0.7427283525
5.804562569 1.800145268 0.9558662176
5.796317101 1.79537046 1.171248555
5.776734352 1.788200021 1.386145115
5.799973011 1.793172359 1.61508286
2.64859128 0.815320313 -0.7309570909
2.980530739 0.9163614511 -0.709942162
3.417009592 1.049905539 -0.6865935922
3.998849154 1.227151394 -0.6558248997
4.862874508 1.491374016 -0.6193965673
5.894459724 1.80549252 -0.5356338024
5.886380196 1.80077064 -0.3204018772
5.874653339 1.796062112 -0.1065276861
5.867687702 1.805135965 0.1064578816
4.975143433 1.529603243 0.2705780268
5.679880619 1.744104385 0.5161109567
5.826980591 1.787051439 0.7432158589
5.802946091 1.77856946 0.9546146989
5.807870388 1.777864456 1.172393322
5.784496307 1.76960218 1.386595011
5.789258957 1.768852592 1.61042428
2.649432421 0.8059698343 -0.7304394245
2.994740725 0.9098707438 -0.7126415372
3.416715384 1.037426829 -0.6858303547
3.99533534 1.211589694 -0.6545734406
4.852852345 1.46978581 -0.617446661
5.900414944 1.785934329 -0.5356338024
5.89996624 1.783553839 -0.32082057
5.880887032 1.775546074 -0.1065276861
5.860248566 1.781597972 0.1062135547
4.993829727 1.516290426 0.2713107467
5.678006649 1.722946644 0.5154137015
5.83667469 1.768868566 0.7437033057
5.826135635 1.763451576 0.9574305415
5.80245924 1.755182862 1.170103669
5.788773537 1.748834848 1.386145115
5.795398235 1.748632073 1.61042428
2.657780647 0.7983833551 -0.7319923043
2.990431786 0.8971737623 -0.7108419538
3.437241554 1.030567527 -0.6892649531
3.991970301 1.195372343 -0.6533219814
4.869365215 1.45624876 -0.6189091206
5.908520699 1.765901804 -0.535808146
5.887018204 1.757233977 -0.3197738528
5.906212807 1.760718584 -0.1068767458
5.85877037 1.758832335 0.1060739383
5.022050381 1.505731344 0.2725668252
5.685894966 1.703686595 0.5155879855
5.829501629 1.74449873 0.7419971228
5.83225441 1.743107915 0.9574305415
5.797264099 1.731544971 1.167813897
5.809780598 1.733077884 1.389744282
5.797764301 1.727286935 1.609388947
2.666106939 0.7907508612 -0.7335452437
2.993545532 0.8867289424 -0.7108419538
3.440816879 1.018565416 -0.6892649531
3.996119022 1.181429386 -0.6533219814
4.912495613 1.450486422 -0.6237838864
5.922293186 1.747520447 -0.5365054011
5.896946907 1.737804174 -0.3199831843
5.908182621 1.739994407 -0.1068069339
5.874460697 1.74121058 0.1062484533
5.007864475 1.483397603 0.2715200782
5.695628643 1.684960485 0.5159366727
5.8355546 1.724143267 0.7419971228
5.836109161 1.723196864 0.9571176767
5.807039738 1.712407231 1.168577194
5.802709579 1.708932042 1.386595011
5.818287373 1.71241343 1.61353004
2.67070508 0.7819817066 -0.7340628505
3.000210285 0.8778907657 -0.7117417455
3.440582752 1.005446196 -0.6885016561
4.015184402 1.17260015 -0.6558248997
4.875352383 1.421960711 -0.6184216142
5.932181835 1.72795248 -0.5368540287
5.906512737 1.719357252 -0.3201925159
5.89885807 1.714895844 -0.1065276861
5.880202293 1.721721649 0.1062484533
5.078189373 1.484968305 0.2750789225
5.716775417 1.669535279 0.5173311234
5.845051289 1.705893159 0.7424846292
5.832606316 1.700049043 0.9555533528
5.81456995 1.693693995 1.168958783
5.808344841 1.689678669 1.386595011
5.824228287 1.692097425 1.61353004
2.662148952 0.7699000835 -0.7309570909
3.010745049 0.8695778251 -0.7135413885
3.449557066 0.9956636429 -0.6896465421
4.024947166 1.160219669 -0.656763494
4.906993389 1.412621021 -0.6218339205
5.9244771 1.704413652 -0.5356338024
5.912478447 1.698727608 -0.3201925159
5.900964737 1.693189979 -0.1064578816
5.89001894 1.70229435 0.1063182652
5.156260967 1.488278508 0.2790564597
5.714622974 1.648361087 0.5166338682
5.847156048 1.68437922 0.7419971228
5.829012871 1.67694962 0.9539890289
5.837429047 1.678267717 1.172393322
5.817953587 1.670470357 1.387494802
5.824528694 1.670157671 1.6119771
2.661105156 0.7595416307 -0.7299218178
3.017510176 0.8601306677 -0.7144411802
3.451123953 0.9830777049 -0.6892649531
4.015672207 1.142380238 -0.6545734406
4.877522945 1.385719776 -0.617446661
5.926557064 1.682636023 -0.5352852345
5.922215462 1.679169893 -0.3204018772
5.904915333 1.672035098 -0.1064229831
5.882463932 1.677885652 0.1060739383
5.123008251 1.459326148 0.2769630253
5.714592457 1.626767874 0.5161109567
5.856819153 1.665042758 0.7424846292
5.842431545 1.658751607 0.9552404881
5.826253414 1.653056622 1.168958783
5.819998741 1.649090409 1.386595011
5.824745655 1.648239255 1.61042428
2.669318438 0.7518197298 -0.731474638
3.016742468 0.8485376835 -0.7135413885
3.454534054 0.9710257649 -0.6892649531
3.464290857 0.9724636078 -0.563215673
4.916736126 1.378329396 -0.6218339205
5.934313297 1.662474155 -0.5354595184
5.924193859 1.65740931 -0.3201925159
5.926123142 1.655718803 -0.106702216
5.888285637 1.657340169 0.1060739383
5.13960743 1.444678545 0.2775910497
5.720236778 1.606808782 0.5161109567
5.853038311 1.641908646 0.741265893
5.855795383 1.640477538 0.9564919472
5.828206539 1.631651878 1.168195605
5.838857651 1.632436156 1.389744282
5.828603268 1.627375841 1.609906554
2.675649166 0.743532598 -0.7325099707
3.015930414 0.8369590044 -0.7126415372
3.461686134 0.9600112438 -0.690028131
3.408648729 0.9440215826 -0.5535167456
4.929170132 1.363276005 -0.6228089333
5.942000389 1.642281294 -0.5356338024
5.922242641 1.634592772 -0.3197738528
5.929938316 1.634492517 -0.1066673175
5.894034386 1.636777401 0.1060739383
5.733490467 1.588961244 0.5168081522
5.852994919 1.619880676 0.7405347228
5.863389969 1.620554566 0.9568048716
5.828188896 1.609730721 1.167050719
5.838883877 1.610491514 1.388394594
5.839836597 1.60855794 1.611459494
2.681954145 0.7352103591 -0.7335452437
3.033870459 0.830542028 -0.7162407637
3.457440853 0.9458504319 -0.6885016561
3.432884693 0.9378429651 -0.5569583178
5.959230423 1.624672651 -0.5366796851
5.927912235 1.61391151 -0.3197738528
5.922100067 1.61011219 -0.1064229831
5.905497551 1.617776871 0.1061786413
5.272861481 1.442494154 0.2842900753
5.748611927 1.571563601 0.5176797509
5.866272926 1.601532459 0.741509676
5.865199566 1.599036932 0.9561790824
5.850820065 1.594022632 1.170485258
5.83506918 1.587540746 1.386145115
5.843551159 1.587657928 1.610941887
2.675179958 0.7233222127 -0.7309570909
3.03298831 0.8189314008 -0.7153409719
3.47588563 0.937866509 -0.691554606
3.356028557 0.9042698741 -0.5438177586
3.345613241 0.9002111554 -0.4202620685
3.321221113 0.8930263519 -0.2971757054
5.930413723 1.602370262 0.1065276861
5.27786541 1.424078226 0.2842900753
5.742520332 1.548376679 0.5166338682
5.879495144 1.583108544 0.7424846292
5.853576183 1.573938489 0.9533632398
5.848765373 1.571550369 1.168958783
5.840575218 1.567164183 1.386145115
5.841593742 1.565248966 1.608871341
2.681297302 0.7154423594 -0.7319923043
3.03945303 0.8098732233 -0.7162407637
3.467594147 0.9233030677 -0.6892649531
3.35328126 0.8916137815 -0.5428791642
3.342824221 0.8875824809 -0.4195308387
3.351280212 0.8885756135 -0.2996160686
3.334326982 0.8834578395 -0.1785714328
3.338603258 0.8833438158 -0.05958072096
5.726444244 1.523688197 0.5147164464
5.882794857 1.563091278 0.7422409058
5.858763218 1.554519892 0.9533632398
3.340250015 0.8844048977 0.7877752185
5.846752167 1.545870066 1.608871341
2.696979761 0.709049046 -0.7356157899
3.027183533 0.7952964902 -0.7126415372
3.229782581 0.847317934 -0.6407994032
3.478408098 0.9105973244 -0.4363488257
5.968207359 1.560162187 -0.5359824896
3.337542772 0.8712316751 -0.1785714328
3.330056906 0.8686550856 -0.05937128887
3.320868015 0.8718349338 0.1777340621
3.303639412 0.8660777211 0.2950839698
3.314246655 0.8657683134 0.6575906277
3.341583967 0.8716619611 0.787325263
5.853981495 1.52594018 1.609388947
2.6956985 0.6986604929 -0.7345805168
3.022531509 0.7822436094 -0.7108419538
3.219415903 0.8325969577 -0.6381281018
3.218040943 0.8310447335 -0.5197268724
3.508632898 0.9047825933 -0.4397611618
5.971685886 1.538826704 -0.535808146
3.327695847 0.861841023 0.05930148065
3.327758312 0.8612375855 0.1779433936
3.329790592 0.8605235219 0.2971757054
3.316263199 0.8557911515 0.4153872728
3.317796707 0.8555710316 0.5359960794
3.313446522 0.8532142043 0.6568273902
3.327619553 0.8556270599 0.7832762003
2.70373559 0.6906827688 -0.7361334562
3.040215015 0.7760714293 -0.7144411802
3.20708251 0.817476809 -0.6350751519
3.220779419 0.8203678727 -0.5197268724
3.469289541 0.8823785186 -0.4343989193
5.984746456 1.519932389 -0.5365054011
5.978111744 1.514916182 -0.1069465503
3.353968143 0.8555392623 0.1791994572
5.765509605 1.468538642 0.5168081522
3.338320494 0.8496865034 0.4178246856
3.311190605 0.8415507674 0.5344317555
3.321965933 0.8436721563 0.6579722166
3.322883129 0.8426705599 0.7814766169
3.332544565 0.8438844681 0.9095422029
2.69477129 0.6788806915 -0.7330275774
3.050464869 0.7673550844 -0.7162407637
3.236432314 0.813536942 -0.6404178143
3.229371309 0.8105621338 -0.5206654668
3.483901978 0.87315768 -0.4358613491
5.982022762 1.498140097 -0.535808146
5.958141327 1.487742901 -0.1064927876
5.760685921 1.446985841 0.5159366727
5.902119637 1.480321527 0.7419971228
5.885645866 1.474003434 0.9543018341
5.878854275 1.471215248 1.16972208
3.323913813 0.8305930495 0.7810266614
5.864016533 1.463152766 1.607836008
2.700874567 0.6704000831 -0.7340628505
3.049341202 0.755766809 -0.7153409719
3.387895584 0.8390467763 -0.6701840162
3.203416586 0.7921737432 -0.5159724355
3.479219913 0.8590868711 -0.4348863661
5.977543354 1.474867702 -0.5349366069
5.767636299 1.427345514 0.5161109567
5.911105633 1.460661173 0.7424846292
5.894590378 1.454400301 0.9549276233
5.885860443 1.451153636 1.170103669
5.883214951 1.448326111 1.388844371
5.870965004 1.443134189 1.608353734
2.697568893 0.6595922709 -0.7325099707
3.040602207 0.7423440218 -0.7126415372
3.425135374 0.8355919719 -0.6770531535
3.188889265 0.7767784595 -0.5131566525
3.453264475 0.8399006128 -0.4312303066
5.994271755 1.456814647 -0.5359824896
3.286105633 0.7974222898 -0.1750125885
5.776454926 1.408149004 0.5164595842
5.91616869 1.440017104 0.7424846292
5.903470993 1.434746861 0.9555533528
5.87181282 1.425964713 1.166287422
5.884447575 1.426861167 1.387944698
5.885354042 1.424906135 1.610941887
2.728026867 0.6569569707 -0.7402745485
3.043174982 0.7317264676 -0.7126415372
3.176052332 0.7630903125 -0.6266795397
3.185818434 0.7642607093 -0.5122180581
3.467758417 0.8306148648 -0.4326927364
6.01288414 1.439129591 -0.5372026563
3.326121807 0.7936210632 -0.0589873381
5.785209656 1.388905406 0.5168081522
5.913436413 1.417510152 0.741509676
5.916127205 1.415971637 0.9568048716
5.882481098 1.40683341 1.167432308
5.883706093 1.404952407 1.386595011
5.892171383 1.404800177 1.611459494
2.034804821 0.4825078547 -0.5487484336
3.057088614 0.7237923145 -0.7153409719
3.151949644 0.7456706166 -0.6213368773
3.184622049 0.7522263527 -0.5115923285
3.439722776 0.8112151623 -0.4287929237
3.231536627 0.7591409683 -0.0572420992
5.799717426 1.370995879 0.5176797509
5.916416645 1.396402001 0.741265893
5.917189121 1.394404173 0.9561790824
5.893089771 1.387639642 1.168577194
5.894265652 1.385745168 1.387944698
5.900800705 1.385108232 1.612494707
1.940531969 0.4530048966 -0.5223489404
3.059596539 0.7131159306 -0.7153409719
3.162181616 0.7364456058 -0.6228634119
3.183380365 0.7402097583 -0.5109665394
3.436732769 0.7978557348 -0.4280616939
3.331580877 0.7703825831 -0.0589873381
5.800586224 1.34984076 0.5173311234
5.930922508 1.377989054 0.7424846292
5.898928642 1.368382573 0.9524246454
5.897897243 1.367061615 1.168577194
5.900965214 1.365599513 1.388394594
5.89054203 1.361021399 1.608353734
1.959046364 0.4501212537 -0.5270076394
3.058268309 0.7015607953 -0.7144411802
3.197264671 0.7328588963 -0.6293509007
3.201349497 0.7326191664 -0.5134695172
3.43175602 0.7840865254 -0.4270867407
3.21323204 0.73179847 -0.05682324246
5.799436569 1.328248739 0.5168081522
5.935697079 1.35727632 0.7424846292
5.918840408 1.352334738 0.9549276233
5.894977093 1.344717741 1.167050719
5.905695438 1.344994307 1.388394594
5.891254902 1.340624094 1.607318401
1.949299932 0.4407244325 -0.5239017606
3.068181038 0.6931335926 -0.7162407637
3.180636644 0.7167884111 -0.5097150803
3.442084074 0.7744441032 -0.4280616939
3.21966958 0.7214512825 -0.05689305067
5.811812401 1.309750199 0.5175054669
5.930482388 1.335403204 0.741265893
5.92930603 1.332966924 0.9558662176
5.895573616 1.324299693 1.166287422
5.915827751 1.326683402 1.389744282
5.910980701 1.323426723 1.611459494
3.066777468 0.6815730333 -0.7153409719
3.223261118 0.7157618999 -0.633548677
3.229404449 0.7159418464 -0.5172238946
3.42344594 0.7577061653 -0.4253805578
5.091393471 1.125938535 -0.4524872303
3.222168207 0.7102088332 -0.05689305067
5.818068981 1.29090023 0.5176797509
5.933169365 1.314268708 0.7410221696
5.935852051 1.312686682 0.9561790824
5.902075768 1.304139733 1.166669011
5.907102108 1.303085089 1.386595011
5.913677216 1.302371144 1.610941887
1.971126318 0.4315776527 -0.5290782452
3.080560684 0.673361361 -0.7180404067
3.21423173 0.7019920349 -0.6312589645
3.270484924 0.7130817771 -0.5234813094
3.404733896 0.741106391 -0.4226994514
5.091398716 1.107313514 -0.4521385729
6.01734066 1.304295301 -0.1067720279
5.984640121 1.307052493 0.3188318014
5.954907894 1.299466968 0.529532969
5.941599846 1.294393539 0.741509676
5.932676792 1.2902807 0.9549276233
5.921940804 1.286863446 1.16972208
5.909710407 1.282045722 1.386145115
5.925740242 1.28335464 1.613012314
3.079082012 0.6617842913 -0.717140615
3.19938755 0.6870572567 -0.6278244257
3.2671597 0.7004182339 -0.5225427151
3.411181927 0.7300503254 -0.423186928
5.025093555 1.074534893 -0.4458633959
3.306966305 0.7059358954 -0.1750125885
6.014033794 1.281614065 -0.106632404
3.21203661 0.6909481287 0.05664871633
5.971094131 1.281184435 0.5305787921
5.953846455 1.275307059 0.7424846292
5.933281422 1.268736124 0.9543018341
5.930236816 1.26700294 1.170485258
5.914149761 1.261407614 1.386145115
5.922624588 1.261057019 1.610941887
3.085186958 0.6518371105 -0.7180404067
3.20752883 0.6771023273 -0.6289692521
3.333371401 0.7024505138 -0.532867372
3.411767244 0.7177290916 -0.4229431748
5.024914265 1.05616653 -0.4455147684
6.012598515 1.259384871 -0.1065276861
4.979130268 1.052899003 0.08813285828
4.981347561 1.05155158 0.264611721
5.965783119 1.258276224 0.529707253
5.960204601 1.254926801 0.7427283525
5.93960762 1.248422146 0.9546146989
5.923095226 1.243875265 1.168195605
5.928053379 1.242753148 1.388394594
5.92509985 1.239978194 1.61042428
1.992560029 0.4144527912 -0.5337369442
3.083626986 0.640273571 -0.717140615
3.223329306 0.6686925888 -0.6316406131
3.397701025 0.7036314607 -0.5428791642
3.410363913 0.7050107718 -0.4224556983
5.055885792 1.044265389 -0.4479551315
4.977166176 1.03253305 0.2641930282
5.874543667 1.217631102 0.521165967
5.952884674 1.231699228 0.741265893
5.94586277 1.22808516 0.9549276233
5.923555851 1.22239697 1.167432308
5.938080788 1.223236561 1.389744282
5.927500248 1.218897462 1.609906554
2.029956341 0.414845556 -0.5435720682
3.085843325 0.6295049787 -0.717140615
3.269888639 0.666457057 -0.6404178143
3.386586905 0.6890092492 -0.5406891108
3.408913374 0.6923126578 -0.4219682217
4.945512772 1.00797689 0.2623089552
5.75966692 1.172865033 0.5105329752
5.747055054 1.168207765 0.7149421573
5.952049255 1.207713962 0.9552404881
5.931634903 1.202493906 1.168195605
5.93467474 1.200953722 1.387944698
5.944974422 1.200878024 1.61353004
1.999192715 0.4012933075 -0.5347722173
3.093753815 0.6198787093 -0.718490243
3.369600296 0.6733137369 -0.5375604033
3.401575327 0.6784667373 -0.4207495451
3.439304352 0.6853695512 -0.3031022847
4.954703331 0.9927471876 0.2626229823
5.771541119 1.15431428 0.5112302303
5.73747015 1.145420432 0.7132359743
5.954084873 1.187581658 0.9549276233
5.943497658 1.183315992 1.16972208
5.931184769 1.178712368 1.386145115
5.950818539 1.181534529 1.614047647
1.996790767 0.3935647011 -0.5337369442
3.086232424 0.6077326536 -0.7162407637
3.224375486 0.6337664127 -0.6304957271
3.267143488 0.6415804029 -0.5206654668
3.396014452 0.6656563282 -0.4197745621
4.964018345 0.9766013622 0.2629370093
5.752074242 1.129554987 0.5091384649
5.754873753 1.129061699 0.7149421573
5.960132122 1.167171478 0.9552404881
5.955096722 1.165106297 1.171248555
5.940799236 1.16015625 1.387494802
5.943529129 1.158535838 1.610941887
2.005671024 0.3884104788 -0.5358074307
3.10364151 0.5999153256 -0.7198399901
3.249591589 0.6275366545 -0.6350751519
3.249966145 0.6264340281 -0.517536819
3.392469168 0.6526736021 -0.4190433919
5.028716087 0.9665592909 -0.4442946017
4.961346149 0.9589985013 0.2626229823
5.744050026 1.108210802 0.5080926418
5.774374008 1.111967921 0.7168920636
5.958150387 1.146282196 0.9543018341
5.951415062 1.142829418 1.16972208
5.962037563 1.14271462 1.391543865
5.954928398 1.140271664 1.613012314
2.012708426 0.3824884892 -0.5373603702
3.090297699 0.5867111683 -0.7162407637
3.257548809 0.6172868609 -0.6362199783
3.244262218 0.614182651 -0.5162853599
3.406318426 0.6436305642 -0.4205057919
5.045764446 0.9515832067 -0.4455147684
4.958776474 0.9405587316 0.2623089552
5.761587143 1.090746164 0.5093128085
5.752672195 1.088021398 0.7137234807
5.977644444 1.12840724 0.9568048716
5.949384212 1.121997237 1.168577194
5.965794563 1.122935891 1.391543865
5.95697403 1.119122744 1.612494707
2.021562099 0.377229929 -0.5394309759
3.07700038 0.5730667114 -0.7126415372
3.263437986 0.6071999669 -0.6369832158
3.250270605 0.6035763621 -0.5169110894
3.398785114 0.6299282908 -0.4192870855
5.09982872 0.9442778826 -0.4500468671
5.00113821 0.9314219952 0.2644023895
5.773006916 1.073091626 0.510010004
5.762290478 1.06901896 0.7144547105
5.993006706 1.11073947 0.9586820006
5.955194473 1.101581573 1.168958783
5.969677448 1.102105737 1.391543865
5.958752632 1.099013329 1.6119771
2.022866726 0.3701705039 -0.5394309759
3.08846879 0.5646127462 -0.7148910761
3.537861347 0.6454897523 -0.6907913685
3.265857697 0.5952749252 -0.5191011429
3.39304328 0.6172320247 -0.4183121622
3.29968071 0.5984637141 -0.1735471785
6.038944244 1.093107462 -0.1064229831
4.984712124 0.9103695154 0.2633556724
5.77867794 1.053292036 0.5101843476
5.754086494 1.047769308 0.7129922509
5.989073277 1.088401794 0.9574305415
5.970405579 1.083929896 1.171248555
5.965629101 1.080914974 1.389744282
5.979660988 1.081298828 1.616635799
2.031752348 0.364471972 -0.5415015221
3.092435598 0.5536317825 -0.7153409719
3.551799059 0.6345911622 -0.6930810809
3.28357482 0.5860769153 -0.5216041207
3.385510921 0.6030519009 -0.4170934558
3.635228157 0.6462243795 -0.3193132579
3.329485893 0.5906729698 -0.1750125885
6.068506718 1.075504065 -0.1068767458
4.988015175 0.8920946717 0.2633556724
5.776435852 1.032061458 0.5096614361
5.771567345 1.029113054 0.7146983743
5.9910779 1.066095829 0.9571176767
5.974523067 1.060998559 1.171248555
5.969551563 1.059038162 1.389744282
5.96646452 1.056345463 1.6119771
2.014046907 0.3536818922 -0.5363250971
3.111719847 0.5453203917 -0.7193900943
3.565704107 0.6235989332 -0.6953707933
3.289592743 0.5747171044 -0.5222298503
3.387698412 0.5906400681 -0.4170934558
3.637572527 0.6328952909 -0.3193132579
3.370984793 0.5852999091 -0.1771060228
6.076348782 1.053936601 -0.1069465503
5.764478683 1.008138299 0.5082669258
5.779212475 1.008633494 0.7151858807
6.000783443 1.045145631 0.9580563307
5.9822402 1.039767504 1.172011733
5.982993126 1.038819671 1.391993761
5.966487885 1.033811688 1.610941887
2.00771451 0.3449885249 -0.5342546105
3.09449029 0.530618906 -0.7148910761
3.556249142 0.609158814 -0.6930810809
3.301412821 0.5643211603 -0.5237941742
3.389840841 0.5782171488 -0.4170934558
3.612262249 0.6155093908 -0.3168728948
3.384821653 0.5755373836 -0.1777340621
6.070312977 1.029987335 -0.1067720279
5.777954102 0.9886851311 0.5091384649
5.778956413 0.9867777228 0.7146983743
6.002626419 1.022814035 0.9577434659
5.974220753 1.016901016 1.16972208
5.996366501 1.018516898 1.39424324
5.98547554 1.014514804 1.61508286
2.050817728 0.3450298309 -0.5456426144
3.092479944 0.5191677213 -0.7139912248
3.569970846 0.5986904502 -0.6953707933
3.324793816 0.5563791394 -0.5272357464
3.391838074 0.566383183 -0.4170934558
3.582945347 0.597650528 -0.314083904
3.335585356 0.5551949143 -0.1750125885
6.085706711 1.010755777 -0.1069814488
5.791194916 0.9701545835 0.510010004
5.778450012 0.9659461379 0.7142109871
6.013954639 1.003153205 0.958994925
5.98160696 0.9966874719 1.170485258
5.984506607 0.9950209856 1.390644073
5.992791176 0.9942519665 1.616118193
2.055822134 0.3384962082 -0.5466778874
3.100041866 0.5093197227 -0.7153409719
3.560415268 0.5843166709 -0.6930810809
3.340361118 0.5470069051 -0.5294257998
3.395656824 0.5554518104 -0.4173371792
3.592874765 0.5864263773 -0.3147811592
6.075208664 0.9883258939 -0.1067371219
5.796512604 0.9502544403 0.5101843476
5.768073559 0.9435249567 0.7125048041
6.011399269 0.9822502136 0.9580563307
5.996675491 0.9776955843 1.172774911
5.987772942 0.9751714468 1.390644073
5.999869347 0.9749917984 1.617153525
2.007345438 0.3236814439 -0.5332192779
3.113258123 0.5008932948 -0.7180404067
3.556517839 0.5715728402 -0.6919362545
3.349958897 0.5371770263 -0.5306773186
3.403360367 0.5451309085 -0.418068409
3.645952702 0.5826827884 -0.3193132579
6.082402706 0.9688017964 -0.1068069339
5.793730736 0.9300782681 0.5096614361
5.782930374 0.9262769818 0.7139672041
6.016573906 0.9626206756 0.9583691359
6.009578228 0.9593532085 1.174683094
6.002520561 0.9571493268 1.393343449
6.003069401 0.9550912976 1.617153525
1.981693029 0.3128056228 -0.5259723663
3.122601748 0.4917799532 -0.7198399901
3.575848579 0.5625206232 -0.6953707933
3.347818375 0.5254532695 -0.5300515294
3.413087606 0.5344752073 -0.4190433919
6.083771706 0.9472550154 -0.1067720279
5.783005714 0.9086967111 0.5084412694
5.797737598 0.9089381099 0.7154296041
6.01794529 0.9413119555 0.9580563307
6.006907463 0.9385085702 1.173538208
6.007750034 0.9364950657 1.393793344
5.998731136 0.9329416752 1.61508286
1.967551708 0.3031870127 -0.521831274
3.103112936 0.477615267 -0.7148910761
3.566243172 0.5476236939 -0.6930810809
3.349721909 0.5131785274 -0.5300515294
3.418856859 0.5231592655 -0.4195308387
6.100076675 0.9312623143 -0.5361567736
6.092972279 0.9269135594 -0.1068767458
5.798112869 0.8893084526 0.5094871521
5.785177231 0.8862910867 0.7134797573
6.030958176 0.9217903614 0.959620595
6.006424904 0.9158952832 1.172774911
6.020775318 0.9159303308 1.396042824
6.001950741 0.9119977951 1.61508286
1.987701178 0.2991920114 -0.5270076394
3.110623837 0.4671073854 -0.7162407637
3.585606813 0.5377916694 -0.6965156198
3.359307528 0.5026526451 -0.5313030481
3.416824341 0.5100396872 -0.4190433919
6.121026039 0.9126089215 -0.5377255678
6.120065212 0.9080988169 -0.1072955951
6.088647842 0.9153894782 0.1067720279
5.805122375 0.8696553707 0.5098357201
5.786423683 0.8647865057 0.7132359743
6.040157318 0.9005519152 0.9605592489
6.013469696 0.8955001235 1.173538208
6.022008419 0.89462322 1.395593047
6.018630981 0.8919745088 1.618706465
2.023137093 0.2973080277 -0.5363250971
3.114163876 0.456528306 -0.7166906595
3.583577156 0.5247042179 -0.6957524419
3.368860245 0.4920645356 -0.5325545073
3.416619778 0.4978224933 -0.4187996387
6.137975216 0.8932467699 -0.5389457345
6.109599113 0.8869397044 -0.3213438988
6.107365131 0.8844388127 -0.1070163622
6.093785286 0.8944194317 0.1068069339
5.814059258 0.8512894511 0.305747807
5.81009388 0.8496732116 0.510010004
5.799228668 0.8460168242 0.7144547105
6.041309357 0.8791791201 0.9602463841
6.020443916 0.8750697374 1.174301386
6.019308567 0.8727594018 1.39424324
6.023619652 0.871237874 1.619224072
2.024162531 0.2902445793 -0.5363250971
3.113809109 0.4453797638 -0.7162407637
3.556234121 0.5080264211 -0.690028131
3.378379822 0.4814174771 -0.533806026
3.432094097 0.4878478348 -0.4205057919
6.113439083 0.8678965569 -0.5365054011
6.140344143 0.8695267439 -0.3228093386
6.114375114 0.8636724949 -0.1070861667
6.106767178 0.8745583892 0.1069814488
5.815018177 0.8307054043 0.3056431413
5.809080124 0.828822732 0.5096614361
5.804111481 0.8260467649 0.7146983743
6.046297073 0.8583647013 0.9605592489
6.039012909 0.8562524915 1.177354455
6.026177406 0.8522899151 1.395143151
6.032362938 0.8510141969 1.620777011
2.025163412 0.2831775844 -0.5363250971
3.119205236 0.4350454211 -0.717140615
3.591041803 0.5002151132 -0.6965156198
3.381995916 0.4698926508 -0.5341188312
3.455405235 0.4788628221 -0.423186928
6.122353077 0.847369194 -0.5370283127
6.137406349 0.8472695351 -0.3224953115
6.117352962 0.8423252702 -0.1070861667
6.105822086 0.8526846766 0.1069116443
5.83568573 0.8128833175 0.3065851629
5.800097466 0.8068941832 0.5086155534
5.820723057 0.8076927066 0.7164045572
6.053170204 0.8377938867 0.9611849785
6.030296326 0.8335555196 1.175064683
6.036838055 0.8323124647 1.396942735
6.023813725 0.8283743262 1.617671132
2.006998301 0.2734977305 -0.5311487317
3.114911556 0.4233679771 -0.7157908678
3.590820312 0.4874136448 -0.6961340308
3.377743006 0.4572900832 -0.5331802368
3.44918704 0.4657348394 -0.4222119749
6.133171558 0.8270564675 -0.5377255678
6.130429268 0.8245080113 -0.3219719529
6.122237682 0.8212338686 -0.1071210802
6.096873283 0.829746604 0.106702216
5.840466976 0.7927779555 0.3066898584
5.812750816 0.7879797816 0.5094871521
5.805803299 0.784977138 0.7142109871
6.059972763 0.8171856403 0.961810708
6.023440361 0.8111917973 1.1731565
6.045500755 0.8120115399 1.398292422
6.03432703 0.8083666563 1.619741678
2.027091026 0.2690314054 -0.5363250971
3.116370678 0.4124915004 -0.7157908678
3.59250021 0.4748753905 -0.6961340308
3.38911128 0.4467868507 -0.5347446203
3.462600231 0.4552470446 -0.4236744046
6.060954094 0.7957878709 -0.5311017036
6.127327919 0.8023300767 -0.3216579258
6.131015778 0.8006333709 -0.1072257906
6.109643459 0.8097773194 0.1068767458
5.839238644 0.7718609571 0.3064804971
5.821390629 0.768470943 0.510010004
5.818347931 0.7660002708 0.7154296041
6.062788486 0.7960287333 0.961810708
6.045701981 0.7927119732 1.176972866
6.046366215 0.7906525135 1.397842526
6.044774532 0.788295567 1.621812224
2.031849861 0.2624492943 -0.5373603702
3.117791653 0.4016100168 -0.7157908678
3.582452536 0.4608302414 -0.6938443184
3.40044713 0.4362097085 -0.5363089442
3.483859062 0.4456755221 -0.4261117876
6.049860954 0.7728574872 -0.529881537
6.029048443 0.7680629492 -0.3163196743
6.034584999 0.7666278481 -0.1054805443
6.106482983 0.787676692 0.1067720279
5.830011368 0.749945879 0.3058524728
5.833919525 0.7494136095 0.5108816028
5.807203293 0.7439213395 0.7137234807
6.067490101 0.7751095295 0.9621236324
6.054274082 0.7723503709 1.178117633
6.054888248 0.770277977 1.399192214
6.058988571 0.768653512 1.624917984
2.040420771 0.2563178241 -0.5394309759
3.119174242 0.3907265663 -0.7157908678
3.591831684 0.449296087 -0.6953707933
3.409789085 0.4253176153 -0.5375604033
5.116481781 0.6363846064 -0.6279274225
6.109859943 0.7588605881 -0.5349366069
6.138727188 0.7602672577 -0.3219719529
6.102716923 0.753644824 -0.106632404
6.025861263 0.7559010386 0.1053060293
5.842503071 0.7308287621 0.3063758314
5.828591347 0.7280554175 0.5101843476
5.81961441 0.7248712182 0.7149421573
6.076039314 0.7546599507 0.9630622268
6.078365326 0.7538686991 1.182315469
6.059474468 0.7493811846 1.39964211
6.053965092 0.7465516329 1.622847557
2.033632278 0.2482588887 -0.5373603702
3.128257036 0.3807772696 -0.7175904512
3.60896945 0.4386495948 -0.6984237432
3.405369997 0.4126987457 -0.536621809
5.118671417 0.6185219884 -0.6279274225
6.138186455 0.740629673 -0.5372026563
6.16117239 0.7412213683 -0.3230186701
6.148861885 0.7386516929 -0.107400313
6.105878353 0.7443003654 0.1066673175
6.074878693 0.7394455671 0.3185177743
5.989327431 0.7269107103 0.5241292715
5.893054962 0.7131363153 0.7237167954
6.090275288 0.7359271049 0.9649394751
6.077061176 0.7321752906 1.181552172
6.073662281 0.7296180725 1.402341604
6.062162399 0.7271605134 1.624400496
2.030649662 0.2407033294 -0.5363250971
3.135308266 0.3710877895 -0.7189401984
3.602679968 0.42513147 -0.6968972683
3.410643578 0.4018652141 -0.5372475386
5.14435339 0.6043246984 -0.6308523417
5.250246048 0.6149039865 -0.4587624371
6.15367794 0.71962744 -0.3224953115
6.15140295 0.7171819806 -0.107400313
6.124198914 0.7259327173 0.1069465503
6.123042107 0.7236284018 0.3209252357
6.110550404 0.7199866176 0.5345879793
6.100422382 0.7177168131 0.749065578
6.10261631 0.7158125043 0.9665037394
6.067756176 0.7106499672 1.179262519
6.083790779 0.7103754282 1.404141188
6.058906078 0.7053291202 1.622847557
2.050628662 0.2361779362 -0.5415015221
3.123032331 0.3585858941 -0.7157908678
3.60406971 0.4131812155 -0.6968972683
3.425763845 0.3915282786 -0.5394376516
5.130652428 0.5845646858 -0.6289023757
5.250276566 0.5972660184 -0.4585881531
5.247233868 0.5950647593 -0.2745555639
5.253740311 0.5939452648 -0.09158843011
6.128682137 0.704777658 0.1069814488
6.119577885 0.7015665174 0.3206112087
6.1148839 0.6999471784 0.5347622633
6.102890968 0.696416378 0.749065578
6.109003544 0.6949539185 0.9671295285
6.079953194 0.6905744076 1.181170583
6.074615002 0.6878204346 1.401441693
6.072849751 0.6854737997 1.625953317
2.043760777 0.228160575 -0.5394309759
3.133948803 0.3487606049 -0.7180404067
3.609392643 0.4010307491 -0.6976605058
3.464413404 0.3837000132 -0.5453821421
5.124769211 0.5657815933 -0.6279274225
5.284015656 0.5824291706 -0.4613771439
5.257220745 0.5776185393 -0.2749742568
5.249818325 0.5749481916 -0.0914837122
5.232805729 0.5832558274 0.09120447934
6.116035461 0.6795376539 0.3202971816
6.12719059 0.6796975732 0.5356338024
6.109230518 0.6755437851 0.7495530844
6.109428406 0.6734101176 0.9668166041
6.088181496 0.6699898839 1.182315469
6.080852985 0.6670381427 1.402341604
6.086728096 0.665532589 1.629059196
2.040703535 0.2206103057 -0.5383957028
3.144834757 0.3388619721 -0.720289886
3.602962494 0.3875899911 -0.6961340308
3.481444836 0.3732885122 -0.5478850603
3.887133837 0.4154150784 -0.4748595357
6.171588421 0.6584636569 -0.5392944217
5.719970703 0.6082602143 -0.2992581427
6.160449982 0.6540133357 -0.1074352115
5.2447505 0.5660578609 0.09137900174
6.130169392 0.6605374217 0.3209252357
6.121602535 0.6574529409 0.5349366069
6.123394489 0.6554834843 0.7510154843
6.101807117 0.6520955563 0.9652522802
6.102196693 0.6499829888 1.184605122
6.092833519 0.6468349695 1.404590964
6.077375412 0.6441212893 1.625953317
2.022247076 0.2114766985 -0.5332192779
3.134311914 0.3272180259 -0.7175904512
3.604293346 0.3750117123 -0.6961340308
3.468909979 0.3603120446 -0.5456950068
3.878617287 0.4015013874 -0.4736408293
6.169885635 0.6365091801 -0.5389457345
6.165001869 0.6349180341 -0.3225999773
6.166674137 0.6329150796 -0.1075050309
6.157492161 0.643920362 0.107365407
6.150315762 0.640999794 0.3218672872
6.111969948 0.6348438859 0.5338907242
6.129483223 0.6355846524 0.7515029311
6.115835667 0.6320090294 0.9671295285
6.104318142 0.6297450066 1.184605122
6.098822594 0.6270237565 1.405490875
6.093038559 0.6242829561 1.629576802
2.053689957 0.207881853 -0.5415015221
3.141251802 0.3168611228 -0.7189401984
3.613330603 0.363843143 -0.6976605058
3.460319042 0.3472157121 -0.5441306829
3.858267307 0.3857883215 -0.4709596932
6.183857441 0.6172311902 -0.5399916172
6.189042568 0.6155670285 -0.3237513602
6.153733253 0.6218209267 0.1072606966
6.148433685 0.6201984882 0.3216579258
6.127917767 0.6159713864 0.5351108909
6.131664753 0.6141832471 0.7515029311
6.123794556 0.6123184562 0.9680681229
6.098664761 0.6076529026 1.183078647
6.11260891 0.606887579 1.40819025
6.07585144 0.6021673083 1.624400496
2.054403067 0.2007122934 -0.5415015221
3.132587671 0.3054974973 -0.7166906595
3.618486643 0.3516085744 -0.6984237432
3.43589139 0.3332604766 -0.5400633812
3.82988739 0.3701263666 -0.4673036337
6.193907261 0.5964069366 -0.5406888723
6.164867878 0.5903502703 -0.107400313
6.161732197 0.6019926071 0.107365407
6.114779472 0.5952507257 0.3197738528
6.14192915 0.5957296491 0.5361567736
6.125763893 0.5930825472 0.7505280375
6.135725975 0.5918854475 0.9696324468
6.10455513 0.5878032446 1.183841944
6.101008892 0.5853125453 1.40504086
6.099070072 0.5829782486 1.630094409
2.055091143 0.1935393214 -0.5415015221
3.133686304 0.2940146327 -0.7166906595
3.615782738 0.3386085033 -0.6976605058
3.46462512 0.3232347965 -0.5444434881
3.825288534 0.3555345237 -0.4665724039
6.215790272 0.5766242146 -0.5424319506
6.193189144 0.5723443627 -0.3237513602
6.19685936 0.570502162 -0.1079238877
6.169870853 0.5799646378 0.107470125
6.152714252 0.5761854649 0.3216579258
6.151906013 0.575026691 0.5368540287
6.139756203 0.571729362 0.7519904375
6.131953239 0.5688468218 0.9686938524
6.118397713 0.5665094256 1.186131597
6.103113174 0.5629487038 1.40504086
6.106936932 0.5611488223 1.631647348
2.044210672 0.1853184849 -0.5383957028
3.140516043 0.2835992277 -0.7180404067
3.609121323 0.3252808452 -0.6961340308
3.467700243 0.3113147318 -0.5447564125
3.80871129 0.3405891657 -0.4643787742
6.180886269 0.5472786427 -0.1076097414
6.160655499 0.5552440882 0.3219719529
6.151891708 0.5533718467 0.5366796851
6.149623394 0.5510011315 0.7529653907
6.135868549 0.5476128459 0.9690066576
6.132071495 0.5461922288 1.188421369
6.112805843 0.5423287153 1.406840563
6.108858585 0.5398295522 1.631647348
2.056392193 0.1791883409 -0.5415015221
3.170608521 0.2751630247 -0.7247889042
3.623981237 0.3132330477 -0.6988053918
3.464829683 0.2988695204 -0.5441306829
3.81383276 0.3276309669 -0.4648662508
6.211056709 0.529199183 -0.3244840503
6.171776772 0.5367034078 0.1074352115
6.14584589 0.531206429 0.5359824896
6.155464172 0.5298762918 0.7534528971
6.137742996 0.5261896849 0.9690066576
6.128163338 0.5232136846 1.187276483
6.126311779 0.5219786763 1.409539938
6.110706329 0.5185006857 1.631647348
2.033933163 0.1697227955 -0.5352898836
3.150233269 0.2617644072 -0.7198399901
3.619235039 0.2994635403 -0.6976605058
3.465901852 0.286167413 -0.5441306829
3.805116177 0.3128379583 -0.4636475444
6.187652588 0.5152420402 0.1076795533
6.153708458 0.5091714859 0.5365054011
6.157365322 0.5073131919 0.7534528971
6.153412342 0.5048221946 0.9711968303
6.122212887 0.5001113415 1.185750008
6.132068157 0.4998391271 1.41043973
6.110640049 0.4959454536 1.631129742
2.034541845 0.16226542 -0.5352898836
3.149228811 0.2500629425 -0.7193900943
3.667229652 0.290548712 -0.7068193555
3.488589048 0.2751716971 -0.5475721955
3.790404797 0.2976469994 -0.461697638
5.883748055 0.4609966278 -0.5126247406
5.832371712 0.4549230635 -0.3043870628
5.853498936 0.4545126557 -0.1017806381
6.175395489 0.4881851077 0.538248539
5.91379118 0.4654245675 0.7232292891
6.169005871 0.4833468497 0.9733868837
6.127835751 0.4790421724 1.186513186
6.133859158 0.4773619771 1.41043973
6.129751205 0.4748898149 1.63578856
2.046653271 0.1560451686 -0.5383957028
3.169514179 0.2405423969 -0.7238891125
3.629067898 0.2747838497 -0.6991869807
3.461951256 0.2609132528 -0.543192029
3.793400526 0.2845616937 -0.4619413912
6.188454151 0.4609683454 -0.3230186701
6.160165787 0.4566991627 -0.1071210802
5.838254452 0.4441046417 0.1015014052
5.787583351 0.4382211864 0.3019796014
6.133544922 0.4558018446 1.409989834
6.123664856 0.4529184997 1.633717895
2.070306778 0.150581196 -0.5446073413
3.156728745 0.2284931242 -0.7207397819
3.614339828 0.260982275 -0.6961340308
3.49042511 0.2508100569 -0.5475721955
3.770610094 0.2696185112 -0.4590165019
6.239831924 0.4428973198 -0.325635463
6.217574596 0.4391394258 -0.1080984101
6.198770523 0.4497694075 0.1077842638
5.850831509 0.4224736392 0.3052244186
6.156793118 0.4434832633 0.5363310575
5.731536865 0.4078271091 1.108663201
6.137042046 0.4345279336 1.41043973
6.129063129 0.4318100214 1.634753227
2.043838263 0.1414861977 -0.5373603702
3.16139555 0.2177396566 -0.7216396332
3.615228653 0.2483650148 -0.6961340308
3.505074978 0.239566654 -0.5497623086
3.741820574 0.2544357181 -0.4553604126
6.247318268 0.4215182364 -0.3259494901
6.221064568 0.417565614 -0.1081333086
6.21227169 0.4289596975 0.1079936922
6.166254997 0.4225384593 0.5370283127
5.948048115 0.4054972827 0.7268853784
6.167817116 0.4183168411 0.9724482894
5.734884262 0.3879488111 1.10904479
6.159909248 0.4145406783 1.415388584
6.13438797 0.4106723368 1.63578856
2.059741259 0.1353639513 -0.5415015221
3.173803568 0.207466349 -0.7243390083
3.63566494 0.2370202541 -0.6999502182
3.480263472 0.2256692648 -0.5456950068
3.764476538 0.2427788824 -0.4580415487
6.245513439 0.4016915858 -0.5438264608
6.262703419 0.4006022811 -0.3266821802
6.222484112 0.3958488107 -0.1081333086
6.215727329 0.4074013233 0.1080286056
6.194446087 0.4038351476 0.3231233358
6.193538666 0.4026904702 0.5392944217
5.925655365 0.3831962943 0.7239605188
6.179096222 0.3974198401 0.9740126133
5.775387287 0.3704425097 1.116677046
6.161318779 0.3930344284 1.415388584
6.130000114 0.3888912201 1.63423562
2.048632622 0.1274529994 -0.5383957028
3.174508572 0.1963855922 -0.7243390083
3.634510517 0.2242061198 -0.6995685697
3.484973669 0.2137604505 -0.5463207364
3.761338234 0.2293960601 -0.4575541019
6.262787342 0.3808541 -0.5452209711
6.232165813 0.3768115938 -0.3250074387
6.239797115 0.375084132 -0.1084125564
6.217746735 0.3835611045 0.3242747486
6.206837654 0.3818037808 0.5403402448
6.1766119 0.3777775168 0.7546715736
6.200163364 0.3770457804 0.9771412611
5.829556942 0.3534872532 1.126980901
6.152927876 0.37093997 1.413139224
6.14289093 0.3681859374 1.63734138
2.160919905 0.1268686503 -0.5684186816
3.17128396 0.1850768924 -0.7234392166
3.57059288 0.2077554017 -0.6869751811
3.499502897 0.2023934424 -0.5485107899
3.742297888 0.2151248902 -0.455116719
6.241419315 0.3555076122 -0.3254261315
6.245061398 0.3535282612 -0.1084823683
3.665179491 0.2145425975 0.06338534504
3.662885189 0.2131254375 0.1900853515
6.216089249 0.3605954349 0.5410374999
6.183838367 0.3565588892 0.7554028034
6.191580772 0.35483706 0.9755769968
5.993439674 0.3424322605 1.158655167
6.163912296 0.3500136733 1.415388584
6.157639503 0.3475013077 1.640964866
2.792104483 0.1541471481 -0.737686336
3.171910524 0.1740065962 -0.7234392166
3.555613756 0.1944319159 -0.6839222312
3.553444624 0.1930710077 -0.5569583178
3.762848377 0.2031295747 -0.4575541019
3.615264416 0.1945315152 -0.3130380213
6.278522491 0.3356363177 -0.3273102343
5.792964935 0.3076517284 -0.1005589664
3.608002424 0.1985598356 0.06237310171
6.213331223 0.3386765122 0.5406888723
6.192974091 0.3353988826 0.756377697
6.192781925 0.3332235515 0.9755769968
6.200444221 0.3325476646 1.198724985
6.176772118 0.3291188776 1.418088078
6.154956818 0.3257991374 1.639929533
2.788766861 0.1442023367 -0.7366511226
3.191960573 0.1639321595 -0.7279382348
3.560192108 0.1822224855 -0.6846854687
3.565934181 0.1812667549 -0.5588355064
3.801169395 0.1925593615 -0.4621851146
3.703475952 0.1863144338 -0.3207077384
6.27766037 0.3136197627 -0.3272055387
3.602682352 0.1856563538 0.06226839125
6.204526424 0.3164796829 0.5398172736
6.215915203 0.3148853779 0.7590588927
6.205689907 0.3132815659 0.9774541855
6.183920383 0.3100186586 1.195290446
6.177830219 0.3086324632 1.418088078
6.154074192 0.3052922785 1.639411926
2.796948195 0.1353263408 -0.7387216091
3.18080759 0.1527844816 -0.7252388
3.560776949 0.1704144776 -0.6846854687
3.819633007 0.1807986498 -0.4643787742
3.710043907 0.1743117422 -0.3212306798
3.60327816 0.1737091392 0.06226839125
6.197581291 0.2955246568 0.5391200781
6.208993435 0.2938967347 0.7580838799
6.216560364 0.2931675613 0.9790185094
6.16530323 0.2885935903 1.191474319
6.188552856 0.2885994911 1.420337677
6.160842419 0.2851492167 1.640964866
2.810890675 0.1266598552 -0.7423450947
3.181296825 0.142236352 -0.7252388
3.56527257 0.1581570655 -0.6854487062
3.574951649 0.1579612941 -0.5600869656
3.80040884 0.1665941626 -0.4619413912
3.688734055 0.160410583 -0.3193132579
3.631749392 0.1566607505 -0.1883059144
3.6058321 0.161847949 0.06230329722
6.224403381 0.2761172652 0.5413861275
6.209933758 0.2733065784 0.7580838799
6.223466396 0.2717227638 0.9799571037
6.181964874 0.2677488923 1.194527268
6.18757534 0.2669099867 1.419887662
6.179170609 0.2643866539 1.645623565
2.819056988 0.1166740805 -0.7444156408
3.181796789 0.1305760443 -0.7252388
3.556020021 0.1446903199 -0.6835406423
3.565637827 0.1444583535 -0.5585226417
3.789092779 0.1521866918 -0.4604789317
3.578415155 0.1412229389 -0.1854797751
3.614393234 0.1489610076 0.06244291365
6.245280743 0.2541131973 0.5431292057
6.218828678 0.2508597076 0.7590588927
6.230341911 0.2491489649 0.9808957577
6.202521324 0.2458680421 1.198343396
6.18267107 0.2440004647 1.418538094
6.18202877 0.2418139726 1.646141291
2.809813261 0.105977498 -0.7418274879
3.182254076 0.1189140156 -0.7252388
3.542770386 0.1317649037 -0.6808692813
3.570091248 0.1315349191 -0.5591483712
3.76978755 0.1375730485 -0.4580415487
3.578886271 0.1287301332 -0.1854797751
3.617144585 0.1294758916 -0.06247781962
6.262645721 0.2351131737 0.1086917892
6.239192486 0.2331452519 0.3250074387
6.242188454 0.2310724109 0.5427806377
6.223673344 0.2282117307 0.7595463395
6.211432934 0.2266774178 0.9777670503
6.199418068 0.224072203 1.197580218
6.195208073 0.2217578143 1.42123735
6.178973675 0.2200940102 1.645105958
2.808235407 0.09610328823 -0.7413098216
3.194316387 0.1087576002 -0.7279382348
3.543208838 0.1193982661 -0.6808692813
3.554713726 0.1191648841 -0.5566453934
5.222511768 0.1732471734 -0.6364583373
5.562070847 0.1825705469 -0.4831660688
3.6072402 0.11777284 -0.1869451702
3.545622826 0.1145239025 -0.06122124568
6.257395744 0.2141402811 0.1085870713
6.245956898 0.2115661651 0.3253214657
6.223043919 0.2086154819 0.5410374999
6.248203754 0.2083672434 0.762471199
6.222058296 0.205321148 0.9793314338
6.207975388 0.2037718445 1.199106574
6.201752186 0.2014005929 1.422587037
6.170050144 0.1982122213 1.642517805
2.812400341 0.086910218 -0.7423450947
3.179093838 0.09712975472 -0.7243390083
3.555359364 0.1080062911 -0.6831590533
5.215147495 0.1547841579 -0.6354833245
5.877336502 0.1723845005 -0.5107073188
3.579679728 0.1043680906 -0.1854797751
3.617960453 0.1042185724 -0.06247781962
6.272097111 0.1927278489 0.1088314131
6.252645969 0.189945668 0.325635463
5.713157177 0.1705628932 0.6966617703
6.232609272 0.1838904917 0.9808957577
6.204724312 0.1819869131 1.198343396
6.204366207 0.1798060089 1.423037052
6.184221745 0.1770648062 1.646141291
2.816562176 0.07670613378 -0.7433803678
3.191101789 0.08634900302 -0.7270384431
3.62245822 0.09675588459 -0.6961340308
3.537703514 0.09325639904 -0.5538296103
5.211687088 0.1364736408 -0.6349958777
5.883877754 0.1520205438 -0.5112302303
3.600004196 0.09175518155 -0.1865264922
3.618302107 0.0915896669 -0.06247781962
6.276729107 0.1709401608 0.1089012176
6.251274109 0.1680633575 0.3255307674
5.666675568 0.1503672898 0.4922302365
