# .PCD v0.7 - Point Cloud Data file format
VERSION 0.7
FIELDS x y z
SIZE 4 4 4
TYPE F F F
COUNT 1 1 1
WIDTH 1228
HEIGHT 1
VIEWPOINT 0 0 0 1 0 0 0
POINTS 1228
DATA ascii
-1.210511208 2.405787468 -0.5152471066
-1.212469578 2.411775827 -0.4208602607
-1.209381104 2.407726049 -0.3256914616
-1.217739701 2.42542243 -0.2337263227
-1.21350503 2.41909337 -0.1396334618
-1.214989781 2.424164057 -0.04663103446
-1.216943026 2.416469097 0.04652632028
-1.215561867 2.415825129 0.139528811
-1.220327735 2.426351547 0.2339006215
-1.199105382 2.38623023 0.3227665722
-1.21652472 2.423002243 0.4227374792
-1.224722862 2.440392971 0.5224978328
-1.207251906 2.40767622 0.6118634343
-1.207534671 2.410339594 0.7107691765
-1.191641331 2.385888815 -0.7030045986
-1.19653666 2.397783756 -0.6087141633
-1.198601484 2.402971029 -0.5137206316
-1.207568526 2.423065186 -0.4221117496
-1.204507709 2.419041157 -0.3266663849
-1.209266543 2.429658175 -0.2337263227
-1.206831455 2.426891804 -0.1398428231
-1.211858392 2.439135551 -0.04684046283
-1.238869667 2.481532335 0.04771308228
-1.236541152 2.479032755 0.1429829746
-1.213629246 2.434162378 0.2342492491
-1.190769196 2.390401125 0.3227665722
-1.203659058 2.418391943 0.4211731255
-1.218820572 2.4499259 0.5236426592
-1.200575471 2.415365458 0.612763226
-1.200831532 2.418000698 0.7118044496
-1.183306217 2.390033722 -0.7030045986
-1.191614985 2.408932686 -0.6105137467
-1.190206766 2.407140017 -0.5137206316
-1.197352409 2.423723698 -0.4214859903
-1.199571252 2.430351019 -0.3276413381
-1.195488214 2.423143864 -0.2326804549
-1.198353171 2.431089163 -0.1398428231
-1.213055849 2.463083982 -0.0472244136
-1.230199337 2.48584199 0.04771308228
-1.23673296 2.501237392 0.1440296918
-1.19982779 2.427667379 0.2332033813
-1.189448357 2.408782482 0.3247164786
-1.197831392 2.4278934 0.4221117496
-1.21112895 2.455926657 0.5240243077
-1.195581555 2.426534414 0.6145628691
-1.187265038 2.411778212 0.7086986303
-1.173253417 2.390681267 -0.7019693255
-1.181483626 2.409577847 -0.609613955
-1.186980367 2.421857357 -0.516010344
-1.18541038 2.420791626 -0.4202345312
-1.1893363 2.430957079 -0.3271538615
-1.190524101 2.434461117 -0.2333776802
-1.191613913 2.43884635 -0.1400521696
-1.218487024 2.496055365 -0.04778289422
-1.210946918 2.468576908 0.04729422554
-1.2130512 2.475051165 0.1422502697
-1.188717246 2.426472664 0.2326804549
-1.179288149 2.409353733 0.324229002
-1.191952944 2.437382936 0.4230503142
-1.197376251 2.449556112 0.5217345953
-1.195655346 2.448203802 0.6190618873
-1.183922529 2.426324368 0.7118044496
-1.169125795 2.403448582 -0.704557538
-1.168805718 2.404924154 -0.6073644161
-1.180234551 2.429518461 -0.5167735815
-1.17867744 2.428469658 -0.4208602607
-1.18084383 2.435093403 -0.3271538615
-1.182018399 2.438602448 -0.2333776802
-1.17961061 2.435800791 -0.1396334618
-1.217604637 2.516494274 -0.04809703678
-1.21543932 2.499764204 0.04781780019
-1.217494369 2.506217957 0.1438203603
-1.185462356 2.44136095 0.2337263227
-1.165671349 2.402740002 0.3227665722
-1.187745094 2.450417042 0.4246146679
-1.188817739 2.453721046 0.5217345953
-1.185404539 2.448854208 0.6181620955
-1.174604297 2.428703785 0.7112868428
-1.159890532 2.405774593 -0.7040398717
-1.162941456 2.414256334 -0.6087141633
-1.17345047 2.43716073 -0.517536819
-1.17361927 2.439689398 -0.4221117496
-1.172761679 2.438996315 -0.3271538615
-1.180401564 2.457080603 -0.2347721756
-1.17455852 2.447105885 -0.1400521696
-1.199738622 2.500685453 -0.04771308228
-1.190211058 2.469765186 0.04715460539
-1.199642897 2.490448236 0.1426689625
-1.179524541 2.450870037 0.2342492491
-1.15641737 2.405004978 0.3225228488
-1.174479008 2.443659544 0.4227374792
-1.183645368 2.464934826 0.5232610703
-1.172218323 2.442230225 0.6154626608
-1.172391653 2.444778442 0.7149102688
-1.154406428 2.414836168 -0.7055928111
-1.158287883 2.425133705 -0.6105137467
-1.160287619 2.430408001 -0.5152471066
-1.167222619 2.44713378 -0.4227374792
-1.163812399 2.44108057 -0.3269101381
-1.168819189 2.45378685 -0.2340749502
-1.16815412 2.454593897 -0.1402615011
-1.190579772 2.502844572 -0.04767817631
-1.204430819 2.520609617 0.04806213081
-1.200845599 2.514237642 0.1438203603
-1.17053318 2.45296979 0.2340749502
-1.151852131 2.415994406 0.323497802
-1.163820028 2.442190886 0.4217988551
-1.180528045 2.479482651 0.5255507827
-1.165788412 2.449623108 0.6163624525
-1.162618279 2.445163965 0.7138749957
-1.143909335 2.413414478 -0.7040398717
-1.154410124 2.437767267 -0.612763226
-1.153900981 2.437791824 -0.516010344
-1.157412648 2.447419405 -0.4221117496
-1.157828808 2.450512171 -0.3276413381
-1.160247326 2.457851648 -0.2340749502
-1.163416386 2.465679407 -0.140680179
-1.192921519 2.53049922 -0.04813193902
-1.192640066 2.517361403 0.04792251065
-1.195480347 2.525634766 0.1442390382
-1.164095759 2.460440159 0.2344235629
-1.148076296 2.42877388 0.3247164786
-1.161192536 2.458742142 0.4239889383
-1.168947339 2.476281643 0.5240243077
-1.158892393 2.457202911 0.6172622442
-1.150782585 2.442216873 0.7118044496
-1.133414626 2.414093256 -0.7030045986
-1.144237399 2.438254118 -0.6118634343
-1.151626229 2.456224918 -0.5190632939
-1.148435235 2.451644897 -0.4221117496
-1.152635455 2.461729765 -0.3286163211
-1.153349757 2.465495586 -0.2344235629
-1.152679443 2.466308594 -0.1404708475
-1.185774326 2.53827095 -0.04820175096
-1.182146549 2.517888784 0.04785270244
-1.195987701 2.549682379 0.1453904361
-1.151687503 2.45747447 0.2337263227
-1.141276002 2.436361551 0.3252039552
-1.154276848 2.466359138 0.4246146679
-1.15820086 2.476992369 0.5232610703
-1.153178453 2.468496084 0.6190618873
-1.139798045 2.440968037 0.7102515101
-1.126611114 2.421537638 -0.7040398717
-1.128722191 2.428293943 -0.6082642078
-1.139735818 2.453108311 -0.517536819
-1.138206244 2.452055216 -0.4214859903
-1.145274758 2.469539881 -0.3291037679
-1.143060088 2.465891838 -0.2340749502
-1.140706658 2.46306777 -0.1400521696
-1.183180332 2.557119131 -0.04848098755
-1.177125573 2.531271219 0.04802722484
-1.177376747 2.534124613 0.1442390382
-1.144781113 2.465093136 0.2340749502
-1.125654221 2.426122904 0.3232540786
-1.146060705 2.472365141 0.4249275625
-1.149546862 2.481020451 0.5232610703
-1.141279459 2.465432882 0.6172622442
-1.138142705 2.460909605 0.7149102688
-1.126238823 2.44299984 -0.7092162371
-1.120239615 2.432219028 -0.6082642078
-1.132808566 2.460638285 -0.5183000565
-1.132942319 2.463191986 -0.4227374792
-1.13250351 2.464503527 -0.3278850913
-1.137771249 2.477109194 -0.2347721756
-1.133768439 2.47066474 -0.1402615011
-1.17341435 2.559415817 -0.0484460853
-1.28628242 2.791442394 0.05294880643
-1.278773785 2.777697802 0.1580557227
-1.143665671 2.485363483 0.2356437296
-1.121325016 2.439055443 0.3244727552
-1.140720844 2.483530998 0.4261790216
-1.149071336 2.502859831 0.5270772576
-1.133478403 2.471173286 0.6177121997
-1.131155729 2.468379736 0.7159455419
-1.117703676 2.44691658 -0.7092162371
-1.117405534 2.448524714 -0.6114135981
-1.124211669 2.464577913 -0.5183000565
-1.129251719 2.477916956 -0.4246146679
-1.123893261 2.468441963 -0.3278850913
-1.127467513 2.477438688 -0.2344235629
-1.130096793 2.485516548 -0.1408895403
-1.154548049 2.541648626 -0.04802722484
-1.170223355 2.563074589 0.04848098755
-1.162972093 2.549551249 0.1446577311
-1.134155989 2.487528086 0.2354694307
-1.11362648 2.444761276 0.3247164786
-1.128772497 2.48030591 0.4249275625
-1.141952872 2.510429859 0.5278404951
-1.12403965 2.473340273 0.6172622442
-1.124129176 2.47583127 0.7169808149
-1.102783799 2.436722755 -0.7050751448
-1.113669395 2.463064194 -0.6141129732
-1.115602374 2.468486786 -0.5183000565
-1.120595813 2.48184371 -0.4246146679
-1.12016809 2.483206749 -0.3293475211
-1.11717546 2.477726221 -0.2340749502
-1.123054862 2.493088007 -0.1410988867
-1.142386794 2.53836894 -0.04788760841
-1.146433592 2.534348965 0.04785270244
-1.272511244 2.81567812 0.1597304791
-1.121365428 2.482393026 0.2345978767
-1.106719494 2.452251911 0.3252039552
-1.118484378 2.480629206 0.4243018329
-1.131570101 2.510820627 0.5270772576
-1.11860013 2.484356642 0.6190618873
-1.109933019 2.467407465 0.7133573294
-1.092691183 2.437031746 -0.7040398717
-1.103470922 2.46337986 -0.6132131815
-1.110188603 2.479533195 -0.5198264718
-1.107085347 2.474921227 -0.4227374792
-1.111492515 2.487102032 -0.3293475211
-1.111769438 2.488887787 -0.2347721756
-1.112717032 2.493345499 -0.1408895403
-1.140033007 2.556952477 -0.04816684499
-1.142486215 2.549284697 0.04806213081
-1.139432549 2.544847488 0.1439250112
-1.114320517 2.489929438 0.2349465042
-1.098153353 2.456099987 0.3252039552
-1.11465168 2.495340109 0.4261790216
-1.117996812 2.503998995 0.5247875452
-1.116271615 2.502484083 0.6226611137
-1.104458213 2.478325367 0.7154279351
-1.085745335 2.444362164 -0.7050751448
-1.088542342 2.45296669 -0.609613955
-1.104710102 2.490572214 -0.5213530064
-1.100040793 2.482382298 -0.4233632088
-1.102804661 2.490966558 -0.3293475211
-1.102269173 2.490931273 -0.2345978767
-1.10077703 2.489907265 -0.1404708475
-1.130293369 2.559087038 -0.04813193902
-1.134392619 2.555084705 0.04809703678
-1.144308567 2.579846859 0.1457044482
-1.108852863 2.501089334 0.2356437296
-1.087964773 2.456288576 0.3247164786
-1.110731363 2.510054111 0.4280562401
-1.114013672 2.518659592 0.5270772576
-1.105954647 2.502799988 0.621761322
-1.097361565 2.485699892 0.7164632082
-1.081874013 2.458747149 -0.708180964
-1.084679246 2.467455149 -0.6123133898
-1.093639731 2.489021063 -0.5202081203
-1.092957377 2.489824295 -0.4239889383
-1.093740106 2.492792368 -0.3291037679
-1.100765705 2.511186838 -0.2361666709
-1.092079401 2.49373436 -0.1404708475
-1.130620599 2.58297205 -0.04851589352
-1.261520982 2.868380308 0.05399594828
-1.122083902 2.552544355 0.1439250112
-1.104121923 2.514065742 0.2365152985
-1.079383492 2.460071802 0.3247164786
-1.101608634 2.511914253 0.4277433455
-1.106790185 2.526129484 0.5278404951
-1.092959046 2.495743275 0.6190618873
-1.092209101 2.496404886 0.7185336947
-1.07834816 2.472945929 -0.7112868428
-1.079603314 2.478184938 -0.6141129732
-1.083029032 2.487233877 -0.5190632939
-1.089422107 2.504303694 -0.4258661568
-1.086259723 2.498225927 -0.3293475211
-1.092432857 2.514823198 -0.2361666709
-1.090164304 2.511999846 -0.1413082182
-1.118070483 2.577534199 -0.04834137112
-1.128958941 2.590244293 0.04862061143
-1.117600799 2.565406799 0.1444483697
-1.095778227 2.517713547 0.2365152985
-1.078344226 2.480021715 0.3269101381
-1.089335322 2.506495476 0.4261790216
-1.099971414 2.533387184 0.5286037326
-1.084676266 2.499354124 0.6190618873
-1.082388401 2.496468067 0.7174984813
-1.06477797 2.4640944 -0.7076632977
-1.072924733 2.48532939 -0.6150127649
-1.079005837 2.501815319 -0.5213530064
-1.081112027 2.507902384 -0.4258661568
-1.080673933 2.509294987 -0.3303224742
-1.078922391 2.507640362 -0.235120818
-1.081389666 2.515789509 -0.1413082182
-1.109065771 2.581421614 -0.04834137112
-1.251984119 2.898713589 0.05441480875
-1.323869944 3.068091869 0.1729191393
-1.083478451 2.512185574 0.2356437296
-1.071685672 2.487229586 0.3273976147
-1.079798818 2.508468151 0.4258661568
-1.09267354 2.540818691 0.5293669701
-1.080563188 2.513866901 0.621761322
-1.072905779 2.498455763 0.7169808149
-1.051939845 2.459100008 -0.7050751448
-1.063807726 2.489245415 -0.6150127649
-1.068286538 2.502142429 -0.5205897689
-1.067260265 2.500947237 -0.4239889383
-1.073025942 2.516891479 -0.3308099508
-1.069724798 2.511577606 -0.235120818
-1.073724866 2.523411989 -0.1415175647
-1.073770761 2.524742842 -0.04718951136
-1.11399281 2.605417252 0.04876022786
-1.107060194 2.591705561 0.1454951018
-1.074262857 2.516140223 0.2356437296
-1.061782837 2.489315033 0.3271538615
-1.076792002 2.526947498 0.4283691347
-1.078738809 2.533967972 0.5270772576
-1.077445507 2.532155991 0.6253604889
-1.064496398 2.504149437 0.7174984813
-1.050453186 2.480728149 -0.7102515101
-1.054677486 2.493127584 -0.6150127649
-1.06489861 2.51851368 -0.5232610703
-1.062699199 2.515759945 -0.4258661568
-1.062690139 2.51696372 -0.3303224742
-1.065597653 2.526310682 -0.2361666709
-1.061808228 2.519782305 -0.1410988867
-1.06650424 2.532161236 -0.04725931957
-1.091965914 2.580017805 0.04820175096
-1.092560291 2.582677841 0.1447623968
-1.069687843 2.53107214 0.2366896123
-1.049564004 2.485874653 0.3261789382
-1.070269346 2.536149979 0.4293076992
-1.072938323 2.5449543 0.5286037326
-1.067843795 2.534105539 0.6249106526
-1.060245514 2.518533468 0.7206043005
-1.042968869 2.485979319 -0.7107691765
-1.047910213 2.50020647 -0.6159126163
-1.055024385 2.518409491 -0.5224978328
-1.054350138 2.51927042 -0.4258661568
-1.055870414 2.524136305 -0.3308099508
-1.060286641 2.537184238 -0.2368639261
-1.054984689 2.526976109 -0.1413082182
-1.062721133 2.546757221 -0.04746875167
-1.055564523 2.51723671 0.04694517702
-1.064688087 2.540236712 0.1421456039
-1.067444086 2.549307823 0.2380841076
-1.042081356 2.491172791 0.3264226317
-1.064138651 2.545153379 0.4302463233
-1.067519069 2.555744886 0.5301302075
-1.058683038 2.535834789 0.6244606972
-1.055606604 2.530950308 0.723192513
-1.04139185 2.505479336 -0.7154279351
-1.042603135 2.510866165 -0.6177121997
-1.042903662 2.512828112 -0.5205897689
-1.050530195 2.533701181 -0.4277433455
-1.045533061 2.524139166 -0.3303224742
-1.050343275 2.537004232 -0.2365152985
-1.04812634 2.534151554 -0.1415175647
-1.055352569 2.554147243 -0.04753855988
-1.06102109 2.553962946 0.04757346213
-1.054283857 2.540248156 0.1419362575
-1.054404378 2.541791439 0.2370382249
-1.03685379 2.501950264 0.3273976147
-1.041647077 2.515999556 0.4246146679
-1.060539961 2.562898874 0.530893445
-1.04982543 2.539514542 0.6244606972
-1.042341471 2.523905993 0.7200866342
-1.031905055 2.507312536 -0.7149102688
-1.038278937 2.525304317 -0.6204116344
-1.035618901 2.520084858 -0.5213530064
-1.041679978 2.537352562 -0.4277433455
-1.041234732 2.538793325 -0.331784904
-1.038458943 2.533281088 -0.2358180583
-1.043814778 2.548884869 -0.1421456039
-1.043401122 2.550412655 -0.04739893973
-1.051338196 2.555802107 0.04753855988
-1.046169996 2.545759916 0.1420409232
-1.045524836 2.545456648 0.2370382249
-1.033389688 2.518409729 0.3291037679
-1.040351391 2.537897587 0.4277433455
-1.051586628 2.566585302 0.530893445
-1.041693211 2.544966936 0.6249106526
-1.032793164 2.5257411 0.7195689678
-1.021687984 2.507321835 -0.7138749957
-1.026517987 2.521693707 -0.6186119914
-1.031254411 2.53459549 -0.5236426592
-1.028352976 2.529993534 -0.4258661568
-1.033860445 2.546090603 -0.3322723806
-1.033659935 2.548148155 -0.2368639261
-1.033410907 2.548810959 -0.1419362575
-1.041999936 2.572573185 -0.04774798453
-1.035622597 2.542788267 0.0472244136
-1.041040063 2.558646441 0.1425642818
-1.035132527 2.545399427 0.2366896123
-1.024591804 2.522001982 0.3291037679
-1.036685467 2.554326773 0.4299334586
-1.042621732 2.570240259 0.530893445
-1.034266353 2.552200079 0.6258104444
-1.026145697 2.534702539 0.7211219072
-1.016103983 2.520007849 -0.7164632082
-1.016253114 2.521646261 -0.6177121997
-1.023424864 2.542000532 -0.5244059563
-1.023496389 2.544741631 -0.4277433455
-1.024967313 2.549683809 -0.3322723806
-1.025500655 2.553589821 -0.2370382249
-1.021086693 2.545166969 -0.1415175647
-1.03375721 2.578051329 -0.04778289422
-1.028984189 2.551951408 0.04732913151
-1.027625561 2.551148891 0.1419362575
-1.028770685 2.556569815 0.2373868525
-1.009856701 2.510828972 0.3271538615
-1.029235125 2.561595917 0.4305591881
-1.031732202 2.570400238 0.5301302075
-1.022003412 2.548739195 0.6240108609
-1.020166993 2.545441628 0.723192513
-1.010165334 2.530715942 -0.7185336947
-1.007003427 2.525354385 -0.6177121997
-1.015998483 2.549205303 -0.5251691937
-1.016068101 2.551969767 -0.4283691347
-1.011212587 2.542356253 -0.3308099508
-1.019525528 2.56455946 -0.237735495
-1.015145659 2.556140661 -0.1419362575
-1.024752378 2.58164382 -0.04778289422
-1.022587299 2.563135624 0.04746875167
-1.016494155 2.549155235 0.1416222453
-1.025739431 2.574952602 0.2387813479
-1.005050659 2.525580406 0.3286163211
-1.018827677 2.56150198 0.4299334586
-1.025652766 2.581284285 0.5316566825
-1.010944128 2.546857119 0.6226611137
-1.016261816 2.561557293 0.7268159389
-1.001325846 2.534226656 -0.7185336947
-1.00291872 2.539554834 -0.6204116344
-1.004212379 2.545430899 -0.5236426592
-1.011948228 2.566350937 -0.4302463233
-1.004230738 2.549390078 -0.3312974572
-1.009838223 2.566248178 -0.2375611663
-1.012511015 2.574362516 -0.1427736282
-1.007691026 2.564731836 -0.04739893973
-1.018491507 2.577670813 0.04767817631
-1.009790063 2.558260918 0.1419362575
-1.015283823 2.574810266 0.2384327203
-0.9966704845 2.528899193 0.3286163211
-1.008433342 2.561366081 0.4293076992
-1.021401048 2.595632315 0.5339463949
-1.006771088 2.56107688 0.6253604889
-1.002370477 2.552502394 0.723192513
-0.9879894853 2.524939775 -0.7149102688
-0.9961756468 2.548485518 -0.621761322
-1.000053048 2.559718847 -0.5259323716
-1.001546621 2.566187382 -0.4296205938
-0.9996526241 2.563976526 -0.3327598572
-0.9998751879 2.565870285 -0.2372125536
-1.004968286 2.581603289 -0.1429829746
-1.006573439 2.573761225 0.04753855988
-1.002754569 2.5653162 0.1421456039
-1.00673914 2.578163147 0.2384327203
-0.9936087132 2.547157526 0.3305662274
-1.006391406 2.581260443 0.4321235418
-1.013758779 2.6028409 0.5347096324
-1.000650883 2.571840525 0.6271601319
-0.9925007224 2.552211046 0.7221571803
-0.9812620878 2.533778191 -0.7164632082
-0.9863126874 2.548139811 -0.6208614707
-0.9925272465 2.566856384 -0.5266956091
-0.9901835322 2.562124252 -0.4283691347
-0.9954349995 2.578388691 -0.3342222869
-0.9930638671 2.574921608 -0.237735495
-0.9949656129 2.581194401 -0.1427736282
-0.9894915819 2.569665432 -0.04736403748
-0.9973114729 2.575220108 0.04750365391
-1.010369062 2.611643314 0.1445530504
-0.9955793023 2.576086044 0.2379097939
-0.9822946787 2.543031693 0.3295912445
-0.9973754883 2.584757566 0.4321235418
-1.000883698 2.595197916 0.5324198604
-0.9942191839 2.580599785 0.6285098791
-0.985667944 2.561068296 0.7237101197
-0.9754245877 2.54637742 -0.7190513611
-0.975127697 2.548268557 -0.619961679
-0.9817105532 2.566809416 -0.5259323716
-0.9824526906 2.571443319 -0.4293076992
-0.9859773517 2.582020044 -0.3342222869
-0.9864593744 2.585990667 -0.2384327203
-0.9864689708 2.588728666 -0.1429829746
-1.008535504 2.648024797 -0.04876022786
-1.129701138 2.950662851 0.05444971099
-1.121421576 2.930573463 0.1622426063
-0.9932442307 2.59832859 0.2396529019
-0.9703978896 2.54122138 0.3288600743
-0.9878945351 2.588396072 0.4321235418
-0.9937085509 2.60635972 0.5339463949
-0.9833655357 2.580584526 0.6276100278
-0.9797102213 2.573691368 0.7262982726
-0.9697146416 2.556823254 -0.7211219072
-0.9687438011 2.556955099 -0.6213114262
-0.97875458 2.584739208 -0.5289853215
-0.9760173559 2.580229998 -0.4302463233
-0.9731981158 2.57413435 -0.3327598572
-0.9813987613 2.598566532 -0.2393042892
-0.9750594497 2.584510565 -0.1425642818
-1.003982425 2.662581205 -0.04896965623
-1.01004529 2.66456461 0.04903946444
-1.008386612 2.661590338 0.1469605118
-0.9888544083 2.612788439 0.2406987846
-0.9633700848 2.548138857 0.3293475211
-0.9800044894 2.593505621 0.4324364364
-0.9864472151 2.613314152 0.5347096324
-0.9761789441 2.587477922 0.6285098791
-0.9759397507 2.589580297 0.7299218178
-0.9619101286 2.561833382 -0.7216395736
-0.9623129964 2.565627098 -0.6226611137
-0.9646639228 2.57326436 -0.5259323716
-0.9716115594 2.59455204 -0.4321235418
-0.9683805108 2.588671207 -0.3342222869
-0.9709265232 2.598244429 -0.2389556617
-0.9706769586 2.598955631 -0.1431923211
-0.9960795045 2.669816971 -0.04903946444
-1.185284495 3.158416033 0.05818452686
-1.208013058 3.222404003 0.17815274
-0.9731946588 2.597395658 0.2389556617
-0.9590891004 2.562474489 0.3308099508
-0.966794014 2.585808992 0.4305591881
-0.9805238843 2.623927355 0.5362361073
-0.9678218365 2.592695236 0.6289597154
-0.9635201097 2.583920479 0.7273336053
-0.9484787583 2.554475546 -0.7185336947
-0.956740737 2.578105688 -0.6249106526
-0.9586386085 2.585986614 -0.5278404951
-0.9593521357 2.590685844 -0.4308720827
-0.9607157111 2.595759153 -0.3347097635
-0.9577060938 2.59040451 -0.2379097939
-0.9625279903 2.606243372 -0.1434016526
-0.9888319373 2.678905249 -0.04914418235
-0.9974531531 2.686375141 0.04931870475
-0.9953371882 2.683546543 0.1477978826
-0.9657441378 2.606550217 0.239478603
-0.95151788 2.569529772 0.3312974572
-0.960503757 2.59657836 0.4318106472
-0.9709007144 2.627503157 0.5362361073
-0.9583131075 2.596225023 0.6289597154
-0.9531566501 2.583643198 0.7262982726
-0.9408878088 2.561398029 -0.7195689678
-0.9466142654 2.57976532 -0.6244606972
-0.9516332746 2.594847202 -0.5289853215
-0.9489446282 2.590308905 -0.4302463233
-0.9539247751 2.606719494 -0.3356847465
-0.9513962865 2.601216555 -0.238607049
-0.9541106224 2.611463308 -0.1435063332
-0.9918216467 2.716151476 -0.04977246746
-1.046870589 2.851450205 0.0523205176
-1.001788616 2.73012948 0.150205344
-0.9566402435 2.609905243 0.239478603
-0.9441404939 2.578592062 0.3320286274
-0.9568656087 2.61475563 0.4343136251
-0.9590262771 2.623501062 0.5347096324
-0.9572665095 2.621520519 0.6343585849
-0.94678092 2.594214201 0.7283688784
-0.9345808029 2.571929216 -0.7216395736
-0.9367231131 2.579226971 -0.6235609055
-0.9452483654 2.60553503 -0.5305117965
-0.9416956902 2.597156048 -0.4308720827
-0.9452745914 2.609869003 -0.3356847465
-0.9450211525 2.612015963 -0.2393042892
-0.9440864325 2.610856771 -0.1432970017
-1.023094296 2.832442999 -0.05186675489
-1.090678692 3.001504421 0.05504309386
-0.9731722474 2.681042194 0.147274524
-0.9502401352 2.620721102 0.2401758432
-0.9288215637 2.56304574 0.3295912445
-0.9490765333 2.621794939 0.4349393547
-0.9529933929 2.634051085 0.5362361073
-0.9459178448 2.617349863 0.6325589418
-0.9403440356 2.604771137 0.7304394245
-0.9299699068 2.585921526 -0.7247454524
-0.9277148247 2.582481146 -0.6235609055
-0.9366033673 2.608654976 -0.5305117965
-0.9366258383 2.611583233 -0.4327492714
-0.9321422577 2.60193944 -0.3342222869
-0.9358982444 2.61529851 -0.2393042892
-0.9349675775 2.614135981 -0.1432970017
-0.9943639636 2.783269405 -0.05088942125
-0.9760317206 2.715491295 0.04966775328
-0.9631319642 2.682543278 0.1471698433
-0.9435635805 2.629483461 0.2406987846
-0.9225490689 2.573746681 0.3305662274
-0.9399195313 2.625091553 0.4349393547
-0.9451165199 2.641058445 0.5369993448
-0.9334953427 2.611460686 0.6303094625
-0.9305969477 2.6062181 0.7299218178
-0.9178968072 2.582031965 -0.7226748466
-0.9199999571 2.589375973 -0.6244606972
-0.9244087338 2.604670048 -0.5289853215
-0.9296871424 2.622446299 -0.4340007603
-0.9257053137 2.612662077 -0.3351972401
-0.9294217229 2.62606287 -0.2400015444
-0.9293736219 2.628843784 -0.1439250112
-0.9686530232 2.741472721 -0.05005170777
-1.069697618 3.009045601 0.05504309386
-1.082751632 3.049137831 0.1673715413
-0.9352510571 2.636679888 0.2410473973
-0.918865025 2.591919422 0.3325161338
-0.9281124473 2.620908737 0.4336878955
-0.939357698 2.655610085 0.5392889977
-0.9245674014 2.61670208 0.6307593584
-0.9253528118 2.620380402 0.7330275774
-0.9075972438 2.581574678 -0.7216395736
-0.9156681895 2.607439995 -0.6280599236
-0.9179123044 2.615290403 -0.5305117965
-0.9179137945 2.618218899 -0.4327492714
-0.9207164645 2.62915206 -0.3369034231
-0.9176172018 2.621768713 -0.2393042892
-0.9234877229 2.641498327 -0.1444483697
-0.9493691325 2.71857357 -0.04956303909
-0.9559121728 2.720519304 0.04963284731
-0.9458958507 2.695020437 0.1474838704
-0.923404336 2.632408142 0.240350157
-0.9132980704 2.606509924 0.3339785635
-0.9211107492 2.631750345 0.4349393547
-0.9313792586 2.66257906 0.5400522947
-0.9192851186 2.630951166 0.6334587336
-0.9125599861 2.614634514 0.7304394245
-0.9023858905 2.595675945 -0.7247454524
-0.9072007537 2.61246109 -0.6285098791
-0.9113519192 2.625897884 -0.5320382714
-0.9100635648 2.625139713 -0.433375001
-0.9134812951 2.637977362 -0.3376346231
-0.9097636938 2.628721237 -0.2396529019
-0.9129558206 2.640930891 -0.1442390382
-0.9398730397 2.721871138 -0.04956303909
-1.040262222 2.993955851 0.05462423339
-0.9430305958 2.71717453 0.1485305876
-0.9142091274 2.635615587 0.240350157
-0.9035435915 2.607806921 0.3337348402
-0.9151494503 2.644283056 0.4365036786
-0.9182281494 2.654681921 0.5377625823
-0.9151873589 2.648879051 0.63705796
-0.906578064 2.626935005 0.7330275774
-0.8933203816 2.598809719 -0.7247454524
-0.8968095779 2.61192584 -0.6276100278
-0.9060041308 2.640204906 -0.5343280435
-0.90217489 2.632038116 -0.4340007603
-0.9036251307 2.639271975 -0.3373908997
-0.9044517875 2.643191814 -0.2406987846
-0.9024403691 2.640321493 -0.1440296918
-0.9334280491 2.732542276 -0.04970265925
-0.9310486317 2.710105658 0.04931870475
-0.9307724833 2.710841656 0.148007229
-0.9075894952 2.646328926 0.2410473973
-0.8899322748 2.597798824 0.3320286274
-0.9076547027 2.651041508 0.4371294677
-0.9102271199 2.661586046 0.5385257602
-0.9034150243 2.644681454 0.6352583766
-0.8966140747 2.626270533 0.7319923043
-0.8861086965 2.607399225 -0.7262982726
-0.8893972635 2.618575811 -0.6285098791
-0.8974138498 2.645210266 -0.5347096324
-0.895345211 2.640627146 -0.4349393547
-0.8974155784 2.649774551 -0.3383658528
-0.8990498781 2.657656908 -0.2417446524
-0.8962389827 2.650867462 -0.1444483697
-0.9213240147 2.728205681 -0.04956303909
-0.9259176254 2.724538088 0.04952813312
-0.9245133996 2.723530531 0.1485305876
-0.9021857977 2.660801888 0.2420932651
-0.8838604689 2.608256578 0.3330036104
-0.9002959132 2.659806967 0.4380680621
-0.9051699638 2.675748348 0.5408155322
-0.8933916092 2.64397049 0.6343585849
-0.8923840523 2.644027233 0.7361334562
-0.8786877394 2.613986015 -0.7273336053
-0.8814911246 2.625359297 -0.6294096708
-0.884888947 2.637004137 -0.5324198604
-0.8886326551 2.651228666 -0.4361908436
-0.8850089312 2.64347887 -0.3371471465
-0.8877035975 2.653065681 -0.2410473973
-0.8895118833 2.661557436 -0.1448670775
-0.9124290347 2.733301878 -0.04959794506
-0.9214954376 2.742918491 0.04980736971
-0.9118246436 2.717273474 0.148007229
-0.8908224702 2.656223297 0.2413960099
-0.8779038787 2.620737076 0.3342222869
-0.8903784752 2.661060095 0.4377551973
-0.8970701694 2.68261528 0.5415787101
-0.8841575384 2.647072792 0.6343585849
-0.8819258213 2.643461466 0.7350981832
-0.8677310944 2.611537218 -0.7257806659
-0.8753912449 2.637667894 -0.6316591501
-0.878151536 2.647530556 -0.5339463949
-0.8793732524 2.65431428 -0.4361908436
-0.8820129633 2.665397882 -0.3395845294
-0.8784377575 2.656147957 -0.2410473973
-0.8827210665 2.672231913 -0.1452857554
-0.8991235495 2.72507596 -0.04938851297
-0.9131763577 2.749913931 0.04987718165
-0.9117662311 2.748875141 0.1495773047
-0.8802918196 2.655534029 0.2410473973
-0.8718707561 2.633207798 0.3354409933
-0.8804644346 2.66227603 0.4374423027
-0.8877011538 2.685730219 0.5415787101
-0.879799962 2.664946556 0.6379577518
-0.8690623641 2.63551569 0.7319923043
-0.8604173064 2.620056868 -0.7273336053
-0.8661779761 2.640707731 -0.6316591501
-0.8725732565 2.661773443 -0.5362361073
-0.8676431775 2.649858475 -0.4349393547
-0.8739370108 2.672234058 -0.340072006
-0.8703980446 2.66298604 -0.2413960099
-0.8721486926 2.671499491 -0.145076409
-0.903726995 2.769866228 -0.05015641823
-0.9085596204 2.768284798 0.05015641823
-0.9051347971 2.759474993 0.1499959975
-0.8710162044 2.658591032 0.2410473973
-0.8639078736 2.640008688 0.3359284699
-0.8747006655 2.67456913 0.4390066564
-0.8807585239 2.69627738 0.5431052446
-0.8717004657 2.671706915 0.6388576031
-0.8651095629 2.65307641 0.7361334562
-0.8536522388 2.63039422 -0.7294041514
-0.8568156362 2.641711712 -0.6312092543
-0.8656974435 2.672273636 -0.5377625823
-0.8600686193 2.656479836 -0.435565114
-0.8638496995 2.67133975 -0.3395845294
-0.8623225093 2.669799805 -0.2417446524
-0.8608300686 2.66677475 -0.1446577311
-0.88975811 2.759681225 -0.04991208389
-0.893202424 2.752261877 0.04980736971
-0.8973450065 2.768317223 0.1503100097
-0.8654133677 2.672988176 0.2420932651
-0.8514823318 2.631526709 0.3344660103
-0.8671822548 2.683244944 0.4399452507
-0.8718131185 2.699183226 0.5431052446
-0.8640331626 2.678292036 0.6397573948
-0.8582125902 2.663435221 0.7382039428
-0.8466960788 2.638728619 -0.7309570909
-0.8469936848 2.642831087 -0.6307593584
-0.8574305177 2.676999331 -0.5381441712
-0.8531974554 2.666991949 -0.4368165731
-0.8545190096 2.674339056 -0.3395845294
-0.8566330075 2.68418169 -0.2427905053
-0.8539441228 2.677374363 -0.145076409
-0.8582677841 2.694177866 -0.04865551367
-0.9299972653 2.900080919 0.05246013775
-0.9016891122 2.815180063 0.1527174562
-0.860188365 2.68722868 0.2431391329
-0.8441055417 2.640155077 0.3351972401
-0.857209146 2.684374094 0.4396324158
-0.8659677505 2.713431358 0.5453948975
-0.853494525 2.677578688 0.6388576031
-0.8512550592 2.673777819 0.7402745485
-0.8364348412 2.639972687 -0.7304394245
-0.841881752 2.658776045 -0.633908689
-0.8458363414 2.674508572 -0.5369993448
-0.8457973003 2.67763567 -0.4380680621
-0.8451792002 2.67730546 -0.3395845294
-0.8472575545 2.687155724 -0.2427905053
-0.8477255106 2.691916227 -0.1457044482
-0.8452566862 2.685712576 -0.0484460853
-0.8763822913 2.766055822 0.04994699359
-0.8653424978 2.734526396 0.1481119096
-0.8479322791 2.68276453 0.2424418926
-0.8354817629 2.644978762 0.3354409933
-0.846645534 2.683582067 0.4390066564
-0.8571960926 2.720332384 0.5461581349
-0.8460156322 2.68812418 0.6406571865
-0.8419171572 2.676732779 0.7402745485
-0.8243297338 2.633657932 -0.727851212
-0.8350377679 2.671144009 -0.6361581683
-0.8370813727 2.679318428 -0.5373809338
-0.8376215696 2.6843431 -0.4386937916
-0.8383144736 2.689860821 -0.3408032358
-0.8378717303 2.690097332 -0.2427905053
-0.840696156 2.702487469 -0.1461231261
-0.8376568556 2.694375277 -0.04855079576
-0.841165185 2.689091921 0.04848098755
-0.8397010565 2.686060905 0.1452857554
-0.8397507071 2.689511299 0.2427905053
-0.8305103183 2.663183689 0.3373908997
-0.8372735381 2.686520815 0.4390066564
-0.8488627672 2.727057219 0.546921432
-0.8377835155 2.694782734 0.6415569782
-0.8314214349 2.675966024 0.7392392755
-0.8185545206 2.647593498 -0.7309570909
-0.8238747716 2.666450739 -0.6343585849
-0.830617547 2.691603899 -0.5392889977
-0.826387167 2.679555178 -0.4374423027
-0.8328953981 2.704009056 -0.3422656655
-0.8308203816 2.700622559 -0.2434877604
-0.8317302465 2.705260277 -0.1461231261
-0.8341172338 2.716398954 -0.04889984801
-0.8346051574 2.699508905 0.04862061143
-0.8350345492 2.704242229 0.1461231261
-0.8303567171 2.692426443 0.2427905053
-0.8216735721 2.665923357 0.3373908997
-0.8313770294 2.700754881 0.4408838749
-0.8375049233 2.722351074 0.5453948975
-0.8299880624 2.701271772 0.6424568295
-0.8226428032 2.680698395 0.7397568822
-0.8114643693 2.655835867 -0.7325099707
-0.8134250641 2.66558218 -0.6334587336
-0.8239786625 2.701855183 -0.5408155322
-0.8187559843 2.688092232 -0.4383809268
-0.8217177391 2.701202869 -0.3415344656
-0.8208096623 2.701599836 -0.2433134466
-0.8199603558 2.700503111 -0.1457044482
-0.8275322318 2.728862047 -0.04907437414
-0.8234257102 2.696668148 0.04851589352
-0.8290861845 2.718602896 0.1467511654
-0.8260710835 2.710411549 0.2441850007
-0.8100509644 2.661178589 0.3364159465
-0.8230930567 2.707420826 0.4415096045
-0.8291389942 2.729014874 0.5461581349
-0.8216847181 2.707882166 0.6433566213
-0.8155209422 2.690949202 0.7418274879
-0.8045126796 2.668040514 -0.7350981832
-0.8063639402 2.675869226 -0.6352583766
-0.8140696287 2.704857349 -0.5408155322
-0.8123093247 2.702426195 -0.4402581453
-0.811142087 2.700252295 -0.341046989
-0.81595397 2.719715595 -0.244707942
-0.8123505712 2.711142778 -0.1461231261
-0.8180009127 2.731734276 -0.04907437414
-0.8168932199 2.709098577 0.04869041964
-0.8155591488 2.708093405 0.1460184604
-0.8178523183 2.719145298 0.244707942
-0.8024703264 2.66969347 0.3371471465
-0.8119339347 2.704601049 0.4405709803
-0.8202582002 2.735796928 0.546921432
-0.8095188141 2.703408003 0.6415569782
-0.8094463944 2.704883814 0.7449332476
-0.7940925956 2.66712904 -0.7340628505
-0.8004395366 2.691881657 -0.6384077072
-0.8023865223 2.700154066 -0.5392889977
-0.8051185608 2.712820292 -0.4415096045
-0.8012403846 2.703207016 -0.341046989
-0.8059808016 2.722687721 -0.244707942
-0.8062821031 2.725453138 -0.1467511654
-0.8057172298 2.727042675 -0.04893475026
-0.8109510541 2.725490808 0.04893475026
-0.8056285977 2.711064339 0.1460184604
-0.8077890873 2.720073223 0.2445336282
-0.7960674763 2.68403554 0.338609606
-0.8031371236 2.71134758 0.4411967695
-0.814047575 2.74993825 0.5492110848
-0.8022865653 2.713692665 0.6433566213
-0.7989806533 2.705979586 0.7444156408
-0.7832234502 2.666314363 -0.7330275774
-0.7910375595 2.694659472 -0.6384077072
-0.7957992554 2.714380741 -0.5415787101
-0.7962809205 2.719544172 -0.442135334
-0.7973735929 2.725039721 -0.3434843719
-0.793118 2.714010239 -0.2436620593
-0.7996441126 2.739893913 -0.1473791897
-0.7973123193 2.733678102 -0.04900455847
-0.8008694649 2.726386547 0.04889984801
-0.7978461981 2.719609737 0.1463324726
-0.7978134155 2.723015785 0.2445336282
-0.7861350775 2.684893131 0.3383658528
-0.7931139469 2.712238073 0.4408838749
-0.8039623499 2.752903461 0.5492110848
-0.7945181131 2.724097967 0.6451562047
-0.7884481549 2.705042601 0.7433803678
-0.7780742049 2.679893732 -0.7361334562
-0.7831832767 2.701011181 -0.6393074989
-0.7883598208 2.72063899 -0.5423419476
-0.7866355181 2.7182374 -0.4415096045
-0.7916402817 2.739110947 -0.3449468017
-0.7879055142 2.727973461 -0.244707942
-0.7882653475 2.732797146 -0.1468558311
-0.7899038792 2.742071629 -0.04910927638
-0.7912659645 2.72710681 0.04886494204
-0.7938268185 2.739505529 0.147274524
-0.7887011766 2.723594904 0.2443593293
-0.7788823247 2.693205833 0.3390970826
-0.7885011435 2.730035543 0.4433868229
-0.7942215204 2.751642942 0.5484478474
-0.7902747989 2.741560221 0.6487554312
-0.7800086737 2.709498882 0.7438979745
-0.7719085217 2.693735838 -0.7392392755
-0.7737494707 2.703728676 -0.6393074989
-0.7820965648 2.734699965 -0.54463166
-0.7771416903 2.720966816 -0.4415096045
-0.7820733786 2.741858006 -0.3449468017
-0.7816545367 2.742203712 -0.2457538247
-0.7781737447 2.733611345 -0.1467511654
-0.7819672227 2.750582933 -0.04921399057
-0.7839443684 2.737541676 0.04900455847
-0.7809635401 2.730738401 0.1466464847
-0.7824749351 2.737825394 0.2454051822
-0.7678413391 2.690181971 0.3383658528
-0.7811319232 2.740370512 0.4446382821
-0.7846109867 2.754398823 0.5484478474
-0.7785665989 2.736804962 0.6469558477
-0.7758247256 2.730788469 0.7490743995
-0.7640772462 2.701990843 -0.7407921553
-0.7632483244 2.702661991 -0.6384077072
-0.7725464106 2.737413406 -0.54463166
-0.7708547115 2.735070467 -0.4433868229
-0.7692713141 2.733105898 -0.3434843719
-0.773157239 2.748751163 -0.2461024374
-0.7686275244 2.736310959 -0.1467511654
-0.7729018331 2.75522089 -0.04924889654
-0.7749269605 2.742186069 0.04903946444
-0.7703422904 2.729603291 0.1464371532
-0.7772391438 2.755881071 0.2467996776
-0.758446753 2.692845821 0.3383658528
-0.7715620995 2.743080139 0.4446382821
-0.7781797051 2.768460989 0.5507375598
-0.7690092325 2.739505768 0.6469558477
-0.7673313022 2.737200022 0.7501096129
-0.7551606297 2.706502199 -0.7413098216
-0.757994771 2.720327616 -0.6420069337
-0.760353744 2.730636597 -0.5427235961
-0.7634203434 2.745357275 -0.4446382821
-0.7607879043 2.739599943 -0.3439718485
-0.7624926567 2.747593403 -0.2457538247
-0.7628044486 2.752450466 -0.1474838704
-0.7611453533 2.750193357 -0.04910927638
-0.7674977779 2.752579212 0.0491790846
-0.7656319737 2.749592066 0.1473791897
-0.7665455937 2.754738569 0.24645105
-0.7532935739 2.710777998 0.3403157592
-0.7609263659 2.741949558 0.4440125525
-0.771658361 2.782511711 0.5530272722
-0.7604826093 2.74592948 0.6478556395
-0.7588012218 2.743586063 0.7511449456
-0.7421190739 2.696084023 -0.737686336
-0.7515928745 2.734231472 -0.6447063684
-0.7528967857 2.740846634 -0.544250071
-0.7538318038 2.74800539 -0.4446382821
-0.7543677092 2.753726006 -0.3454342782
-0.7528963685 2.750238657 -0.2457538247
-0.756352663 2.766655684 -0.1481119096
-0.7515413165 2.752833128 -0.04910927638
-0.7589461207 2.759097815 0.04924889654
-0.756557703 2.754173994 0.1474838704
-0.7537611723 2.745869398 0.2454051822
-0.7469760776 2.724877596 0.3417782187
-0.7534361482 2.752210379 0.4452640414
-0.7619414926 2.785188198 0.5530272722
-0.7529464364 2.756086826 0.6496552229
-0.7461695075 2.735035419 0.7480391264
-0.7362472415 2.711708307 -0.7413098216
-0.7410233021 2.733076572 -0.6438065171
-0.7464060187 2.754827499 -0.5465397835
-0.7421704531 2.742993116 -0.4433868229
-0.746822536 2.764007807 -0.3464092314
-0.7432909012 2.752850056 -0.2457538247
-0.7440914512 2.759636879 -0.147588551
-0.7460874915 2.770887136 -0.04938851297
-0.7466928959 2.752080441 0.04907437414
-0.7490290999 2.764508724 0.1479025483
-0.746255219 2.756176472 0.2461024374
-0.7359061241 2.721719265 0.341046989
-0.7469133735 2.766266346 0.4471412599
-0.7501696348 2.78024888 0.5515007973
-0.7473765612 2.773751497 0.6532544494
-0.7376223207 2.741353989 0.7490743995
-0.7287750244 2.721726179 -0.7433803678
-0.7294656038 2.728116274 -0.6420069337
-0.7393185496 2.766900063 -0.5484478474
-0.734628737 2.753201246 -0.4446382821
-0.7381913066 2.77043438 -0.3468967378
-0.736753583 2.766979456 -0.2467996776
-0.7344532609 2.76221776 -0.147588551
-0.7399750948 2.78494215 -0.04959794506
-0.7412161231 2.770123959 0.049353607
-0.7408885956 2.77083683 0.1481119096
-0.7407409549 2.774164438 0.2474969327
-0.7258887887 2.722353458 0.3408032358
-0.7397710085 2.776363134 0.4483927488
-0.7404593825 2.782850504 0.5515007973
-0.736689508 2.772576571 0.6523546576
-0.7315015197 2.754988194 0.7521802187
-0.723215878 2.739196301 -0.7475214601
-0.7253867984 2.749362707 -0.6465059519
-0.7351583838 2.790346861 -0.5526456833
-0.7335422635 2.786186457 -0.449644208
-0.7340481281 2.79206562 -0.3493341208
-0.7351858616 2.800367594 -0.2495886683
-0.7293444276 2.780092716 -0.1484259069
-0.7363311052 2.810720921 -0.0500168018
-0.7340684533 2.780300617 0.04949323088
-0.7301942706 2.769543171 0.1479025483
-0.7356187701 2.794073582 0.249065727
-0.7188780308 2.732424736 0.3417782187
-0.7300757766 2.77892828 0.4483927488
-0.7342188358 2.796684265 0.5537905097
-0.727491796 2.775004148 0.6523546576
-0.7228580713 2.761262894 0.7532154918
-0.7209450603 2.767752171 -0.7547684312
-0.728048563 2.799027681 -0.6577534676
-0.7303453088 2.80987072 -0.5560802221
-0.7332405448 2.825058937 -0.4555887282
-0.7317672968 2.823435068 -0.3529901803
-0.7313895226 2.824006796 -0.2515060902
-0.7321367264 2.830962896 -0.1510427147
-0.733510077 2.838316441 -0.05047056451
-0.7369526625 2.83122611 0.05036585033
-0.7320663929 2.814474344 0.150205344
-0.7358664274 2.833137274 0.2523776591
-0.7232893705 2.788720131 0.348602891
-0.7178820968 2.769860983 0.4465155005
-0.7274026871 2.810633898 0.5560802221
-0.7178001404 2.777526855 0.6523546576
-0.714664042 2.767385483 0.7542507648
-0.7132017612 2.777736425 -0.7568389177
-0.7216690779 2.812752247 -0.6604529023
-0.7205331922 2.812402725 -0.5560802221
-0.7238688469 2.827474594 -0.4555887282
-0.7253508568 2.837385416 -0.35445261
-0.7220207453 2.828472853 -0.2516804039
-0.7247201204 2.84111619 -0.1514613926
-0.7231050134 2.838921547 -0.05043565854
-0.7275590897 2.833654642 0.05036585033
-0.7262063622 2.832490206 0.1510427147
-0.7244893312 2.829898357 0.2518547177
-0.7179741263 2.806488276 0.3505527973
-0.7091875672 2.776177645 0.4471412599
-0.7180787921 2.813030481 0.5560802221
-0.710511446 2.787445068 0.6541542411
-0.7040473223 2.766119003 0.7532154918
-0.7058840394 2.787576914 -0.7589095235
-0.7094570398 2.805808067 -0.6582033634
-0.715051055 2.830003977 -0.559133172
-0.7130274177 2.826153755 -0.4549629688
-0.7198058963 2.857224703 -0.3566462696
-0.7140955925 2.836647987 -0.2522033453
-0.7138237953 2.83975482 -0.1512520611
-0.7151388526 2.849186659 -0.0505752787
-0.7176640034 2.836176872 0.05036585033
-0.7172937989 2.838880301 0.1512520611
-0.7165634632 2.838080645 0.2523776591
-0.7086591721 2.810902119 0.3507965207
-0.7038319111 2.795876741 0.4499570727
-0.7063399553 2.807904005 0.5545537472
-0.7036248446 2.801248789 0.6568536758
-0.6962665915 2.776054859 0.7552860379
-0.6970838904 2.793773174 -0.7599447966
-0.698718369 2.804485083 -0.6573035717
-0.707064569 2.840103388 -0.560659647
-0.7041116953 2.83245945 -0.4555887282
-0.707437396 2.850086927 -0.3554275632
-0.7070679665 2.850726128 -0.2532491982
-0.7039074302 2.842229128 -0.1512520611
-0.709028542 2.867195606 -0.05085451901
-0.7067912221 2.834784508 0.05029603839
-0.7088267207 2.847181559 0.1515660733
-0.7105008364 2.856032372 0.2537721395
-0.6945352554 2.796020031 0.348602891
-0.6945443153 2.800233841 0.4502699375
-0.6993672252 2.821786165 0.5568434596
-0.6938416362 2.803687811 0.6568536758
-0.688426435 2.785970211 0.7573565841
-0.6900936365 2.807445765 -0.7630506158
-0.6917108893 2.818262339 -0.6600030065
-0.6962103844 2.838740826 -0.5598964095
-0.696570158 2.844493151 -0.4571530819
-0.6951275468 2.842897177 -0.3542088866
-0.6990049481 2.860918522 -0.2539464533
-0.6930344701 2.840788364 -0.1510427147
-0.6990150809 2.869653225 -0.05085451901
-0.7016621828 2.856653929 0.05064508691
-0.6965044141 2.839939594 0.1510427147
-0.7014761567 2.862365246 0.2541207671
-0.6866576076 2.806140184 0.3495778143
-0.6857036948 2.8064785 0.4508956671
-0.690443635 2.828024864 0.5576066971
-0.6840526462 2.806092262 0.6568536758
-0.6805241704 2.795864582 0.7594271302
-0.6789277792 2.804203987 -0.761497736
-0.6841578484 2.830130816 -0.6622524858
-0.6862990856 2.841153383 -0.5598964095
-0.6894148588 2.858429432 -0.4590302706
-0.6861284971 2.849166393 -0.3546963632
-0.687615037 2.857529879 -0.253423512
-0.6877805591 2.862610102 -0.1520894319
-0.6889958382 2.872075081 -0.05085451901
-0.6926259995 2.862972975 0.05071489513
-0.6894026399 2.854001522 0.1516707391
-0.692882061 2.870606661 0.2546437085
-0.6805808544 2.823958158 0.3515277505
-0.6740537882 2.80117321 0.449644208
-0.6842415929 2.845688105 0.560659647
-0.6742526293 2.808463335 0.6568536758
-0.6703109145 2.79634428 0.7589095235
-0.6700304151 2.810315132 -0.7625330091
-0.6760804653 2.840084791 -0.6640521288
-0.6772853136 2.847351789 -0.560659647
-0.6808028817 2.866584063 -0.4599688649
-0.6789262295 2.86313343 -0.356158793
-0.6780961752 2.861851454 -0.2535978258
-0.6777831912 2.864993572 -0.1520894319
-0.6775864363 2.868624449 -0.0507498011
-0.6840176582 2.871209145 0.05081961304
-0.6812841296 2.864162922 0.1520894319
-0.6819353104 2.869131088 0.2542950511
-0.6725519896 2.834042788 0.3525027037
-0.6651831865 2.807353258 0.4502699375
-0.6743033528 2.848059416 0.560659647
-0.6671355963 2.822178602 0.6595531106
-0.6592137218 2.793026686 0.7573565841
-0.6606572866 2.814518213 -0.7630506158
-0.6652725339 2.83863306 -0.6631523371
-0.6691318154 2.857344866 -0.5621861219
-0.6689928174 2.861249208 -0.4587174058
-0.6702837348 2.871284723 -0.356889993
-0.6685541868 2.866141558 -0.2537721395
-0.6704984307 2.879012585 -0.1527174562
-0.6698326468 2.880711079 -0.05092432722
-0.6726231575 2.867738247 0.05071489513
-0.6749245524 2.882081032 0.1529268175
-0.6737338305 2.879253626 0.2549923062
-0.6635577083 2.840239525 0.3529901803
-0.6585200429 2.823124647 0.4524600506
-0.6625743508 2.842747927 0.559133172
-0.6599296331 2.835878134 0.6622524858
-0.6529597044 2.810364246 0.761497736
-0.6543084979 2.831864834 -0.7671917081
-0.6562364101 2.844735622 -0.6640521288
-0.6626821756 2.874967813 -0.5652390718
-0.6590002775 2.863567114 -0.4587174058
-0.6624788642 2.883280754 -0.3581086993
-0.663002789 2.887876511 -0.2555152476
-0.6586591005 2.873548746 -0.1522987783
-0.6628962159 2.896676779 -0.05116865784
-0.6635077 2.873965979 0.05078470334
-0.6639634967 2.880526781 0.1527174562
-0.6654672027 2.889354229 0.2556895614
-0.6518604755 2.834799767 0.3520152271
-0.650428772 2.833107233 0.4537115097
-0.6526478529 2.845043421 0.559133172
-0.6491556764 2.834365606 0.661352694
-0.6448675394 2.820159435 0.7635682225
-0.6439903975 2.832248211 -0.7666741014
-0.6467344165 2.84890914 -0.664501965
-0.6535104513 2.881093025 -0.5660023093
-0.6516203284 2.87740922 -0.4605945945
-0.6506597996 2.877830267 -0.3571337461
-0.6537982821 2.894059658 -0.2558638752
-0.6499421 2.88167572 -0.1526127905
-0.6540980339 2.904825687 -0.05127337575
-0.6570164561 2.891864061 0.05106394365
-0.6530201435 2.878931522 0.1525081098
-0.6575799584 2.901374817 0.2565611005
-0.6419604421 2.837058067 0.3520152271
-0.6396667957 2.831506252 0.4530857801
-0.6461703181 2.862624884 0.5621861219
-0.6392598748 2.836613894 0.661352694
-0.6362907887 2.828047514 0.7651211619
-0.6378964186 2.851445675 -0.7713328004
-0.6401833892 2.866364479 -0.6681011915
-0.640884459 2.871859312 -0.5637125373
-0.6441490054 2.891235113 -0.4624718428
-0.6436265707 2.893648148 -0.3588398993
-0.643691361 2.896324396 -0.2558638752
-0.6424754858 2.895625591 -0.1532408148
-0.6409275532 2.893424749 -0.05102904141
-0.6486620903 2.901946306 0.05120356753
-0.6434024572 2.88314271 0.1526127905
-0.6465802789 2.899763584 0.2562125027
-0.6346420646 2.850907564 0.3534776568
-0.630206883 2.835650206 0.4533986151
-0.6387281418 2.876362324 0.5644758344
-0.6285100579 2.835023165 0.6604529023
-0.6259983182 2.828365088 0.7646034956
-0.6266942024 2.847994804 -0.769779861
-0.6318471432 2.876194954 -0.6699008346
-0.6329610944 2.883666992 -0.5656206608
-0.6327848434 2.887676954 -0.4615332186
-0.6347939372 2.90169549 -0.3595711291
-0.6331525445 2.896607161 -0.2556895614
-0.6357697845 2.913461447 -0.1540782005
-0.6320998669 2.901505709 -0.05113375187
-0.6389570832 2.906146049 0.05123846978
-0.6354760528 2.895124912 0.153136149
-0.6355999112 2.898110867 0.2558638752
-0.6280838847 2.868618727 0.3554275632
-0.620305419 2.837832689 0.4533986151
-0.6286830902 2.87857461 0.5644758344
-0.6219318509 2.852431774 0.6640521288
-0.6161209345 2.830533028 0.7646034956
-0.6163397431 2.848277092 -0.7692622542
-0.6218027472 2.87838316 -0.6699008346
-0.6249616742 2.895454407 -0.5675287247
-0.6218681335 2.886006355 -0.4609074891
-0.6271666884 2.915537834 -0.3610335588
-0.6242927909 2.904643536 -0.2562125027
-0.6260156035 2.917615652 -0.1541828662
-0.6258286834 2.919228077 -0.05141299218
-0.6241610646 2.88685894 0.05085451901
-0.6288233399 2.910882235 0.153868854
-0.6271603703 2.908102036 0.2565611005
-0.6180659533 2.870793819 0.3554275632
-0.6137986183 2.853392839 0.4555887282
-0.616158545 2.869234562 0.5621861219
-0.6136044264 2.862207174 0.6658517122
-0.60915941 2.84389472 0.7677093744
-0.6076002121 2.856079817 -0.7708151937
-0.6118496656 2.878523111 -0.6694509387
-0.6168890595 2.90722084 -0.5694368482
-0.6147517562 2.899647474 -0.4627847075
-0.6174955368 2.917601347 -0.3610335588
-0.6153847575 2.912653208 -0.2567354441
-0.6146875024 2.911858797 -0.1537641883
-0.6172835231 2.929222107 -0.05155261233
-0.6170816422 2.900648117 0.05106394365
-0.6186591983 2.913059235 0.153868854
-0.6186575294 2.918069839 0.2572583854
-0.6064850092 2.863117456 0.3542088866
-0.6046512723 2.859383583 0.4562144578
-0.6090747118 2.882787228 0.5644758344
-0.6057175994 2.87185359 0.6676513553
-0.5992292762 2.846003532 0.7677093744
-0.6004992127 2.869424343 -0.7739210129
-0.6025956273 2.884456158 -0.6703507304
-0.8170415759 3.914370537 -0.7690230608
-0.8175154328 3.930356741 -0.4877776802
-0.6106353998 2.920401096 0.05137808993
-0.6089963913 2.915094614 0.153868854
-0.5964877605 2.865217209 0.3542088866
-0.8048046231 3.917228222 -0.9132978916
-0.8033718467 3.917198896 -0.7690230608
-0.8044763207 3.933046341 -0.4877776802
-0.8024424911 3.933591843 -0.2081935704
-0.8032250404 3.944447756 -0.06956349313
-0.8788635135 4.27392149 0.07546240836
-0.8329520226 4.057822227 0.2148925811
-0.8667447567 4.229942322 0.3740470409
-0.8680707216 4.240176678 0.5262883902
-0.8818125129 4.314964294 0.6908662319
-0.8109523058 3.971758127 0.7797083855
-0.8585851192 4.212547779 0.9825828671
-0.8598451614 4.226278305 1.144032359
-0.783946991 3.880944252 -1.049304485
-0.7923668027 3.929703236 -0.9155473709
-0.7916346192 3.929601669 -0.7709311843
-0.7927010059 3.942011833 -0.6301696301
-0.7924004793 3.947645664 -0.4892401099
-0.7914284468 3.946372509 -0.3484232426
-0.7946853042 3.96979928 -0.2099730074
-0.7911144495 3.959130526 -0.0697729215
-0.8620070219 4.271233559 0.0753576979
-0.819652319 4.068678856 0.2153112739
-0.849614203 4.221222878 0.373001188
