# .PCD v0.7 - Point Cloud Data file format
VERSION 0.7
FIELDS x y z
SIZE 4 4 4
TYPE F F F
COUNT 1 1 1
WIDTH 1241
HEIGHT 1
VIEWPOINT 0 0 0 1 0 0 0
POINTS 1241
DATA ascii
-1.500782132 1.667957306 0.1925888062
-1.504196644 1.672926307 0.2710939646
-1.314335942 1.462795615 0.3047858775
-1.539880276 1.714417219 0.4396867752
-1.442423105 1.607042551 0.4885902405
-1.41953826 1.58265698 0.5580659509
-1.293689132 1.446404934 -0.5083726645
-1.26268518 1.412236214 -0.427403599
-1.369262338 1.532513261 -0.3912212551
-1.597855926 1.789616942 -0.3733041883
-1.583974123 1.774693251 -0.2869369984
-1.282627821 1.438072681 -0.1648732871
-1.283792019 1.440389752 -0.09891609102
-1.602420568 1.791581035 0.04125569016
-1.29511869 1.449019909 0.09964879602
-1.507930756 1.68830657 0.1943319142
-1.489093304 1.667801499 0.2693878114
-1.292125583 1.448212743 0.3007185757
-1.517907619 1.702465415 0.4351073205
-1.441709161 1.618138313 0.4903898835
-1.407580733 1.580389261 0.5554777384
-1.288632751 1.450911641 -0.5083726645
-1.258794427 1.418311834 -0.4278534949
-1.35999608 1.532877445 -0.3900764287
-1.57980454 1.781881094 -0.3704883456
-1.59062326 1.79534483 -0.2893743813
-1.270994902 1.435083866 -0.1640017331
-1.2615484 1.425419331 -0.09755536169
-1.289270282 1.457255244 -0.03326249123
-1.583894968 1.783983588 0.04094155133
-1.298007727 1.462494254 0.1002768278
-1.488807917 1.678653955 0.1925888062
-1.49350369 1.68513298 0.2713377178
-1.283132672 1.448278546 0.2997799516
-1.513257384 1.70922327 0.4354889691
-1.432177782 1.618782759 0.4890401661
-1.402055979 1.585292816 0.5554777384
-1.281004667 1.452503204 -0.5073373914
-1.233464241 1.39909029 -0.4206550419
-1.357232571 1.540561795 -0.3908396661
-1.57519269 1.788592219 -0.3708012402
-1.587283731 1.803590059 -0.2898618579
-1.265978098 1.439511538 -0.1640017331
-1.262089372 1.435594797 -0.09797404706
-1.331688762 1.515829206 -0.03451906517
-1.568711638 1.778727889 0.04069721699
-1.302138209 1.477505445 0.1010095328
-1.469771147 1.668888569 0.1908456981
-1.481348753 1.682626486 0.2701190114
-1.274155021 1.448299408 0.2988413572
-1.499801755 1.7053864 0.4331992269
-1.429374576 1.626450658 0.4899399579
-1.406711817 1.601789594 0.5596188307
-1.278726816 1.459649444 -0.5083726645
-1.238842249 1.415117264 -0.4242542684
-1.355995178 1.549486399 -0.3919845223
-1.566339135 1.791105866 -0.3701755106
-1.567915678 1.794172287 -0.287424475
-1.253332615 1.43469882 -0.1629558504
-1.253130078 1.435477853 -0.09766003489
-1.56512773 1.787201524 0.0407670252
-1.282760501 1.465284705 0.09985814244
-1.393389344 1.592777133 0.181432873
-1.4780792 1.690776229 0.270606488
-1.26544559 1.448054433 0.2979027629
-1.499005318 1.716526508 0.4347257316
-1.421126246 1.628493309 0.4890401661
-1.411551833 1.618091822 0.563759923
-1.277427673 1.468476892 -0.5099256039
-1.234142661 1.419217706 -0.4242542684
-1.341563702 1.543836713 -0.3893131614
-1.556504965 1.791815996 -0.3692368865
-1.551546931 1.787369013 -0.2854745388
-1.250928044 1.442075133 -0.1633044779
-1.23527813 1.424536109 -0.09661331773
-1.321340084 1.524858594 -0.03451906517
-1.559192657 1.792382002 0.0407670252
-1.275016785 1.466739058 0.09964879602
-1.37736845 1.585597873 0.1800383776
-1.475067139 1.698666096 0.2710939646
-1.256499529 1.447986603 0.2969641387
-1.494591117 1.722970963 0.4351073205
-1.404230237 1.619944572 0.4849910736
-1.410954595 1.628850222 0.5658305287
-1.264972329 1.463934541 -0.506819725
-1.227907062 1.42204237 -0.4238043725
-1.333871245 1.545304775 -0.3885499239
-1.552820802 1.800230384 -0.3698626161
-1.551778793 1.800292373 -0.2866932452
-1.240936875 1.440178037 -0.1626072377
-1.256362081 1.459109545 -0.09870675206
-1.25079608 1.453671098 -0.03277382255
-1.552926779 1.797813296 0.0407670252
-1.316870928 1.525609732 0.1034169868
-1.326546192 1.537361026 0.1739374846
-1.475610375 1.711321831 0.2723126411
-1.248858213 1.449371219 0.2963384092
-1.487286448 1.726690173 0.4347257316
-1.399838209 1.62631321 0.4854409397
-1.402740598 1.630836248 0.5647952557
-1.248533249 1.455145717 -0.502161026
-1.238157392 1.444072366 -0.4292031825
-1.331024408 1.552932382 -0.3893131614
-1.541387677 1.799638033 -0.3686111271
-1.537739992 1.796649814 -0.2852308154
-1.230721354 1.438445091 -0.1619099826
-1.234387994 1.443751812 -0.09734601527
-1.276889563 1.494516492 -0.03361153975
-1.536226869 1.791080475 0.04048778862
-1.405120969 1.639382124 0.1109533682
-1.317283154 1.537442923 0.1734145433
-1.467046022 1.713446259 0.2718251944
-1.243791699 1.453721404 0.2963384092
-1.479974389 1.730378985 0.4343441129
-1.376427531 1.610450029 0.479142338
-1.400802851 1.640129924 0.5663481355
-1.240940809 1.456553698 -0.5011256933
-1.239425063 1.455805063 -0.4314526916
-1.527417421 1.795979381 -0.3667339385
-1.531459451 1.802006245 -0.2852308154
-1.220532298 1.436658978 -0.1612127423
-1.230633736 1.449574113 -0.09745068848
-1.258728147 1.483716249 -0.03326249123
-1.528668284 1.794909954 0.04045288265
-1.46929121 1.726410031 0.1166056544
-1.30674386 1.535962224 0.172717303
-1.467485309 1.726118207 0.2730438709
-1.239988089 1.459559917 0.296651274
-1.467570543 1.728052855 0.4324360192
-1.348100185 1.588500738 0.4710440934
-1.398817897 1.64942944 0.5679010153
-1.242087007 1.468251228 -0.5037139058
-1.235594273 1.461610556 -0.4319026172
-1.321417809 1.563686371 -0.3896948099
-1.524962902 1.805827618 -0.3676725328
-1.520039201 1.801272273 -0.2842558622
-1.218079686 1.443956375 -0.1615613699
-1.216555595 1.443171263 -0.09671798348
-1.253541708 1.488100767 -0.03326249123
-1.521102905 1.798707843 0.0404179804
-1.489038587 1.762038827 0.1186990887
-1.300089002 1.538991928 0.1725429893
-1.453767657 1.722129464 0.271581471
-1.23488605 1.463879108 0.296651274
-1.467857957 1.740668893 0.4343441129
-1.314920783 1.560412049 0.4611462355
-1.398029685 1.660212874 0.569971621
-1.234468818 1.46961987 -0.5026786327
-1.241761088 1.479347825 -0.4359517395
-1.318475008 1.571297765 -0.3904580176
-1.512304306 1.803570986 -0.3661082089
-1.504817486 1.795916796 -0.2825496793
-1.213032365 1.448199153 -0.1615613699
-1.210228324 1.44587791 -0.09661331773
-1.212416053 1.449519277 -0.03228515759
-1.513529181 1.802474737 0.04038307071
-1.482878447 1.767226219 0.1186990887
-1.290867448 1.538941741 0.1720200479
-1.455398083 1.736321807 0.2730438709
-1.224695325 1.462123156 0.295399785
-1.459251761 1.742771983 0.4335808754
-1.264445901 1.511188388 0.4449497461
-1.394703746 1.66804719 0.5710068941
-1.221907496 1.465018272 -0.4995728135
-1.24157989 1.489661574 -0.437751323
-1.302928686 1.563823462 -0.3874050677
-1.51231873 1.816429853 -0.3676725328
-1.502348661 1.805736303 -0.2832809091
-1.195229173 1.43710649 -0.159818247
-1.210280538 1.456237435 -0.0970320031
-1.192017674 1.435282111 -0.03186629713
-1.505947232 1.806211472 0.04034816474
-1.484371543 1.781597972 0.119327113
-1.28548789 1.543437958 0.1720200479
-1.441709518 1.732236624 0.271581471
-1.218320608 1.46487093 0.2950869203
-1.463200808 1.759931922 0.4366338253
-1.241729259 1.494607687 0.4386511445
-1.39627707 1.681823254 0.5741126537
-1.208161116 1.458859324 -0.4959493279
-1.255008578 1.516506433 -0.4444998801
-1.302468181 1.574412823 -0.3889315724
-1.498416781 1.812563181 -0.3657953143
-1.501092792 1.817091584 -0.2842558622
-1.185130477 1.435125113 -0.1591209918
-1.200104594 1.454291582 -0.09661331773
-1.199976206 1.454653144 -0.03221534565
-1.49198246 1.802214861 0.04013874009
-1.483548522 1.792665839 0.1197458133
-1.259777069 1.523349166 0.1692310721
-1.428067088 1.728077054 0.2701190114
-1.207165241 1.461288691 0.2935225964
-1.452049613 1.758972406 0.4351073205
-1.222863197 1.482397556 0.4337022305
-1.38577652 1.680482388 0.5720421672
-1.206742048 1.467544556 -0.4975022674
-1.242548227 1.511626959 -0.4418004453
-1.282010317 1.560744882 -0.3843521178
-1.487383842 1.811415195 -0.3645438552
-1.49002254 1.815920711 -0.2832809091
-1.181377411 1.440793872 -0.1592953205
-1.182614684 1.442816257 -0.09556659311
-1.203761339 1.469661713 -0.03245967999
-1.482187033 1.802519202 0.04003402591
-1.479818225 1.800919294 0.1199551523
-1.244336486 1.515419126 0.1678365767
-1.422328234 1.732803464 0.2701190114
-1.204562902 1.46854794 0.2941483259
-1.43500483 1.750115037 0.4316727817
-1.211765528 1.478907466 0.4314526916
-1.378677726 1.683814883 0.5715245008
-1.209201217 1.480515242 -0.5006080866
-1.233567834 1.511425614 -0.4404507279
-1.286756873 1.577157021 -0.3874050677
-1.47855556 1.813533545 -0.3639180958
-1.474897265 1.81033814 -0.2815747261
-1.171560526 1.438523769 -0.1585980654
-1.192699194 1.465524912 -0.09682265669
-1.211241245 1.489368558 -0.03280872852
-1.474621773 1.806132555 0.03999911621
-1.465947628 1.796788216 0.119327113
-1.251897216 1.534976959 0.1695796847
-1.408746839 1.728524923 0.2686565816
-1.203171968 1.477338433 0.2950869203
-1.432605982 1.75968051 0.4328176379
-1.197987437 1.472546339 0.4283033907
-1.382540226 1.700609446 0.5756655931
-1.200375915 1.480225444 -0.4990552068
-1.258957028 1.553573489 -0.451698333
-1.266414046 1.563333273 -0.3828256726
-1.46973002 1.815613508 -0.3632923663
-1.463575721 1.809301734 -0.2805997729
-1.164026141 1.439506292 -0.1582494378
-1.193853021 1.477446437 -0.09734601527
-1.201009393 1.48736465 -0.03266910836
-1.465789199 1.80816257 0.039929308
-1.454637527 1.795687079 0.1189084351
-1.23148489 1.520757318 0.1674879491
-1.39770925 1.727259755 0.2676816285
-1.189312935 1.470777512 0.292896837
-1.443732858 1.786046267 0.4381602705
-1.195288658 1.479751348 0.4292031825
-1.380236149 1.709934473 0.5772185326
-1.185508847 1.472369075 -0.4949140549
-1.253526688 1.557958484 -0.451698333
-1.276945353 1.587631702 -0.3877867162
-1.469571471 1.828430891 -0.36485672
-1.458494544 1.815946937 -0.2808435261
-1.156499743 1.440453172 -0.1579008251
-1.189938545 1.483162403 -0.09745068848
-1.194819808 1.489778996 -0.03263420239
-1.465738297 1.821056843 0.04010383412
-1.451179266 1.803612947 0.1191177741
-1.241150498 1.543679476 0.1695796847
-1.36058867 1.693440557 0.261588186
-1.179481506 1.46855247 0.2916453779
-1.438718915 1.792605877 0.438541919
-1.184020162 1.476313353 0.4269536734
-1.369725108 1.708473086 0.5751479864
-1.174330235 1.468954086 -0.492325902
-1.289716601 1.613866687 -0.466994971
-1.286096334 1.610488892 -0.3923661113
-1.454872727 1.82248807 -0.3626666367
-1.452464104 1.820773959 -0.2808435261
-1.152706265 1.446039796 -0.1580751389
-1.185013294 1.487100482 -0.09745068848
-1.207051039 1.515841365 -0.03312287107
-1.449701548 1.813412309 0.03982459381
-1.44362843 1.807106733 0.1190131083
-1.232025146 1.543331623 0.1690567583
-1.363633156 1.708804011 0.2632943392
-1.169421315 1.466483235 0.290393889
-1.42787087 1.791226506 0.4370154142
-1.180331945 1.48175621 0.427403599
-1.362549424 1.711732745 0.5746303201
-1.167050123 1.469813943 -0.4912905693
-1.223512769 1.542029381 -0.4444998801
-1.267329216 1.59782505 -0.388168335
-1.444821477 1.822910547 -0.3617280126
-1.446099997 1.825832486 -0.2808435261
-1.168929577 1.476409197 -0.1610384285
-1.229384542 1.553880453 -0.1016375646
-1.214422703 1.535520077 -0.0334719196
-1.433417439 1.805930972 0.0395453535
-1.437627316 1.811884284 0.1190131083
-1.220711589 1.53960228 0.1681852043
-1.34286654 1.694883108 0.2603694797
-1.173137426 1.48119247 0.2925839722
-1.420391679 1.794660091 0.4366338253
-1.178779244 1.490452409 0.4287532866
-1.365252614 1.726849437 0.5782538056
-1.169088125 1.482981801 -0.4943964481
-1.218392849 1.546078086 -0.4444998801
-1.282392263 1.628460407 -0.3946558237
-1.437547088 1.82613945 -0.3614151478
-1.43021822 1.818136573 -0.2788936198
-1.174850225 1.494578362 -0.1626072377
-1.224224567 1.557949066 -0.1016375646
-1.216464758 1.549186826 -0.03368134797
-1.429896355 1.813815713 0.03961516917
-1.426350474 1.81061554 0.1185944155
-1.209168315 1.536026239 0.1673136503
-1.334783673 1.69620645 0.2598819733
-1.169181347 1.48683095 0.292896837
-1.412005663 1.796274066 0.4358705878
-1.167811632 1.486690521 0.4265037775
-1.384265184 1.763516903 0.5891242027
-1.163904786 1.487053514 -0.4943964481
-1.207915306 1.54439342 -0.442700237
-1.279118896 1.636019945 -0.3954190612
-1.428411365 1.828283072 -0.3607894182
-1.423545241 1.823366046 -0.2788936198
-1.180658579 1.51280582 -0.1641760319
-1.218506455 1.562425256 -0.1016375646
-1.210778832 1.553634763 -0.03368134797
-1.424471498 1.820618868 0.03965007141
-1.414783478 1.809537888 0.1181757301
-1.207479477 1.544947267 0.1678365767
-1.333444834 1.707345605 0.2608569562
-1.166154265 1.494221091 0.2935225964
-1.407827854 1.804532647 0.4366338253
-1.149174809 1.474055409 0.4215548635
-1.392039537 1.78686595 0.5953358412
-1.151594758 1.481954336 -0.4912905693
-1.203712583 1.550139427 -0.4431501627
-1.270992994 1.63737309 -0.3946558237
-1.424442649 1.836379528 -0.3614151478
-1.41717124 1.828324437 -0.2788936198
-1.17293036 1.513767838 -0.1638274044
-1.209376454 1.561931849 -0.101323545
-1.21269083 1.567340732 -0.03389077634
-1.418107986 1.825579882 0.03965007141
-1.408458829 1.814465165 0.1181757301
-1.193529606 1.538133979 0.1666163951
-1.267873526 1.635120988 0.248913765
-1.153672218 1.488913536 0.2916453779
-1.411138535 1.821852446 0.4396867752
-1.149986506 1.485762835 0.4238043725
-1.408249736 1.820748687 0.6051709652
-1.136974096 1.473729014 -0.4871495068
-1.213761449 1.574395537 -0.4489988983
-1.283245444 1.665125608 -0.4003801048
-1.410791755 1.831950545 -0.3595379591
-1.409570336 1.831686735 -0.2786498666
-1.170068383 1.521011591 -0.1641760319
-1.219741464 1.58672893 -0.1026842892
-1.222107649 1.590381265 -0.03430963308
-1.404399276 1.821018457 0.03944064304
-1.399994612 1.815962434 0.1179663762
-1.166266322 1.513881087 0.1634787917
-1.233095646 1.601785541 0.2430640161
-1.160775304 1.508386374 0.2947740555
-1.390408397 1.808091879 0.4351073205
-1.144792914 1.489768267 0.4238043725
-1.393966675 1.814684272 0.6015475392
-1.134172678 1.480755925 -0.4881847799
-1.213272929 1.584600687 -0.4507984817
-1.285776496 1.68050909 -0.4030514061
-1.402309299 1.833480477 -0.3589122295
-1.409515858 1.844236493 -0.279868573
-1.169589639 1.531420112 -0.1648732871
-1.209625244 1.584414601 -0.1022655964
-1.243232965 1.629614353 -0.03507754207
-1.392273426 1.817727804 0.03926612064
-1.397289395 1.825596213 0.1182803959
-1.160258412 1.517554522 0.2294146568
-1.154304028 1.510859132 0.2944611907
-1.37963891 1.806451321 0.4335808754
-1.144575715 1.49975276 0.4256039858
-1.391137838 1.82414794 0.6031004786
-1.136273861 1.493733764 -0.4912905693
-1.211271882 1.593480825 -0.4521481991
-1.293262839 1.701958299 -0.4072492421
-1.393510938 1.835217953 -0.3582864404
-1.39467001 1.838076115 -0.27816239
-1.176273942 1.551369905 -0.1666163951
-1.212531805 1.599769592 -0.1029982939
-1.249609947 1.649885178 -0.03542659059
-1.389550328 1.827352047 0.0393708311
-1.384866834 1.822510958 0.1177570373
-1.181242704 1.555102587 0.1671393216
-1.152554035 1.518432617 0.2289271802
-1.158572793 1.52747035 0.2969641387
-1.375696659 1.814385414 0.4343441129
-1.126387835 1.486653328 0.4206550419
-1.383596063 1.827452302 0.6025828123
-1.127299309 1.493263245 -0.4897376895
-1.217441201 1.61325407 -0.4566472173
-1.291743875 1.712957144 -0.4087756872
-1.387964487 1.841890574 -0.358599335
-1.379885197 1.831834078 -0.2764562368
-1.174446464 1.560241699 -0.1671393216
-1.231873035 1.637721539 -0.1051964089
-1.251054049 1.663826346 -0.03563601524
-1.380754113 1.828999162 0.03930102289
-1.372481942 1.819361925 0.1172336787
-1.254691124 1.664426446 0.1786438823
-1.282242894 1.701593161 0.256469667
-1.144916415 1.520458817 0.2947740555
-1.369037747 1.819415092 0.4343441129
-1.119760633 1.489213943 0.4202051461
-1.376048088 1.830726027 0.602065146
-1.11165309 1.48327601 -0.4850789607
-1.227874041 1.639543176 -0.4629458785
-1.293993235 1.728456974 -0.4114470482
-1.381526232 1.84672451 -0.358599335
-1.374671578 1.838228822 -0.2766999602
-1.165414691 1.559543967 -0.1666163951
-1.224953294 1.640411735 -0.1050917432
-1.247630715 1.671388745 -0.0357058309
-1.376439571 1.837248087 0.0393708311
-1.368517041 1.82733953 0.1174430177
-1.209479451 1.616155267 0.1728916019
-1.220122337 1.631563544 0.2450139225
-1.143149853 1.529192686 0.2957126498
-1.36502862 1.827328205 0.4351073205
-1.112483621 1.489796519 0.4193053544
-1.36156249 1.824679852 0.5984416604
-1.105574369 1.48540473 -0.4845612943
-1.224756598 1.646732926 -0.4638456702
-1.297624588 1.745342851 -0.4144999385
-1.370682836 1.844952822 -0.3573478758
-1.372118592 1.847558737 -0.2774311602
-1.162611723 1.566599846 -0.1669650227
-1.240921736 1.673341274 -0.1069758385
-1.242081761 1.675516605 -0.0357058309
-1.365564346 1.835385442 0.03923121467
-1.361258268 1.830264807 0.1173383594
-1.189851284 1.600968242 0.1707998663
-1.290452719 1.737595677 0.260613203
-1.133362889 1.526630759 0.2944611907
-1.351942658 1.822384715 0.4328176379
-1.106376648 1.491911888 0.4188554287
-1.353203177 1.826081038 0.5974064469
-1.097198009 1.484402061 -0.4830084145
-1.210027099 1.638244867 -0.4602464437
-1.308156013 1.771747947 -0.4198426306
-1.359865427 1.843130112 -0.3560963869
-1.364483356 1.850739002 -0.2771874666
-1.156227827 1.568843007 -0.1667907089
-1.240103483 1.683879614 -0.1073945239
-1.250447869 1.699169159 -0.03612468764
-1.355905771 1.835078597 0.03912649676
-1.35723412 1.838218451 0.1175476983
-1.17980361 1.598492742 0.1701026261
-1.302357793 1.765828848 0.2642692924
-1.135058403 1.540118933 0.2963384092
-1.338905573 1.817373872 0.4305279255
-1.098851204 1.492626429 0.417955637
-1.346821189 1.830793262 0.5974064469
-1.094294906 1.491338253 -0.4840436578
-1.195082188 1.629886627 -0.4566472173
-1.311248064 1.788971424 -0.4228955805
-1.353423834 1.847865462 -0.3560963869
-1.347462535 1.84107399 -0.2749937773
-1.161332726 1.587340951 -0.1683595181
-1.236575246 1.691423059 -0.1076038629
-1.270461082 1.739046812 -0.03689258918
-1.345943213 1.834963322 0.03902178258
-1.342543721 1.831669092 0.1168149933
-1.153020024 1.573672533 0.1669650227
-1.280940652 1.749542713 0.2611006796
-1.13784039 1.555231094 0.2985284925
-1.331394076 1.820452094 0.430146277
-1.090185046 1.491732717 0.4166059196
-1.339282513 1.833923578 0.5968887806
-1.091357827 1.498271823 -0.4850789607
-1.184798837 1.627745867 -0.4548476338
-1.310771108 1.80147481 -0.4248036444
-1.345804214 1.850980759 -0.3557835221
-1.334026456 1.836130738 -0.2735313475
-1.162530541 1.601260304 -0.169405371
-1.247086644 1.71835959 -0.1090692729
-1.263209462 1.741851926 -0.03685768694
-1.346592903 1.849349618 0.03923121467
-1.329091668 1.826653838 0.1161869615
-1.148692131 1.579298735 0.1671393216
-1.281828761 1.763637781 0.2625631094
-1.144013166 1.575176358 0.3016571999
-1.326185226 1.826676965 0.4305279255
-1.070095181 1.475023031 0.410757184
-1.337407827 1.844844103 0.5989593267
-1.074541688 1.486605406 -0.4799025953
-1.176826477 1.628712654 -0.4539478421
-1.311054707 1.815817595 -0.4270933867
-1.343634605 1.862308264 -0.3570349813
-1.331092954 1.845605969 -0.2742625773
-1.117327094 1.550352693 -0.1634787917
-1.247783542 1.732642889 -0.1096972972
-1.267635822 1.760857344 -0.03717182949
-1.335442901 1.847556591 0.03909159452
-1.326216102 1.836139202 0.1165009812
-1.121907234 1.554418921 0.1640017331
-1.281472445 1.776150227 0.2637818158
-1.202045202 1.667290092 0.3188649714
-1.31833303 1.82993269 0.430146277
-1.078343987 1.497914195 0.4161560237
-1.321933031 1.836956739 0.5948182344
-1.063715219 1.482498765 -0.477314353
-1.179933548 1.6456846 -0.4575470686
-1.310427189 1.828361392 -0.4290014803
-1.327923656 1.854139686 -0.3545320332
-1.31969893 1.844015121 -0.2732876241
-1.118864298 1.56396544 -0.1645246595
-1.262635589 1.766233683 -0.1115813926
-1.266132712 1.77177906 -0.03731144965
-1.325166106 1.847563624 0.03898688033
-1.322125793 1.844004035 0.1167103201
-1.109512329 1.548607707 0.1629558504
-1.281886935 1.790520072 0.2652442455
-1.297385812 1.812837124 0.3463974297
-1.311937809 1.834523082 0.430146277
-1.084439278 1.517524004 0.4206550419
-1.220064044 1.707942486 0.5508189797
-1.066379309 1.497217298 -0.4809378386
-1.168818831 1.641650677 -0.4552974999
-1.315418482 1.84892118 -0.4328176379
-1.313753247 1.847265005 -0.3523419499
-1.320475578 1.858089924 -0.2747500539
-1.106476307 1.558115244 -0.1634787917
-1.259083509 1.773668766 -0.1117907465
-1.268038511 1.787605286 -0.03755578399
-1.312072039 1.842174768 0.03877745196
-1.315680504 1.848608255 0.1167103201
-1.092552304 1.536234975 0.1612127423
-1.269040585 1.785053968 0.2637818158
-1.317361951 1.854393959 0.3535934091
-1.29561615 1.824457645 0.4267117381
-1.094061375 1.541772485 0.4265037775
-1.259909272 1.776802182 0.5720421672
-1.053599358 1.489704847 -0.477314353
-1.161956191 1.644129753 -0.4548476338
-1.308146715 1.851670146 -0.4324360192
-1.310715199 1.856680632 -0.3532805741
-1.304828048 1.849711061 -0.2728001475
-1.110489249 1.574801922 -0.1648732871
-1.256336093 1.78295064 -0.1121047512
-1.305862904 1.853924274 -0.03888216615
-1.30678761 1.84837687 0.03881235793
-1.302627206 1.843174458 0.1160822809
-1.085153699 1.536594391 0.1608641148
-1.260513067 1.786228776 0.2632943392
-1.311205626 1.858752012 0.3535934091
-1.292633533 1.833782911 0.4278565943
-1.078573465 1.531243205 0.4224546552
-1.17949295 1.675138712 0.5373603702
-1.057273388 1.506022453 -0.4814554751
-1.158736825 1.651163816 -0.4557474256
-1.296039581 1.848187566 -0.4305279255
-1.298881054 1.852929473 -0.3517162204
-1.286159515 1.836142659 -0.2701190114
-1.100414872 1.57213974 -0.1641760319
-1.284767509 1.836200714 -0.1152449176
-1.291362166 1.846999645 -0.03863783181
-1.304098368 1.857609868 0.03891707212
-1.293891668 1.844439864 0.1158729419
-1.083213925 1.545267582 0.1613870561
-1.251164794 1.785522223 0.2625631094
-1.296777844 1.851991177 0.3514033556
-1.284293294 1.83484292 0.4270933867
-1.111464381 1.589106202 0.437751323
-1.186918974 1.698246956 0.5435720682
-1.043434858 1.496842027 -0.477314353
-1.152965784 1.655198812 -0.4557474256
-1.285415769 1.846031189 -0.4290014803
-1.286764503 1.849344492 -0.3501518965
-1.081550717 1.556147337 -0.1620842963
-1.290881753 1.85871911 -0.1163963005
-1.286047459 1.853138685 -0.03867273405
-1.29531908 1.858869672 0.03884726018
-1.282879949 1.842389345 0.115454264
-1.087189794 1.561932921 0.1627815366
-1.258526683 1.809434295 0.2654879689
-1.285796165 1.850018024 0.3501518965
-1.275640726 1.836089849 0.4263301194
-1.113690376 1.604181647 0.4409006536
-1.141342044 1.645237207 0.5249370933
-1.031608701 1.490943074 -0.4742085338
-1.158263922 1.675242186 -0.4602464437
-1.276731849 1.847276211 -0.4282382131
-1.289281964 1.866827607 -0.3526548147
-1.251885891 1.814035177 -0.2654879689
-1.058010697 1.533672929 -0.1592953205
-1.283251882 1.861570001 -0.1162916347
-1.275033951 1.851029038 -0.03853311762
-1.283134222 1.855157018 0.03867273405
-1.27984798 1.851784945 0.1157682762
-1.074935555 1.555883527 0.1617356837
-1.27927053 1.853022933 0.2713377178
-1.28045249 1.856120467 0.3504647315
-1.265880704 1.835682631 0.425185293
-1.114718676 1.617687225 0.4436000884
-1.164077282 1.690580964 0.5383957028
-1.027492046 1.496127367 -0.4747261703
-1.150203347 1.676061988 -0.459346652
-1.251396298 1.824199438 -0.4217506945
-1.27493906 1.859911919 -0.3504647315
-1.271347761 1.856061578 -0.2710939646
-1.057152867 1.543932676 -0.1599925607
-1.265468121 1.849554181 -0.1152449176
-1.267435789 1.85381794 -0.03849821165
-1.273255825 1.854678512 0.03856801987
-1.272246838 1.854593992 0.1156636029
-1.077385664 1.57112813 0.1629558504
-1.269427538 1.852564692 0.270606488
-1.279545307 1.868728638 0.3520290852
-1.255029082 1.833609939 0.4236587882
-1.118965864 1.636045218 0.4476491809
-1.169069648 1.710583329 0.5435720682
-1.024439096 1.50289762 -0.4757614732
-1.138860941 1.672013402 -0.4570971429
-1.262699485 1.854521871 -0.4278565943
-1.268439412 1.864350557 -0.3504647315
-1.23472774 1.816163898 -0.2645130157
-1.096552968 1.613527894 -0.1669650227
-1.234319448 1.817609549 -0.1129421294
-1.265448809 1.864849448 -0.03863783181
-1.269026518 1.862416625 0.03863783181
-1.259020448 1.849118471 0.1150355637
-1.067410946 1.56829071 0.1622586101
-1.260720849 1.853701353 0.2701190114
-1.269683719 1.86828208 0.351090461
-1.251931071 1.8428514 0.4248036444
-1.107775092 1.631879687 0.4453996718
-1.165260792 1.717850924 0.5446073413
-1.026763916 1.517665148 -0.4793849289
-1.128652334 1.669520497 -0.4552974999
-1.255118489 1.857291818 -0.4274749756
-1.257501602 1.862218976 -0.3492132723
-1.243924737 1.843500257 -0.2679253519
-1.082000613 1.604131937 -0.1655705273
-1.238013387 1.836813092 -0.1138841808
-1.254787803 1.862402201 -0.03849821165
-1.259156585 1.861865997 0.03853311762
-1.245051861 1.841700673 0.1143028662
-1.056353331 1.563752532 0.1613870561
-1.256463289 1.861381769 0.270606488
-1.259061337 1.865932703 0.3498390019
-1.244392514 1.845582604 0.4244220257
-1.102072477 1.635736465 0.4453996718
-1.172507286 1.740933895 0.5508189797
-1.011768103 1.506805301 -0.4747261703
-1.132883787 1.687816858 -0.459346652
-1.245347381 1.856770039 -0.4263301194
-1.244719386 1.856534123 -0.3473360538
-1.251063585 1.867405415 -0.2708502412
-1.036494017 1.548295617 -0.1592953205
-1.24635601 1.86248672 -0.1152449176
-1.243833303 1.860121489 -0.03835859522
-1.25632 1.871011496 0.03863783181
-1.239727974 1.847694516 0.1144075394
-1.048669696 1.564120412 0.1610384285
-1.248073816 1.862239957 0.2701190114
-1.242648005 1.855543971 0.3470231593
-1.239358068 1.85133028 0.4248036444
-1.109644532 1.658818722 0.4507984817
-1.15354073 1.725742817 0.5446073413
-1.002478957 1.503722787 -0.4726556242
-1.120502472 1.682030439 -0.4566472173
-1.225036621 1.839646578 -0.4213690758
-1.23494792 1.855934262 -0.3463974297
-1.245636821 1.873413563 -0.2710939646
-1.009296298 1.518538356 -0.1558090746
-1.23763752 1.863498092 -0.1150355637
-1.238763571 1.865902066 -0.03839349747
-1.24756372 1.87205708 0.03856801987
-1.238022566 1.858444571 0.1148262247
-1.018085003 1.529442668 0.1570292711
-1.245962858 1.87319684 0.2710939646
-1.239769578 1.864589334 0.3479617834
-1.232887626 1.855645418 0.4248036444
-1.106002808 1.665929556 0.451698333
-1.147811174 1.729558825 0.5446073413
-1.000422001 1.512046099 -0.4742085338
-1.085893393 1.641850829 -0.4444998801
-1.221855283 1.848824978 -0.422513932
-1.235320091 1.869908094 -0.3482746482
-1.236136198 1.872564316 -0.2703627348
-0.9963102937 1.510409832 -0.154588908
-1.229251742 1.864257574 -0.1148262247
-1.205838203 1.830139041 -0.03755578399
-1.236934781 1.869513392 0.03842840344
-1.233731151 1.866086602 0.1150355637
-1.010543227 1.52966249 0.1566806436
-1.23099339 1.864066243 0.2691440582
-1.233252883 1.868905902 0.3479617834
-1.215917468 1.843335152 0.4209874868
-1.099400043 1.667960644 0.4512484074
-1.154518366 1.752914906 0.5508189797
-0.9961986542 1.517143726 -0.4747261703
-1.093766451 1.667000771 -0.4503486156
-1.224008441 1.866211772 -0.4255668819
-1.228458643 1.874423027 -0.3482746482
-1.219476342 1.86213696 -0.2681691051
-0.9964885116 1.522213101 -0.155460462
-1.219130039 1.863736391 -0.1145122051
-1.213344932 1.856306553 -0.0380095467
-1.225684762 1.867347836 0.03828878701
-1.221406817 1.862244964 0.1145122051
-1.007381916 1.536513448 0.1570292711
-1.216538548 1.856941819 0.2674378753
-1.222067475 1.866802335 0.3467103243
-1.212378621 1.852707505 0.4221323431
-1.083681345 1.657299757 0.4471993148
-1.196692944 1.831528306 0.5746303201
-0.9908964038 1.520612121 -0.4747261703
-1.107080817 1.700203896 -0.4584468603
-1.207847357 1.855664849 -0.4221323431
-1.220830679 1.877044082 -0.3479617834
-1.214050889 1.868046403 -0.2684128582
-1.036756396 1.595854878 -0.1627815366
-1.211211085 1.867240906 -0.03814916313
-1.220250845 1.873290062 0.03832368925
-1.204003096 1.849758506 0.113465488
-1.007445574 1.548370361 0.1579008251
-1.211130857 1.862841845 0.2676816285
-1.211238503 1.864431024 0.3454588354
-1.211249948 1.865161061 0.4240404367
-1.081071496 1.665976644 0.4485489726
-1.210262418 1.866491675 0.5844655037
-0.976141274 1.509461641 -0.4700674415
-1.101139665 1.704057813 -0.4584468603
-1.197101951 1.853272676 -0.4206058383
-1.216414094 1.884613395 -0.3485875428
-1.203219414 1.865599632 -0.2674378753
-1.000951409 1.552576423 -0.1579008251
-1.203603983 1.869775772 -0.03811426088
-1.219132662 1.885934591 0.03849821165
-1.19753933 1.853949785 0.113465488
-0.9901467562 1.533465743 0.1559834033
-1.207849979 1.872061968 0.2684128582
-1.207934618 1.873628259 0.3463974297
-1.201541781 1.864426851 0.4228955805
-1.082634807 1.681209564 0.451698333
-1.195377111 1.857707858 0.5803243518
-0.9729526639 1.516111851 -0.4711027145
-1.06783402 1.66523993 -0.4467493892
-1.13129437 1.764881372 -0.3992352486
-1.20556581 1.882194519 -0.3473360538
-1.205260277 1.883164406 -0.2693878114
-0.9955253005 1.556061268 -0.1579008251
-1.192763448 1.867225289 -0.03797464073
-1.201744437 1.873347759 0.03814916313
-1.193215609 1.861481905 0.1136748269
-0.9826375842 1.533557653 0.1556347758
-1.201307416 1.876266956 0.2684128582
-1.200321913 1.876169682 0.3460845947
-1.189737201 1.860340118 0.4209874868
-1.075710654 1.68333602 0.4512484074
-1.124423981 1.760919809 0.5482307673
-0.9697303176 1.52275753 -0.4721379876
-1.034814 1.626210332 -0.435051918
-1.120912552 1.762193441 -0.3977087736
-1.189452291 1.871387124 -0.344520241
-1.192294359 1.877305508 -0.2679253519
-0.987952292 1.556162596 -0.1575521976
-1.061392784 1.673133731 -0.1016375646
-1.183026791 1.866310239 -0.03786992654
-1.191976786 1.87247014 0.03804444894
-1.188854933 1.869006038 0.1138841808
-0.9730026126 1.530252934 0.1549375206
-1.191557407 1.87542212 0.2676816285
-1.195883512 1.883683324 0.3467103243
-1.174820781 1.851220369 0.4179345369
-1.072959304 1.692017555 0.4525981247
-0.9890201688 1.560854673 0.4835260212
-0.9613132477 1.521233916 -0.4705851078
-1.053061128 1.66771102 -0.4453996718
-1.118946433 1.772735715 -0.3992352486
-1.190288663 1.887223601 -0.3467103243
-1.183616638 1.878097653 -0.2674378753
-0.9803897738 1.556230307 -0.15720357
-1.17331028 1.865350604 -0.03776520863
-1.181161046 1.86985743 0.03790483251
-1.173795462 1.859632492 0.11304681
-0.9697811604 1.537010312 0.1552861482
-1.177593231 1.867815256 0.2659754753
-1.18087697 1.874475479 0.3442073464
-1.172536731 1.861955047 0.4194609821
-1.064970374 1.692454338 0.451698333
-0.985622704 1.567568183 0.4845612943
-0.9590757489 1.529490471 -0.4721379876
-1.056545854 1.686238885 -0.4494488239
-1.105456471 1.76498425 -0.3965639174
-1.179502249 1.884668708 -0.3454588354
-1.172118545 1.873597622 -0.2662191987
-0.996073842 1.593432069 -0.160689801
-1.169236898 1.872623563 -0.0378350243
-1.178875327 1.880746126 0.03804444894
-1.168682218 1.865207553 0.1131514683
-0.968639493 1.547140956 0.1559834033
-1.174224138 1.876963377 0.2667066753
-1.175702453 1.880056024 0.344520241
-1.167070031 1.867701888 0.4198426306
-1.062449574 1.700934649 0.4530479908
-0.9886022806 1.583938599 0.4887024164
-0.9509362578 1.527742147 -0.4705851078
-1.048890114 1.686423302 -0.4485489726
-1.091305137 1.755301833 -0.3935109675
-1.17637372 1.893603325 -0.3463974297
-1.169041038 1.882533073 -0.2669504285
-0.9739768505 1.569638848 -0.1579008251
-1.166181207 1.881589413 -0.03793973476
-1.171575189 1.882947564 0.0380095467
-1.16460073 1.872464776 0.1133608222
-0.9656065702 1.553729177 0.156332016
-1.169041038 1.882533073 0.2669504285
-1.160084486 1.868839622 0.3417043984
-1.160870552 1.871561527 0.4198426306
-1.058856606 1.707761168 0.4539478421
-0.9752044082 1.574070573 0.4845612943
-0.939771831 1.521026492 -0.467479229
-1.055576086 1.709790826 -0.4539478421
-1.085477829 1.758911371 -0.3935109675
-1.161792517 1.884042978 -0.3438944817
-1.159338117 1.88153255 -0.2662191987
-0.9353300333 1.518574834 -0.1523228586
-0.9338350892 1.517333388 -0.09117037058
-1.15855813 1.883945584 -0.03790483251
-1.162172675 1.88171804 0.03790483251
-1.15595901 1.873119354 0.1131514683
-0.9531269073 1.545052767 0.1551118493
-1.161749721 1.884709835 0.2667066753
-1.152518511 1.871195555 0.3413915634
-1.153627872 1.873729229 0.4194609821
-1.053910375 1.713106632 0.4543977082
-0.96970433 1.577464938 0.4845612943
-0.935466826 1.525944471 -0.4679968953
-1.026189685 1.675244689 -0.4436000884
-1.057802439 1.727529049 -0.385496974
-1.150054574 1.879661679 -0.342330128
-1.154834509 1.888954997 -0.2667066753
-0.898855567 1.470828533 -0.1470935196
-1.147807956 1.881150365 -0.03776520863
-1.152463078 1.880647898 0.0378001146
-1.15358603 1.883956075 0.1135701686
-0.9425273538 1.539873362 0.1542402804
-1.147914171 1.876899123 0.2650004923
-1.155250788 1.890376925 0.3442073464
-1.142986059 1.871043563 0.4179345369
-1.062139034 1.740061641 0.4606963694
-0.9782747626 1.603930593 0.4918082356
-0.9301348925 1.529200435 -0.4679968953
-1.041589737 1.713787913 -0.4530479908
-1.021184325 1.680874825 -0.3740484715
-1.143485785 1.883665085 -0.342330128
-1.144115448 1.886185884 -0.2657317221
-0.891649425 1.470549941 -0.146744892
-0.9232193232 1.52381587 -0.09117037058
-1.147448778 1.895409346 -0.03797464073
-1.143813133 1.881242275 0.03773030639
-1.140780091 1.877730012 0.1129421294
-0.9547274113 1.572104573 0.15720357
-1.139295459 1.877500892 0.2645130157
-1.145571947 1.889330864 0.3432687521
-1.138483524 1.878379464 0.4186977446
-1.048991561 1.732090712 0.4575470686
-0.977671206 1.615599275 0.4943964481
-0.926787138 1.535746098 -0.4690321684
-1.049689651 1.740776658 -0.459346652
-1.016324759 1.686110377 -0.3744300902
-1.1399616 1.892721415 -0.3432687521
-1.133430362 1.883364439 -0.2647567391
-0.8906186819 1.480482817 -0.1474421322
-1.134648085 1.889117241 -0.03776520863
-1.137239695 1.88522315 0.03773030639
-1.130094886 1.87485826 0.112523444
-0.9502624869 1.577133894 0.1573778838
-1.133758903 1.883166552 0.2647567391
-1.132859826 1.88316226 0.3413915634
-1.131920218 1.882341981 0.4186977446
-1.039927483 1.730730772 0.4561973512
-0.9779925346 1.628939509 0.4975022674
-0.9194356203 1.535657167 -0.4679968953
-1.056612372 1.766170621 -0.4651953876
-1.013455272 1.694702864 -0.3755749166
-1.132333994 1.894993663 -0.3429558873
-1.12481451 1.883900285 -0.2642692924
-0.8854457736 1.483582377 -0.1474421322
-1.123951912 1.886195302 -0.0376255922
-1.131679535 1.890897036 0.03776520863
-1.125593185 1.882220149 0.1127327904
-0.9294176102 1.554789186 0.1547632217
-1.126160383 1.885408878 0.2645130157
-1.123242855 1.882016301 0.3404529393
-1.125342131 1.886281848 0.4186977446
-1.031884551 1.731002331 0.4552974999
-0.9683456421 1.625704765 0.4954317212
-0.9120967984 1.535535097 -0.4669616222
-1.042484164 1.756441355 -0.4615961611
-1.034580827 1.743818521 -0.3858786225
-1.122690916 1.893836737 -0.342017293
-1.120254397 1.891231418 -0.2647567391
-0.8883827925 1.500379205 -0.1488366276
-1.119396687 1.8935498 -0.03769540042
-1.120987892 1.887958288 0.0376255922
-1.113920927 1.877548814 0.1122094318
-0.925000608 1.559737921 0.1549375206
-1.122608542 1.894451499 0.2652442455
-1.118679762 1.889325023 0.3410786688
-1.114751697 1.883440495 0.4171712995
-1.028812289 1.739625573 0.4566472173
-0.9587340355 1.622422099 0.4933611751
-0.9037891626 1.533716321 -0.4654086828
-1.041290998 1.768465757 -0.4638456702
-1.044421196 1.774490237 -0.3919845223
-1.113069534 1.892635703 -0.3410786688
-0.897267282 1.527522445 -0.1512769908
-1.114802837 1.900895715 -0.03776520863
-1.109315753 1.883245349 0.0374510698
-1.117491603 1.89863801 0.113256149
-0.916519165 1.557805777 0.1544145942
-1.106935024 1.882956743 0.263050586
-1.115079045 1.898328543 0.342017293
-1.105187654 1.882241368 0.4160264432
-1.028649926 1.753291488 0.459346652
-0.9540414214 1.627425671 0.4938787818
-0.9091541171 1.55520761 -0.4711027145
-1.025282025 1.755262971 -0.459346652
-1.04415977 1.788297653 -0.394274205
-1.040756464 1.78389883 -0.3204293251
-0.8950792551 1.535433054 -0.2130841613
-0.9079799056 1.558188081 -0.1540659666
-1.105144501 1.899590015 -0.03766049817
-1.102735758 1.887105823 0.0374510698
-1.101793289 1.887004733 0.112314105
-0.9140890241 1.566157579 0.1549375206
-1.099354863 1.885094643 0.2628068626
-1.104467869 1.895381927 0.3407658041
-1.096634746 1.882694602 0.4152632058
-1.018602729 1.75013423 0.4575470686
-0.9512687922 1.635755897 0.4954317212
-0.8862758279 1.528290272 -0.4617852271
-1.001562715 1.728480577 -0.4512484074
-1.048734665 1.810619354 -0.3984720111
-1.084987044 1.874714851 -0.3363856375
-1.08448875 1.875363469 -0.2608569562
-0.9264652133 1.602746725 -0.1582494378
-0.8911049366 1.542815804 -0.09117037058
-1.090839744 1.889390349 -0.03738125786
-1.1021595 1.901323557 0.03766049817
-1.094528556 1.888919473 0.1122094318
-0.9136084318 1.577959776 0.1558090746
-1.098731756 1.89923048 0.2642692924
-1.095210314 1.893903732 0.3398271799
-1.090055704 1.886511445 0.4152632058
-1.013461351 1.755367041 0.4579969347
-0.9497012496 1.645594358 0.4975022674
-0.8799720407 1.529700398 -0.4612675905
-0.8889684081 1.545963407 -0.4017591476
-1.094504595 1.90571022 -0.3413915634
-1.086167693 1.89272356 -0.2628068626
-0.9109545946 1.588686705 -0.1565063298
-0.8859834671 1.545762539 -0.09117037058
-1.075294137 1.877569079 -0.03706711531
-1.09485054 1.903234839 0.0376255922
-1.088923335 1.894460678 0.112314105
-0.9130556583 1.589778066 0.1566806436
-1.091439843 1.901142001 0.264025569
-1.077780247 1.878867388 0.3363856375
-1.084770799 1.891818643 0.4156447947
-1.011510134 1.765481353 0.4597965777
-0.9401124716 1.642193079 0.4954317212
-0.870106101 1.524221301 -0.4586794078
-0.9946017861 1.743721843 -0.4534979165
-1.017910719 1.785310507 -0.3912212551
-1.082956195 1.900937319 -0.3398271799
-1.082500696 1.901678801 -0.2635380626
-0.9115929008 1.602089286 -0.1575521976
-1.057869077 1.862185001 -0.03668316454
-1.080272317 1.89315033 0.03734635189
-1.081314802 1.896514654 0.1122094318
-0.9077790976 1.592796922 0.1566806436
-1.082832575 1.901489854 0.2635380626
-1.077076077 1.89291954 0.3382628262
-1.071366549 1.883647799 0.4129734933
-0.9995637536 1.758836389 0.4570971429
-0.9267433286 1.632025242 0.4912905693
-0.86477983 1.527249455 -0.4586794078
-1.016337156 1.796370149 -0.466545105
-1.027135491 1.816195607 -0.3973271549
-1.067568064 1.889227748 -0.3370113671
-1.075855494 1.905446172 -0.2635380626
-0.8785753846 1.556678057 -0.1526714712
-1.061178446 1.883288145 -0.03703221306
-1.067747712 1.886467814 0.03713692725
-1.075670958 1.902016759 0.112314105
-0.8992717862 1.590753078 0.1561577171
-1.06740129 1.889702559 0.2613444328
-1.072404385 1.900108337 0.3388886154
-1.062855005 1.883956552 0.4122102559
-1.016385198 1.803057075 0.4678947926
-0.9257807136 1.643666506 0.4938787818
-0.8584977984 1.528574228 -0.4581617415
-1.027513146 1.8317554 -0.3999984562
-1.042616963 1.860202193 -0.3310668468
-1.06143856 1.895333886 -0.261588186
-0.8809223175 1.573643446 -0.1540659666
-1.064354062 1.90443635 -0.03738125786
-1.061155796 1.890183687 0.03713692725
-1.062185526 1.893565893 0.1115813926
-0.8985860944 1.602571368 0.1570292711
-1.056918025 1.88648963 0.2603694797
-1.063835621 1.900392294 0.3382628262
-1.05147922 1.879088759 0.410302192
-0.9910652637 1.772575021 0.4588967264
-0.918153584 1.643514872 0.4928435087
-0.8550374508 1.534936905 -0.4591970444
-0.956384182 1.718283772 -0.4440499544
-1.021113276 1.835330725 -0.3999984562
-1.058191895 1.90354073 -0.3382628262
-1.050959945 1.892086267 -0.260613203
-0.8792921305 1.583676696 -0.1547632217
-1.056730032 1.906391382 -0.03734635189
-1.059414983 1.902612209 0.03731144965
-1.056540847 1.89900744 0.1116860732
-0.8900809884 1.600474715 0.1565063298
-1.054183602 1.89710784 0.2613444328
-1.046647429 1.885097265 0.3348213136
-1.048723817 1.889613986 0.4118286371
-0.9981022477 1.799883366 0.4651953876
-0.9114743471 1.645020247 0.492325902
-0.8478054404 1.534530401 -0.4581617415
-0.9974704981 1.80691433 -0.466545105
-1.016597152 1.84232223 -0.4007617235
-1.053448915 1.910682678 -0.3388886154
-1.050096393 1.906175375 -0.2620756328
-0.8699147105 1.579755068 -0.1540659666
-0.831913054 1.51199317 -0.08823955804
-1.045252562 1.90130651 -0.03717182949
-1.054700971 1.909799218 0.03738125786
-1.049905062 1.902684212 0.1116860732
-0.8806401491 1.59659338 0.1558090746
-1.051387072 1.90773046 0.2623193562
-0.8437734246 1.53228271 0.2703702748
-1.045908809 1.900142908 0.4133551419
-0.9786661863 1.779450655 0.4588967264
-0.9029358029 1.64311254 0.4907729626
-0.8378017545 1.529009581 -0.4555735588
-0.9686974883 1.7693609 -0.4557474256
-1.002619624 1.832082033 -0.3977087736
-1.0439291 1.909148693 -0.3379499912
-1.042484641 1.908086896 -0.2618319094
-0.8529351354 1.56179893 -0.151974231
-0.8007999659 1.467550635 -0.08541341126
-1.042437911 1.911966681 -0.03731144965
-1.042264938 1.902945876 0.03717182949
-1.03942132 1.899329543 0.1112673879
-0.8511574268 1.555958867 0.1514513046
-1.047577262 1.916615009 0.263050586
-0.838419199 1.535218954 0.2703702748
-1.04115057 1.907229066 0.4141183496
-0.9855123758 1.806807637 0.4651953876
-0.8916483521 1.63607645 0.4876671433
-0.8368028402 1.540557861 -0.4581617415
-0.9231639504 1.700964212 -0.4368515313
-1.028664589 1.896142483 -0.4110653996
-1.032218575 1.904278755 -0.3363856375
-1.038319945 1.91713202 -0.2625631094
-0.8377200365 1.547393203 -0.1502311081
-0.8068184257 1.491556764 -0.08666948229
-1.035757899 1.915593624 -0.03731144965
-1.029557705 1.89620924 0.0369623974
-1.036596179 1.909967422 0.1116860732
-0.8511470556 1.569576859 0.1524971575
-1.026360631 1.894261003 0.2593944967
-0.8358777761 1.543347001 0.2713088989
-1.025744319 1.895492077 0.4106837809
-0.982591331 1.81726408 0.466994971
-0.887768507 1.642578006 0.4887024164
-0.8332529664 1.546870828 -0.4591970444
-0.8990411758 1.669699669 -0.4278534949
-1.028550148 1.911824465 -0.4137367308
-1.025898337 1.907691002 -0.3363856375
-1.023500085 1.904827237 -0.2603694797
-0.8162925839 1.52046597 -0.1472678185
-1.030955195 1.922721744 -0.03738125786
-1.024212718 1.901373148 0.03699730709
-1.024243832 1.903021812 0.111058034
-0.8390577435 1.560254931 0.1512769908
-1.021953583 1.901150942 0.2598819733
-0.8304857612 1.546255231 0.2713088989
-1.021310568 1.902342439 0.4114470482
-0.9691905379 1.806774139 0.4633957446
-0.8856793642 1.652478099 0.4907729626
-0.8281183243 1.549625874 -0.4591970444
-0.9317578077 1.745027423 -0.4467493892
-1.020356297 1.911760569 -0.4129734933
-1.02295053 1.918232679 -0.3376370966
-1.012177825 1.899628282 -0.2591508031
-0.8149920106 1.530198812 -0.1479650736
-1.019542933 1.917481065 -0.03720673546
-1.018511176 1.906701088 0.03703221306
-1.014772892 1.901299477 0.1107440144
-0.8329409361 1.561271191 0.151102677
-1.01157558 1.897699952 0.2589070499
-0.822296977 1.543914437 0.2703702748
-1.014663458 1.905896068 0.4114470482
-0.9555559158 1.796382546 0.4597965777
-0.8735595345 1.643618226 0.4871495068
-0.8199906349 1.547385812 -0.4576441348
-0.9283968806 1.753435731 -0.4480991066
-1.010003686 1.908369541 -0.4114470482
-1.015325427 1.920045495 -0.3373242617
-1.010177851 1.911925673 -0.2603694797
-0.8049937487 1.524225354 -0.1470935196
-1.003517389 1.903338909 -0.03685768694
-1.013721704 1.913778543 0.03710202128
-1.009064794 1.906595349 0.110848695
-0.8265545964 1.562407851 0.1509283632
-0.9288774133 1.757308722 0.2389204651
-0.8095229268 1.53280127 0.2678673267
-1.008004904 1.909426093 0.4114470482
-0.9547349811 1.810048938 0.4624959528
-0.8687180281 1.648366332 0.4876671433
-0.8136852384 1.54852879 -0.4571264982
-0.9222710133 1.756665587 -0.4480991066
-1.002423286 1.910145283 -0.4110653996
-1.007699132 1.921828628 -0.3370113671
-1.005339622 1.918956995 -0.2608569562
-0.7885763049 1.505846024 -0.1450017691
-0.9981264472 1.908428431 -0.03689258918
-1.004245162 1.911994576 0.03699730709
-1.004593968 1.913467646 0.111058034
-0.8192443252 1.561755061 0.1505797356
-0.8324275017 1.588233948 0.2150340676
-0.8044351339 1.5354774 0.2678673267
-0.9967807531 1.904236555 0.4095389545
-0.9429914951 1.803009868 0.4597965777
-0.8534013629 1.632406116 0.4819731116
-0.8100605011 1.554785967 -0.4581617415
-0.9137396812 1.754529357 -0.4467493892
-0.9975623488 1.917115688 -0.4118286371
-0.995851934 1.91464448 -0.3351341486
-0.9971404076 1.918757439 -0.2603694797
-0.8035143614 1.547490358 -0.1488366276
-0.9969825149 1.92255187 -0.03710202128
-0.9932797551 1.906447053 0.03682278097
-0.9997525811 1.920506239 0.1112673879
-0.8183849454 1.573442936 0.1514513046
-0.8234937191 1.583940387 0.2140591145
-0.8008919954 1.541782022 0.2684930861
-0.9877467752 1.902304053 0.4083940983
-0.944186151 1.819965839 0.4633957446
-0.8432530761 1.626799226 0.4793849289
-0.806673646 1.560896397 -0.4591970444
-0.9049277306 1.752513289 -0.4453996718
-0.9939003587 1.925647259 -0.4129734933
-0.9900674224 1.919865012 -0.3354470432
-0.9877092838 1.916932225 -0.2596382499
-0.8166230917 1.585571885 -0.1523228586
-0.9902650118 1.926020503 -0.03710202128
-0.9847837687 1.906349063 0.03675297275
-0.9857137799 1.909786105 0.1104300097
-0.8085954785 1.567294836 0.1505797356
-0.8097734451 1.570925355 0.2118654698
-0.7964093685 1.546324611 0.2688059509
-0.9819985032 1.907486081 0.4087756872
-0.9396107197 1.826716304 0.4642955959
-0.8393359184 1.633169174 0.480420202
-0.8029823899 1.567141056 -0.4602323174
-0.8943641782 1.746988535 -0.4431501627
-0.9809125066 1.916870832 -0.410302192
-0.9833602309 1.923309207 -0.3354470432
-0.9773990512 1.913297296 -0.2586632967
-0.8020230532 1.57066834 -0.1505797356
-0.9780873656 1.918775797 -0.03689258918
-0.9799460769 1.913334966 0.03682278097
-0.9735827446 1.902547121 0.1098019779
-0.8094704151 1.582524657 0.1517999172
-0.8042852283 1.573742151 0.2118654698
-0.7856170535 1.538539171 0.2669287026
-0.9753345847 1.910902143 0.4087756872
-0.917293191 1.798736095 0.4561973512
-0.8318753839 1.63264668 0.4793849289
-0.7852583528 1.54582119 -0.4529853761
-0.8953167796 1.764001489 -0.4467493892
-0.9706627131 1.913279414 -0.4087756872
-0.9775341749 1.928491592 -0.335759908
-0.9707139134 1.916697621 -0.2586632967
-0.8127335906 1.605454922 -0.1537173539
-0.9623647332 1.90433073 -0.03654354066
-0.9723553658 1.9149611 0.036787875
-0.9687433243 1.909496069 0.1100113168
-0.7967321873 1.571125269 0.1504054368
-0.7996845245 1.578310728 0.2121092081
-0.7757811546 1.532459974 0.2653643787
-0.9722045064 1.92130208 0.410302192
-0.9215593934 1.822796702 0.4615961611
-0.8157185912 1.614848733 0.4731732905
-0.7798572183 1.548553109 -0.4529853761
-0.8900293112 1.768857121 -0.4471993148
-0.9683883786 1.925426006 -0.4106837809
-0.9681350589 1.926597238 -0.3348213136
-0.9657993317 1.92362237 -0.2591508031
-0.8008684516 1.595817208 -0.1524971575
-0.8057550192 1.606953144 -0.09200774878
-0.9557110071 1.907678723 -0.03654354066
-0.9548758864 1.896909475 0.03636901826
-0.9620714784 1.912866235 0.1100113168
-0.7903484702 1.572116375 0.1502311081
-0.7932789326 1.579318762 0.2118654698
-0.7677686214 1.529862165 0.2644257843
-0.9593294859 1.912400365 0.4076308608
-0.9151914716 1.826002359 0.4615961611
-0.7858569622 1.569319606 0.4586794078
-0.7718586922 1.54608047 -0.4514324963
-0.8786308169 1.761489868 -0.4444998801
-0.9642899036 1.934065104 -0.4118286371
-0.9578812718 1.922891974 -0.3335697949
-0.9590791464 1.926981807 -0.2591508031
-0.7970683575 1.602170587 -0.1528457999
-0.8036971092 1.616909742 -0.09242643416
-0.9499351978 1.912794471 -0.03657845035
-0.8152092099 1.633627653 0.03116820008
-0.9580624104 1.921574712 0.1103253365
-0.7848562598 1.57486558 0.1502311081
-0.7842214704 1.574970484 0.2108905166
-0.7624240518 1.532532692 0.2644257843
-0.9500250816 1.910463929 0.4064860046
-0.9114127159 1.834421754 0.4629458785
-0.7743617296 1.559940338 0.4550559223
-0.7673135996 1.550496936 -0.451950103
-0.8681584001 1.755811572 -0.442250371
-0.9557926059 1.933899641 -0.4110653996
-0.9511627555 1.926224113 -0.3335697949
-0.9488331676 1.923197031 -0.2581758201
-0.7897080183 1.6013695 -0.1524971575
-0.9291217923 1.887392879 -0.03601996973
-0.7997484207 1.616747141 0.03078424931
-0.9460389018 1.914164424 0.1096972972
-0.7767063975 1.572236896 0.1497081816
-0.7716905475 1.563457727 0.2089405954
-0.7614378929 1.544043303 0.2659901083
-0.945086956 1.917290092 0.4072492421
-0.9058651924 1.839339972 0.4633957446
-0.7663525939 1.557433844 0.4535030127
-0.7653002143 1.560103416 -0.454020679
-0.8491591811 1.732583404 -0.4355018139
-0.943854332 1.926645517 -0.4087756872
-0.9444336295 1.929532409 -0.3335697949
