# .PCD v0.7 - Point Cloud Data file format
VERSION 0.7
FIELDS x y z
SIZE 4 4 4
TYPE F F F
COUNT 1 1 1
WIDTH 1223
HEIGHT 1
VIEWPOINT 0 0 0 1 0 0 0
POINTS 1223
DATA ascii
2.666477442 -4.390761852 -0.8069406152
2.813550472 -4.634762764 -0.6605884433
2.834511757 -4.672969818 -0.474450469
4.503312588 -7.429998398 -0.4531258941
2.833999395 -4.67764616 -0.09476476908
2.896196604 -4.761533737 0.09657981992
2.86698842 -4.71536684 0.287011534
2.832601786 -4.662476063 0.4735789299
2.819731236 -4.644944191 0.6620509028
2.793040752 -4.602788925 0.8460492492
2.791877508 -4.604494572 1.038445473
2.771785498 -4.573158264 1.224630117
2.760573149 -4.558248043 1.416309953
0.4758961797 -0.7879690528 -0.2350597382
2.318999529 -3.844249487 -0.8644275665
2.625388622 -4.355593204 -0.7988060117
2.735904455 -4.542527199 -0.6459641457
2.72161293 -4.522368908 -0.4580652118
2.740750313 -4.555968285 -0.2764396667
2.720813274 -4.526404381 -0.0914837122
2.789442301 -4.620462894 0.09350819886
2.770041943 -4.59195137 0.2788471282
2.718356133 -4.508049011 0.4568450153
2.712109566 -4.501241684 0.640114367
2.68322134 -4.456815243 0.8172652721
2.684471846 -4.460653782 1.003718138
2.669438839 -4.439181805 1.185938597
2.643157482 -4.398952961 1.363510847
0.4670490324 -0.7797641158 -0.231953904
2.305902481 -3.854408026 -0.8648092151
2.58710885 -4.327884674 -0.7919228673
2.622279882 -4.388460636 -0.6225651503
2.628185034 -4.401830673 -0.444817543
2.640124083 -4.425336838 -0.2678565681
2.608719587 -4.374431133 -0.08820267022
2.670544386 -4.458621025 0.09001772106
2.676044941 -4.471345425 0.2708920538
2.611828089 -4.367506027 0.4415056109
2.604712486 -4.357333183 0.6181778908
2.588637114 -4.333875179 0.7928614616
2.568495512 -4.303565502 0.9659379125
2.571304321 -4.311691284 1.14904654
2.538759232 -4.258807659 1.31692338
0.4722192883 -0.7946757674 -0.2360950261
2.29644227 -3.869186878 -0.86633569
2.538734198 -4.280819893 -0.7815982103
2.515099525 -4.244343281 -0.6006287336
2.514583349 -4.246851444 -0.4280836284
2.533104897 -4.279835701 -0.2584360838
2.501055241 -4.22905302 -0.08506122977
2.574528694 -4.334276676 0.0872951448
2.582165718 -4.35059166 0.2629370093
2.525404453 -4.256650448 0.4293038249
2.513815165 -4.240488529 0.6001412272
2.492196083 -4.207366943 0.7678319812
2.478437662 -4.185805321 0.9373166561
2.46891737 -4.173048019 1.109455228
2.458247423 -4.158326149 1.282759309
0.4693034589 -0.7964012623 -0.2360950261
2.273282051 -3.862350225 -0.8629010916
2.436908007 -4.143660545 -0.7546914816
2.431859255 -4.136728764 -0.5840544701
2.441215038 -4.155962944 -0.4179735482
2.428435087 -4.137512684 -0.2492249757
2.433658361 -4.148069859 -0.08324618638
2.480195999 -4.208857059 0.08457256109
2.481838942 -4.215008259 0.2541445494
2.451188326 -4.166277885 0.4191937447
2.408430099 -4.095237255 0.578204751
2.39342761 -4.072981358 0.741550982
2.393494606 -4.076352119 0.9106033444
2.376687527 -4.050965309 1.074362874
2.379216671 -4.056898117 1.248595119
0.4645706713 -0.7946989536 -0.2350597382
2.256816864 -3.865175486 -0.8617562056
2.356729746 -4.039530754 -0.7340421081
2.340701103 -4.015276432 -0.5655303001
2.360487461 -4.050843716 -0.4064690173
2.355690002 -4.045855522 -0.2431540042
2.393010616 -4.111604214 -0.08233866096
2.39614749 -4.100514889 0.08219903708
2.384506226 -4.082228661 0.2455614507
2.350259066 -4.026824474 0.4042029679
2.329401016 -3.994290113 0.5626054406
2.315526009 -3.972090244 0.7215273976
2.321938276 -3.986288309 0.8884695768
2.309598446 -3.968287468 1.05006814
2.308695555 -3.968328714 1.21857214
0.4637320936 -0.7996581793 -0.2360950261
2.27254796 -3.931412935 -0.3935699463
2.346422672 -4.046164036 0.08094246686
2.304152966 -3.976472139 0.2386531085
2.272296906 -3.924652815 0.3930470049
2.256482363 -3.898906946 0.547981143
2.238358021 -3.87070632 0.7015036941
2.235018015 -3.866487741 0.8598482013
2.230149746 -3.861175299 1.019474864
2.21371603 -3.835814714 1.175090551
0.4687865376 -0.8145865202 -0.2402361035
2.019129753 -3.512792349 -0.7793267965
2.165867567 -3.771127224 -0.6821058989
1.643423438 -2.863781214 -0.4002754986
2.188019276 -3.81895113 -0.07612560689
1.643808246 -2.858669758 0.1706163585
2.201700449 -3.8319695 0.3829369545
2.181581259 -3.80002284 0.532869339
2.170450211 -3.782162428 0.6839830875
2.155100346 -3.758452654 0.8338981271
2.154656649 -3.760720253 0.9906810522
2.145299435 -3.745903254 1.145067453
0.4582783282 -0.8027961254 -0.2360950261
2.004910469 -3.516407728 -0.7785634995
2.106400251 -3.695910454 -0.667088151
2.109363794 -3.704114914 -0.5182450414
1.605038643 -2.81165123 0.05581099913
1.604132891 -2.812343836 0.167476207
2.127145052 -3.732309341 0.3721296489
2.108045578 -3.700296879 0.5177575946
2.104465008 -3.697012663 0.667088151
2.096992016 -3.685379505 0.8159621358
2.088237047 -3.672976017 0.9654865265
2.080682755 -3.662663698 1.11711514
0.4632309675 -0.8177586198 -0.2402361035
1.987437844 -3.512784243 -0.776273787
2.046824694 -3.620698214 -0.6520704031
2.051511765 -3.631947994 -0.5070330501
2.053715467 -3.638814688 -0.3618452549
2.023829937 -3.590254545 -0.07123892754
2.081954718 -3.676847458 0.07305397838
1.613976002 -2.852692604 0.1695696414
2.065716982 -3.652629614 0.363414079
2.040426254 -3.610850811 0.5041081309
2.027446747 -3.590807438 0.6464388371
1.962529421 -3.477249384 0.7678781748
2.017968893 -3.578397036 0.9384924173
2.016673565 -3.579018831 1.089162588
0.4507705569 -0.8026071787 -0.2350597382
1.958221316 -3.490936756 -0.7697862983
1.981386542 -3.535125017 -0.6351755261
1.986427307 -3.545569181 -0.4938711822
1.996232748 -3.565989494 -0.3538269401
1.977337599 -3.535130262 -0.2100776732
1.718522668 -3.073673964 -0.06076748297
2.024063349 -3.603890419 0.07144835591
2.012571573 -3.586359501 0.2133225054
2.003593683 -3.573283911 0.3546984792
1.847285032 -3.295865297 0.4587727785
1.956987381 -3.494452238 0.6276667118
1.964151263 -3.510118484 0.7736024857
1.799422383 -3.218367577 0.8413135409
1.676187754 -2.999184847 0.9090245366
0.4554871917 -0.8176770806 -0.2392008305
1.919297576 -3.449714184 -0.7591009736
1.915286183 -3.445334196 -0.61765486
1.921367884 -3.459116697 -0.4807092845
1.923810005 -3.464937925 -0.3430196047
1.926229477 -3.472150564 -0.2058907896
1.913375735 -3.450400352 -0.06816729903
1.952471018 -3.506458044 0.06935407221
1.967015266 -3.534028292 0.209763661
1.657992125 -2.981272459 0.2947353423
1.914257765 -3.444899797 0.4787593484
1.896818042 -3.414918661 0.6120232344
1.898535728 -3.420823574 0.7522318959
1.89969492 -3.425729513 0.8944019675
1.880185127 -3.39194417 1.027563691
0.4470248818 -0.8091164231 -0.2360950261
1.866458774 -3.382479191 -0.7426914573
1.8523314 -3.358262062 -0.6007599235
1.860062599 -3.37506485 -0.4680348635
1.867494464 -3.391349316 -0.3350012898
1.874254465 -3.405031443 -0.2014945745
1.865664244 -3.392227888 -0.06687582284
1.896349192 -3.432398081 0.06774844229
1.863934517 -3.376511097 0.1999244988
1.549423337 -2.809092283 0.2769555748
1.854901195 -3.364309311 0.4665724039
1.846759796 -3.352310896 0.5995084643
1.843619108 -3.347991943 0.734677434
1.850747824 -3.363715887 0.8764059544
1.831106901 -3.330770731 1.00685811
0.4480536878 -0.8173704743 -0.2381655723
1.801491976 -3.290492296 -0.720939219
1.800780773 -3.291920424 -0.5876194239
1.804474711 -3.301410437 -0.4568228722
1.806564331 -3.30660367 -0.3259370923
1.818335652 -3.33091259 -0.1966796666
1.806512356 -3.310627937 -0.06513058394
1.836310744 -3.35131216 0.06600320339
1.841214061 -3.36165309 0.1986684501
1.547751307 -2.828197002 0.2783500552
1.796479821 -3.285419703 0.4546292126
1.790157199 -3.275215387 0.5844907761
1.78957653 -3.276869774 0.7175046802
1.792322874 -3.2846241 0.8539108634
1.771023512 -3.246938229 0.9794233441
0.4488886297 -0.8257184625 -0.2402361035
1.305530071 -2.405488253 -0.426804781
1.792714357 -3.297649384 0.06481644511
1.522500634 -2.802930593 0.1649640799
1.514110088 -2.789804697 0.2739922702
1.767589688 -3.258206844 0.4499981999
1.761769533 -3.250184298 0.5788590908
1.284873128 -2.371374607 0.516010344
1.282282829 -2.368567705 0.6118634343
1.281729937 -2.369521379 0.7102515101
0.444313854 -0.8238019347 -0.2392008305
1.245556951 -2.312283039 -0.5022720695
1.260613441 -2.342192411 -0.4146028757
1.247931242 -2.320569754 -0.318379283
1.263289809 -2.350112677 -0.2297171652
1.261676192 -2.349076748 -0.1375400275
1.25383544 -2.336434126 -0.04558388889
1.280144691 -2.374507189 0.04638670012
1.279700279 -2.375667334 0.1392147839
1.267763853 -2.354492426 0.2302400768
1.242693305 -2.309863091 0.3169168532
1.234134197 -2.295874119 0.4061554074
1.256144166 -2.33779788 0.5076147318
1.236214399 -2.302634239 0.5934174657
1.233270645 -2.29907608 0.6874754429
0.4341465831 -0.8117198348 -0.2350597382
1.207877398 -2.261203051 -0.4900603294
1.221735954 -2.289069891 -0.4042782187
1.225812078 -2.298638105 -0.3147231936
1.225087643 -2.29824543 -0.2241391838
1.234690905 -2.318210125 -0.1354465932
1.222186565 -2.296664238 -0.04471126944
1.24356401 -2.326056242 0.04533955455
1.241286397 -2.323746443 0.1358652711
1.229507327 -2.302662134 0.2246621251
1.214066386 -2.27565527 0.3115545809
1.20288229 -2.256588459 0.3983336687
1.216587186 -2.283258677 0.4946397245
1.206190586 -2.265651703 0.5826198459
1.198927641 -2.253905535 0.6724639535
0.4295001626 -0.8098170161 -0.2340244651
1.179759622 -2.22723794 -0.481664747
1.178625107 -2.226974964 -0.3923892081
1.192726016 -2.255522013 -0.3081422746
1.189125657 -2.249664307 -0.2189098448
1.196743965 -2.265991211 -0.1320970953
1.188964486 -2.253165007 -0.04376883805
1.198907971 -2.261478901 0.04397827014
1.207925558 -2.28041172 0.1330391467
1.191628456 -2.250594616 0.2190841585
1.17826736 -2.227239132 0.3042424321
1.172843099 -2.218859911 0.3908248544
1.177426815 -2.228472233 0.481664747
1.173710704 -2.2233181 0.5704724789
1.162211418 -2.203397751 0.6558995247
0.4230740368 -0.8044720292 -0.231953904
1.140939116 -2.17224741 -0.4686897397
1.145142198 -2.182099581 -0.383628875
1.144284606 -2.182316542 -0.2974177599
1.157218099 -2.207919359 -0.214377746
1.150838256 -2.197612047 -0.1278055459
1.159769893 -2.216549873 -0.04296602681
1.166814327 -2.219629288 0.04307074472
1.172096491 -2.231568336 0.1298989803
1.159685373 -2.208874941 0.2145520598
1.132677674 -2.159263849 0.2942491472
1.143999577 -2.182698965 0.383628875
1.142308116 -2.180397272 0.4702161849
1.138830304 -2.175606251 0.5569754243
1.126758099 -2.154373646 0.6398527622
0.4202632904 -0.8059439063 -0.231953904
1.107958317 -2.127460957 -0.458004415
1.109251738 -2.131761074 -0.3739299178
1.112851977 -2.14050436 -0.2910805345
1.115510225 -2.146532536 -0.2079282254
1.116469145 -2.150211573 -0.1247700602
1.117032051 -2.153133154 -0.04163964465
1.131330848 -2.170490742 0.04202359915
1.12370801 -2.157702923 0.1252934188
1.126208305 -2.163426161 0.2096713334
1.097653508 -2.110371113 0.2869369984
1.101759076 -2.120071888 0.3717398345
1.107539773 -2.132104635 0.4587676525
1.098911524 -2.117300749 0.540778935
1.094329596 -2.110274553 0.6253588796
0.4227708876 -0.8177022934 -0.2350597382
1.074403524 -2.080727339 -0.4469375014
1.08368969 -2.100509882 -0.3676725328
1.079906344 -2.094970942 -0.2842558622
1.085196137 -2.106135607 -0.2035704255
1.092501402 -2.122132301 -0.1228859723
1.082983613 -2.105449915 -0.04062740505
1.10079515 -2.130014181 0.04115097597
1.095093369 -2.120795965 0.1228859723
1.091235399 -2.114229679 0.2044419795
1.075722933 -2.085960865 0.2830371559
1.069922805 -2.076493025 0.3632923663
1.078516364 -2.094069004 0.4496088028
1.068330407 -2.076071739 0.5290814638
1.065756559 -2.072847843 0.6129355431
0.4216764569 -0.8226114511 -0.2360950261
1.070712447 -2.091455221 -0.4484639764
1.07455194 -2.100762367 -0.3670467734
1.059710026 -2.074424982 -0.2000841945
1.064203501 -2.085017204 -0.1204785109
1.057458401 -2.073589087 -0.039929308
1.080587029 -2.108928442 0.04066231102
1.076761842 -2.103271723 0.1216299087
1.067511559 -2.086100101 0.2013043761
1.057807922 -2.071593285 0.4438845515
1.054877758 -2.067637205 0.5259321332
0.4118005931 -0.8103006482 -0.231953904
1.05274272 -2.07417202 -0.4438845515
1.045770168 -2.062217474 -0.3595379591
1.051796675 -2.075897455 -0.2805997729
1.053362846 -2.079888821 -0.2002585232
1.053311825 -2.081591129 -0.1200598255
1.058333874 -2.093329191 -0.04024345428
1.064893723 -2.098112583 0.1211065501
1.060223103 -2.089813948 0.2013043761
1.045876384 -2.063319445 0.2788936198
1.043797851 -2.061002493 0.3592250645
1.047910094 -2.07001853 0.4427397251
1.04589498 -2.067828894 0.5250323415
1.031218886 -2.040581465 0.6010298729
0.4228771627 -0.8393372297 -0.2402361035
1.044613957 -2.076080322 -0.4435029626
1.044776082 -2.078209639 -0.3617280126
1.040979981 -2.07246089 -0.2796248496
1.047884226 -2.087114573 -0.2006071359
1.039770722 -2.072758198 -0.119327113
1.056396604 -2.107736826 -0.04045288265
1.045150638 -2.075343132 0.03985949978
1.047688723 -2.082191229 0.1199551523
1.051131368 -2.089942217 0.2009557486
1.028863072 -2.047446489 0.2762124836
1.034824491 -2.061102867 0.358599335
1.03539443 -2.063135624 0.4404500127
1.030809164 -2.055788755 0.5209832191
1.026685476 -2.0493505 0.6025828123
0.4095863998 -0.8200688958 -0.2340244651
1.029473782 -2.063902617 -0.4400683641
1.034872055 -2.076539993 -0.3607894182
1.029315352 -2.067197084 -0.2784061432
1.039704561 -2.088975906 -0.2004328221
1.030750513 -2.072798491 -0.1191177741
1.037465692 -2.088130474 -0.03999911621
1.040579677 -2.084346056 0.03996421397
1.036848187 -2.078686953 0.1195364669
1.041162729 -2.088249445 0.2004328221
1.022595048 -2.052802563 0.2764562368
1.019702077 -2.04878664 0.3557835221
1.029935241 -2.070252895 0.4412132204
1.019289851 -2.050649166 0.5187336802
1.021244407 -2.056381941 0.6036180854
0.4050069749 -0.8180310726 -0.232989192
1.016171932 -2.055164576 -0.4373970628
1.024992704 -2.074826479 -0.3598507941
1.019457221 -2.065437078 -0.2776749134
1.026235938 -2.080084801 -0.1992126405
1.023508787 -2.076384068 -0.1191177741
1.03053546 -2.09155941 -0.03999911621
1.034184337 -2.089757442 0.03999911621
1.029063582 -2.080323458 0.1194317937
1.032101631 -2.088298559 0.2000841945
1.015423417 -2.056359529 0.2764562368
1.006782174 -2.039757252 0.3535934091
1.025307298 -2.079117775 0.4423580766
1.012986779 -2.055943012 0.5191836357
1.009298325 -2.049358845 0.6005122662
0.3970424831 -0.8090342283 -0.2298833728
1.014176011 -2.069276571 -0.4396867752
1.01810658 -2.07821393 -0.3598507941
1.021329522 -2.086636066 -0.2801122963
1.018968821 -2.083654404 -0.1992126405
1.024511695 -2.095915794 -0.1200598255
1.024106145 -2.096940756 -0.04003402591
1.026368141 -2.091380596 0.03996421397
1.025312781 -2.091075897 0.1198504716
1.022176147 -2.08652091 0.1995612532
1.012090564 -2.066846609 0.2774311602
1.001392245 -2.046807766 0.3542191386
1.014957309 -2.075451612 0.4408316016
1.00787437 -2.06279254 0.5200834274
0.9987486005 -2.04592514 0.5984416604
0.4095737636 -0.8416137695 -0.2392008305
1.009882808 -2.077925444 -0.4408316016
1.007394671 -2.074647427 -0.358599335
1.0157727 -2.093760252 -0.2805997729
1.010314822 -2.083436728 -0.1988640279
1.013705611 -2.092289686 -0.1196411327
1.020632982 -2.107524395 -0.04017364234
1.013813019 -2.084161043 0.0397547856
1.018372774 -2.09446454 0.1198504716
1.016992807 -2.093483448 0.1999098957
1.004002929 -2.068581104 0.2771874666
0.9945995212 -2.050117016 0.3542191386
1.004281163 -2.07191515 0.4393051267
1.005764246 -2.076821566 0.5227828622
0.9936421514 -2.052703619 0.5994769335
0.3948834836 -0.8186781406 -0.231953904
1.004327655 -2.084975719 -0.4415948689
1.000509262 -2.077976704 -0.358599335
1.008823872 -2.097117424 -0.2805997729
1.007351398 -2.095929146 -0.1997355819
1.006761909 -2.095639467 -0.1196411327
1.015000701 -2.114679813 -0.04024345428
1.008633614 -2.091113806 0.03982459381
1.00932157 -2.094408035 0.1196411327
1.012271643 -2.102406263 0.2004328221
0.9911119342 -2.059377909 0.2754812539
0.9925729632 -2.064258099 0.3560963869
0.9974048138 -2.075234175 0.4393051267
0.9938102365 -2.069605112 0.5200834274
0.9881420732 -2.059643269 0.6005122662
0.3971675932 -0.8304397464 -0.2350597382
0.9974080324 -2.088294506 -0.4415948689
0.9983542562 -2.092153311 -0.3604765534
0.9963713288 -2.089874744 -0.2791373432
1.004681349 -2.108251333 -0.2006071359
1.001157761 -2.102747679 -0.1198504716
1.005035877 -2.11279273 -0.04013874009
1.003053069 -2.098230124 0.03989440575
1.000283003 -2.09431386 0.1194317937
1.008727908 -2.112943411 0.2011300772
0.9839172363 -2.062825203 0.2754812539
0.9853615165 -2.067710161 0.3560963869
0.995220542 -2.089338064 0.4415948689
0.9849053025 -2.06954217 0.5191836357
0.9826055765 -2.06656909 0.6015475392
0.392611444 -0.8283298016 -0.2340244651
0.9867525101 -2.084665298 -0.4400683641
0.9927344322 -2.099196911 -0.361102283
0.9890704155 -2.09333992 -0.2791373432
0.9939123392 -2.104539394 -0.1999098957
0.9938119054 -2.106229544 -0.1198504716
0.9993600845 -2.119905472 -0.04020854831
0.999147296 -2.108947277 0.04003402591
0.9946752787 -2.101403236 0.1196411327
0.9996420145 -2.112849712 0.2007814497
0.9818006754 -2.0770154 0.2769437134
0.9747633338 -2.0639925 0.3548449278
0.9912737012 -2.099900484 0.443121314
0.9793375134 -2.076492786 0.5200834274
0.9770330787 -2.073481798 0.6025828123
0.3864324391 -0.8227009773 -0.231953904
0.9811373353 -2.091651678 -0.4408316016
0.9854005575 -2.10264945 -0.361102283
0.9868078828 -2.107566595 -0.2805997729
0.9870365262 -2.109972239 -0.2000841945
0.9915295243 -2.120541334 -0.1204785109
0.9902615547 -2.119757414 -0.04013874009
0.9917798042 -2.112421989 0.04003402591
0.9907268882 -2.112095356 0.1200598255
0.9880318642 -2.107306242 0.1999098957
0.9779128432 -2.087620258 0.2779186368
0.969227612 -2.07096076 0.3554706573
0.9822738767 -2.099791288 0.4423580766
0.9753838778 -2.086960554 0.5218830705
0.9648848772 -2.066376925 0.5994769335
0.3931933641 -0.8451305032 -0.2381655723
0.9784274697 -2.105916739 -0.443121314
0.9743604064 -2.099080086 -0.3598507941
0.9844579101 -2.121802807 -0.2820622325
0.9788274169 -2.111597538 -0.1999098957
0.9803933501 -2.116911888 -0.1200598255
0.9887363911 -2.135904074 -0.04038307071
0.9810258746 -2.108618975 0.03989440575
0.9883993268 -2.126407623 0.1206878498
0.9844974875 -2.119948864 0.2007814497
0.9706196189 -2.091021299 0.2779186368
0.9636549354 -2.077915192 0.3560963869
0.9712696671 -2.096252203 0.4408316016
0.9693654776 -2.094058275 0.5227828622
0.9592887163 -2.073239088 0.6005122662
0.3789178133 -0.8219362497 -0.230918631
0.9718917608 -2.111102581 -0.4435029626
0.9686784148 -2.106057405 -0.3604765534
0.9733588696 -2.118181467 -0.2810872495
0.9731137156 -2.118622541 -0.2002585232
0.9696658254 -2.113059998 -0.1196411327
0.9859018922 -2.150420189 -0.0405925028
0.9766380191 -2.119465113 0.04003402591
0.9772582054 -2.122759342 0.1202691719
0.9787569046 -2.126992464 0.2011300772
0.9612910151 -2.090957403 0.2774311602
0.9568568468 -2.083228588 0.3564092517
0.9639466405 -2.099629641 0.4408316016
0.9628623128 -2.099200487 0.5232326984
0.9565122128 -2.087278366 0.6036180854
0.3776518404 -0.8267683983 -0.231953904
0.9620723128 -2.109123468 -0.4423580766
0.9645975828 -2.116616249 -0.3617280126
0.9643142223 -2.117952824 -0.2805997729
0.9714895487 -2.134700298 -0.2014786899
0.9639374614 -2.120068073 -0.1198504716
0.9742540121 -2.14474535 -0.0404179804
0.9692339897 -2.122861147 0.04003402591
0.9656980038 -2.117072105 0.1197458133
0.9746326208 -2.137647152 0.2018273026
0.9523402452 -2.090687275 0.2769437134
0.9503975511 -2.088353634 0.3567221165
0.9647404552 -2.12085247 0.4446478188
0.9539164901 -2.099000216 0.5223329067
0.9524149895 -2.097640514 0.6056886315
0.3795425594 -0.8386416435 -0.2350597382
0.9514700174 -2.105312824 -0.4408316016
0.9572033286 -2.119970322 -0.3617280126
0.9572854042 -2.12113905 -0.2805997729
0.9615752697 -2.132629395 -0.2009557486
0.9614527822 -2.134346247 -0.1204785109
0.9638523459 -2.140670538 -0.04027835652
0.9651147723 -2.133519173 0.04017364234
0.9627863169 -2.129362106 0.1202691719
0.9655246735 -2.137404919 0.2014786899
0.9499362707 -2.104855061 0.2784061432
0.9418424964 -2.087892532 0.3560963869
0.9589449167 -2.127786636 0.4454110265
0.946950376 -2.102152348 0.5223329067
0.9438682199 -2.097264051 0.6046533585
0.3672713935 -0.8187440634 -0.2288480848
0.947693944 -2.115623236 -0.4423580766
0.9517817497 -2.126739025 -0.3623537421
0.9551095963 -2.135174274 -0.2820622325
0.9496203661 -2.124892712 -0.1999098957
0.9559986591 -2.141170263 -0.1206878498
0.9591932893 -2.149333239 -0.04038307071
0.9580343366 -2.136708021 0.04017364234
0.9573533535 -2.136188269 0.1204785109
0.9543605447 -2.131502628 0.2006071359
0.9437615275 -2.109805346 0.2786498666
0.9349137545 -2.091004372 0.3560963869
0.9518835545 -2.130954981 0.4454110265
0.9431526065 -2.112398624 0.5241325498
0.9337602854 -2.093325377 0.6025828123
0.3661239445 -0.8234879375 -0.2298833728
0.9438595176 -2.12593174 -0.4438845515
0.9439229965 -2.128077984 -0.3620409071
0.9492593408 -2.14212513 -0.2825496793
0.9466031194 -2.137138367 -0.2007814497
0.9472765923 -2.140675783 -0.1204785109
0.9549191594 -2.15998435 -0.04052269459
0.9493193626 -2.136218548 0.04010383412
0.9547537565 -2.15046978 0.1211065501
0.9521358013 -2.145582676 0.2016530037
0.9367601275 -2.112923384 0.2786498666
0.9324088097 -2.105092049 0.3579736054
0.9384537935 -2.119738102 0.4423580766
0.9389259815 -2.122806787 0.5259321332
0.9280091524 -2.100106239 0.6036180854
0.3710338771 -0.8424406052 -0.2350597382
0.9411751628 -2.13999629 -0.446174264
0.9372836947 -2.133168221 -0.3623537421
0.9417760968 -2.145425558 -0.2825496793
0.9415389895 -2.145902872 -0.2013043761
0.9365908504 -2.136652708 -0.1200598255
0.9457690716 -2.159641027 -0.04045288265
0.9402452707 -2.135858774 0.04003402591
0.9456331134 -2.150132656 0.1208971962
0.9454421401 -2.15071702 0.2018273026
0.9253878593 -2.107092857 0.2774311602
0.9282298684 -2.115569592 0.3592250645
0.9342024922 -2.130192995 0.4438845515
0.9315104485 -2.126071215 0.5259321332
0.9237712622 -2.110411644 0.6056886315
0.366545856 -0.8401893377 -0.2340244651
0.9321311712 -2.139668941 -0.4454110265
0.9314087033 -2.140049458 -0.3629795313
0.9342813492 -2.148699999 -0.2825496793
0.9380131364 -2.158313036 -0.202175945
0.9307178855 -2.143572807 -0.1202691719
0.9437954426 -2.175770998 -0.04069721699
0.9375799894 -2.150125742 0.04024345428
0.9349312186 -2.146096468 0.1204785109
0.9395198226 -2.157657623 0.202175945
0.9211945534 -2.117591619 0.2784061432
0.9176898003 -2.111550331 0.3579736054
0.9298901558 -2.140643835 0.4454110265
0.9194282293 -2.118583918 0.5232326984
0.9194729924 -2.120712996 0.6077591777
0.3682087362 -0.852103889 -0.2371302992
0.9215455055 -2.135699034 -0.4438845515
0.9286243916 -2.154171705 -0.36485672
0.9267754555 -2.151947975 -0.2825496793
0.9281104207 -2.156084061 -0.2016530037
0.9263858199 -2.154147863 -0.1206878498
0.9314585924 -2.168028355 -0.04048778862
0.9332404137 -2.160728455 0.04038307071
0.9274344444 -2.14934659 0.1204785109
0.933560729 -2.164582729 0.2025245726
0.915368259 -2.124439955 0.2788936198
0.9056274295 -2.103853941 0.3560963869
0.9255158901 -2.151090384 0.4469375014
0.9135667682 -2.125361204 0.5241325498
0.9120643735 -2.123909712 0.6077591777
0.3530703485 -0.8249675632 -0.2288480848
0.9175675511 -2.148089409 -0.4457926154
0.918772459 -2.151949644 -0.3639180958
0.9208153486 -2.158821583 -0.2830371559
0.9202016592 -2.159471273 -0.2016530037
0.9239608049 -2.170392513 -0.1214205623
0.9285827875 -2.182306767 -0.04069721699
0.9256923199 -2.163973093 0.04038307071
0.9246354699 -2.16359067 0.1211065501
0.9228685498 -2.160499334 0.2018273026
0.9134010077 -2.140403032 0.2805997729
0.9044758677 -2.121539354 0.358599335
0.9160868526 -2.150855541 0.446174264
0.9114856124 -2.141088247 0.5272818804
0.9031330943 -2.123524904 0.6067239046
0.3545658588 -0.8369289041 -0.231953904
0.4034144282 -0.9531587362 -0.2289967537
0.9173337817 -2.169520855 -0.4496088028
0.9139549732 -2.162581205 -0.3651695848
0.9105802774 -2.156695843 -0.2823059559
0.9177011847 -2.175679684 -0.2028731853
0.9167749286 -2.17560482 -0.121525228
0.9221305251 -2.189381361 -0.0407670252
0.9169753194 -2.165509939 0.04034816474
0.9213680625 -2.178001404 0.121734567
0.9164953232 -2.167537689 0.202175945
0.9078671932 -2.149222374 0.2813310027
0.9051423073 -2.144859791 0.3620409071
0.9059093595 -2.148771763 0.4450294077
0.9111990929 -2.162372828 0.5317808986
0.9005907178 -2.139284372 0.6103473902
0.3574725091 -0.8524752259 -0.2360950261
0.3999183178 -0.9546309114 -0.2289967537
0.9067224264 -2.16546607 -0.4480823576
0.9052602649 -2.16409421 -0.36485672
0.9068753123 -2.169018269 -0.2835246325
0.9093327522 -2.177031517 -0.2026988715
0.9076369405 -2.175105095 -0.1213158891
0.9167914987 -2.198123693 -0.04087174311
0.9105778337 -2.172544956 0.0404179804
0.914531827 -2.183046579 0.1218392476
0.9100833535 -2.174557924 0.2025245726
0.8938577771 -2.137883663 0.2793810964
0.8961263895 -2.144361019 0.3614151478
0.8999160528 -2.155544043 0.4457926154
0.8961410522 -2.147555828 0.5272818804
0.8894013166 -2.133499384 0.6077591777
0.3487144411 -0.8393837214 -0.231953904
0.4087025225 -0.9847498536 -0.2361951619
0.8965273499 -2.161207438 -0.4465559125
0.8958098888 -2.161609411 -0.3639180958
0.9004372954 -2.173847914 -0.2837683856
0.8982995749 -2.170829773 -0.2018273026
0.89812994 -2.172565937 -0.1210018694
0.9033883214 -2.186366558 -0.0405925028
0.9010679722 -2.170011997 0.04031326249
0.904225111 -2.178688765 0.1214205623
0.9066830277 -2.186766386 0.2033961266
0.8860036731 -2.139002085 0.2791373432
0.8844767213 -2.136370182 0.3595379591
0.8927630186 -2.158516407 0.4457926154
0.8860364556 -2.143311977 0.5254822373
0.8837961555 -2.140007973 0.6087944508
0.3547518253 -0.8619731665 -0.2381655723
0.8856246471 -2.15508914 -0.4446478188
0.8833853006 -2.151776552 -0.3617280126
0.8845580816 -2.156774759 -0.2810872495
0.8876949549 -2.166577816 -0.2011300772
0.8901637197 -2.173683882 -0.1208971962
0.8828787208 -2.158042908 -0.03999911621
0.8976706266 -2.182235003 0.04048778862
0.8966144919 -2.181831837 0.1214205623
0.8933703899 -2.175017118 0.2020016313
0.8773986101 -2.138255358 0.2786498666
0.8710199594 -2.124822378 0.3570349813
0.8833672404 -2.156015396 0.4446478188
0.8696910739 -2.124749899 0.5200834274
0.8668150306 -2.119834423 0.602065146
0.3428460658 -0.8417977691 -0.231953904
0.4166848361 -1.023607492 -0.245193243
0.8644074798 -2.125585318 -0.4377786815
0.8688015342 -2.138529062 -0.3589122295
0.8658212423 -2.132260799 -0.2774311602
0.8673949242 -2.138276577 -0.1981667876
0.8754396439 -2.160272598 -0.1199551523
0.8715867996 -2.151844501 -0.03982459381
0.877979517 -2.155723095 0.039929308
0.8799603581 -2.162748098 0.1201644912
0.8696377277 -2.139516354 0.1983410865
0.8617105484 -2.121074915 0.2759687304
0.8554262519 -2.107715607 0.3535934091
0.863656342 -2.130128145 0.438541919
0.8523869514 -2.104442358 0.5142346621
0.8470865488 -2.092405796 0.593265295
0.3370156884 -0.8358227015 -0.2298833728
0.8489169478 -2.108556509 -0.4335808754
0.8458519578 -2.103062153 -0.3523419499
0.8528198004 -2.12252593 -0.2757250071
0.8525007367 -2.122802496 -0.1964236498
0.8559947014 -2.133656979 -0.1182803959
0.8506737351 -2.121465206 -0.0391963087
0.8581126928 -2.129250765 0.0393708311
0.8619581461 -2.139870167 0.1186990887
0.8554700017 -2.125903845 0.1967722923
0.8443052769 -2.100275278 0.2728001475
0.841435492 -2.094192266 0.350777626
0.84305197 -2.100334406 0.4316727817
0.8406842351 -2.09655261 0.5115352869
0.8304348588 -2.072038174 0.5865359902
0.3383931816 -0.8477591276 -0.232989192
0.8379175067 -2.102388144 -0.4316727817
0.8293697834 -2.081998587 -0.3482746482
0.8325650692 -2.09214282 -0.2713377178
0.8377251625 -2.107250929 -0.1946805418
0.8363767862 -2.104929924 -0.1165009812
0.8373613954 -2.109552622 -0.03891707212
0.8436337709 -2.113512754 0.03902178258
0.8441263437 -2.116893053 0.1172336787
0.8377213478 -2.102963924 0.1943319142
0.8189781308 -2.056956053 0.2667066753
0.8224390745 -2.067748547 0.3457717001
0.8273790479 -2.08122611 0.4270933867
0.8236574531 -2.073972702 0.5052366853
0.8146477342 -2.053376198 0.5803243518
0.3426822424 -0.8668422699 -0.2381655723
0.8194080591 -2.075936794 -0.4255668819
0.8148512244 -2.06650424 -0.3451459706
0.813616097 -2.065485001 -0.2674378753
0.824893415 -2.095186234 -0.1932860464
0.8202520609 -2.085532665 -0.1152449176
0.8208505511 -2.088124037 -0.03846330941
0.8274331093 -2.094127417 0.03860292584
0.8253639936 -2.089957952 0.1155589223
0.8205065131 -2.079783201 0.1918915659
0.8037868142 -2.039487362 0.264025569
0.8039939404 -2.041057587 0.3407658041
0.8129203916 -2.065832376 0.4232771695
0.8007279634 -2.036935329 0.4953388572
0.7993565798 -2.034489632 0.5741126537
0.3312069476 -0.8464448452 -0.231953904
0.4025320709 -1.029255271 -0.245193243
0.79572469 -2.036725521 -0.4167896807
0.8022456765 -2.054474354 -0.3426430225
0.7959412932 -2.040431023 -0.2637818158
0.8031065464 -2.060924768 -0.1897998154
0.8097072244 -2.078935862 -0.114721559
0.8019550443 -2.061158895 -0.03790483251
0.8131973743 -2.078237534 0.03825387731
0.8071567416 -2.064923763 0.1139888465
0.80382061 -2.058507681 0.1896255165
0.786193192 -2.014402866 0.2603694797
0.7853836417 -2.014404535 0.335759908
0.7989366651 -2.050224066 0.4194609821
0.7868996859 -2.021419525 0.490839839
0.7782465816 -2.001257658 0.563759923
0.3325860202 -0.8583465815 -0.2350597382
0.3919025064 -1.012480736 -0.2406942248
0.7804658413 -2.017380953 -0.4122102559
0.7822518349 -2.024096012 -0.3370113671
0.7859541178 -2.03578949 -0.2628068626
0.7833571434 -2.030117989 -0.186662212
0.7931070924 -2.057522774 -0.1133608222
0.7850507498 -2.03768301 -0.03741616011
0.7958276272 -2.054957151 0.03776520863
0.7938162684 -2.050825357 0.11304681
0.784774363 -2.02957058 0.186662212
0.7741497159 -2.004172564 0.2586632967
0.7658931613 -1.983827233 0.3301282823
0.7762335539 -2.012701988 0.4110653996
0.7700302601 -1.998695731 0.4845411479
0.7618872523 -1.978588104 0.5565130115
0.3295878768 -0.8595022559 -0.2350597382
0.395516932 -1.031971455 -0.245193243
0.7635917068 -1.994424462 -0.4068675935
0.7628276348 -1.99347055 -0.3313797414
0.7706931233 -2.016133785 -0.2598819733
0.7691584826 -2.014226913 -0.1849190891
0.7734605074 -2.026554108 -0.1114767268
0.7722343206 -2.025463104 -0.03713692725
0.7746894956 -2.020242214 0.03706711531
0.7787935138 -2.033067942 0.1118954122
0.7705646753 -2.013689518 0.1849190891
0.7561533451 -1.977063179 0.254763484
0.7505036592 -1.964345217 0.3263738155
0.7583489418 -1.985919476 0.4049594998
0.7564527392 -1.983030438 0.4800421298
0.7453452945 -1.9559623 0.5492660403
0.322325021 -0.8498666883 -0.231953904
0.3846473396 -1.015259147 -0.2406942248
0.7500192523 -1.980685592 -0.4034330547
0.7439851761 -1.966823339 -0.3263738155
0.7496144176 -1.983796477 -0.2552509606
0.7540276647 -1.996530056 -0.1830016822
0.7515734434 -1.992135167 -0.1093832925
0.7559888363 -2.005958557 -0.03671806678
0.7562946081 -1.995154023 0.03654354066
0.7575429082 -2.000554562 0.1099066511
0.7533056736 -1.990412712 0.1824787408
0.7387282848 -1.953956366 0.2513511479
0.7373719215 -1.952428579 0.3238708675
0.7451713681 -1.974122643 0.4019065499
0.7419572473 -1.967686296 0.4755431116
0.7310197353 -1.940731287 0.5440896749
0.3193564415 -0.8509867191 -0.231953904
0.3633155823 -0.9691525102 -0.2289967537
0.7320796847 -1.953876376 -0.3973271549
0.7343456149 -1.962008119 -0.3251223564
0.7315616608 -1.956650853 -0.2513511479
0.7400795221 -1.980486512 -0.1812585741
0.736931622 -1.974163771 -0.1082318947
0.7343100905 -1.969237804 -0.03598506376
0.7423030734 -1.979058623 0.03619449586
0.7407445908 -1.977002501 0.1084412411
0.7407631874 -1.978103518 0.1810842454
0.7214705944 -1.928634286 0.2476950586
0.7222544551 -1.932785869 0.3201164305
0.7293463945 -1.952802777 0.3969455659
0.7173733115 -1.922793269 0.4638456702
0.7188436389 -1.928789496 0.5399485826
0.3163840771 -0.8520962596 -0.231953904
0.381616205 -1.028882384 -0.2433936298
0.7129716873 -1.92328465 -0.3904580176
0.7206326723 -1.946035147 -0.3219936788
0.7192177773 -1.944298029 -0.2494012117
0.7200347781 -1.947551131 -0.177946642
0.7224249244 -1.956114769 -0.1070805043
0.7180814147 -1.945398569 -0.03549639881
0.7277370691 -1.961015224 0.03581054136
0.7258498073 -1.956976891 0.1071851775
0.7255474329 -1.958257794 0.1789925247
0.708532691 -1.914385796 0.245501399
0.702134788 -1.898116708 0.3138590753
0.7143592834 -1.933238029 0.3923661113
0.7052587867 -1.910660028 0.4602464437
0.7004078627 -1.898538709 0.5306310654
0.3107431829 -0.8459420204 -0.2298833728
0.3674563468 -1.000872493 -0.2361951619
0.7008457184 -1.911016107 -0.3874050677
0.7019386888 -1.915029287 -0.3163620234
0.705941081 -1.928031921 -0.2469638288
0.7029664516 -1.921985269 -0.17533198
0.7118198276 -1.947244883 -0.10645248
0.703055501 -1.925352931 -0.03507754207
0.7108873725 -1.935261965 0.03528697044
0.7121341228 -1.940748572 0.1061384603
0.7063652873 -1.927106023 0.1758549064
0.6946691871 -1.896221638 0.2428202927
0.6873585582 -1.878295302 0.3101046681
0.7018754482 -1.919002414 0.3889315724
0.6922314167 -1.894684434 0.4557474256
0.6818549037 -1.868306041 0.5213136077
0.3066160977 -0.8433366418 -0.2288480848
0.3639602661 -1.002149224 -0.2361951619
0.6904857755 -1.902257204 -0.3851153851
0.6844757795 -1.887754679 -0.3113561273
0.6917706728 -1.909953237 -0.2442827076
0.6915083528 -1.911312819 -0.1741117984
0.6934725642 -1.917787313 -0.1046730503
0.6908956766 -1.912749171 -0.03479830176
0.6945666075 -1.911419272 0.03479830176
0.7005851865 -1.930080533 0.1054057479
0.6918170452 -1.906962395 0.1737631559
0.6826351285 -1.883704185 0.2408703715
0.6747463942 -1.863966346 0.3072888255
0.6831498146 -1.888210058 0.3820624352
0.6816393733 -1.886092782 0.4530479908
0.6700811386 -1.856138587 0.5171725154
0.3048300445 -0.8480907083 -0.2298833728
0.6762146354 -1.884448409 -0.3809175789
0.6708869934 -1.871655583 -0.3082274199
0.6763958335 -1.888062119 -0.2411140949
0.6787908077 -1.896831751 -0.1725429893
0.6776989698 -1.895867109 -0.1033123136
0.6788324714 -1.900084138 -0.03451906517
0.682479322 -1.898777366 0.03451906517
0.6810204387 -1.89679873 0.1034169868
0.6780970097 -1.890731215 0.1720200479
0.6613197923 -1.844964623 0.2355081141
0.6602453589 -1.843993187 0.3035343885
0.665645957 -1.861123919 0.3759565353
0.6642317772 -1.859216213 0.4458495975
0.6558024883 -1.836633801 0.5109608173
0.3122211099 -0.8782736659 -0.2381655723
0.6604397297 -1.860894442 -0.3755749166
0.6590692401 -1.859091282 -0.3057244718
0.6582065225 -1.85871768 -0.2369705439
0.6668471694 -1.884163618 -0.1711484939
0.6624227166 -1.873741508 -0.1019515842
0.6635351181 -1.877931118 -0.03406530246
0.6661425829 -1.874885917 0.03403039649
0.666375041 -1.876578927 0.1021609232
0.6661643982 -1.878064275 0.1706255525
0.6479235291 -1.828664899 0.2330707312
0.6478699446 -1.829528093 0.3007185757
0.6552172303 -1.852330565 0.3736668229
0.6473502517 -1.832124829 0.4386511445
0.6468145251 -1.831625462 0.5088903308
0.3142793775 -0.8939381838 -0.2423066795
0.3431098759 -0.9764888287 -0.2289967537
0.6428871751 -1.83169663 -0.3690874279
0.647669673 -1.846354604 -0.3032215238
0.6441622376 -1.838409185 -0.2340456992
0.6484190822 -1.852630496 -0.1680108905
0.6496107578 -1.857075453 -0.1009048671
0.644443512 -1.8443681 -0.03340211138
0.6585949659 -1.87331152 0.03396058455
0.6505556703 -1.852511525 0.1006955206
0.6503717303 -1.854057431 0.1681852043
0.6385720968 -1.82143712 0.2318520397
0.6303805709 -1.800084114 0.295399785
0.6438826323 -1.839669108 0.3706139028
0.6361262798 -1.819544792 0.435051918
0.6314999461 -1.808338523 0.5016433597
0.2935420275 -0.843886137 -0.2278128117
0.3627245724 -1.043949008 -0.245193243
0.6303691268 -1.815272212 -0.3652712405
0.6360420585 -1.833673716 -0.3007185757
0.6364409924 -1.836895108 -0.2335582078
0.6331446171 -1.828412533 -0.1655705273
0.6365957856 -1.840456247 -0.09985814244
0.6308183074 -1.825815678 -0.03301815689
0.6435152292 -1.851044655 0.03350682184
0.638843894 -1.839677095 0.09985814244
0.6363806725 -1.833616853 0.1660934538
0.6302596927 -1.818028092 0.2311208248
0.6189222336 -1.787340641 0.292896837
0.6297519207 -1.819641948 0.3660344779
0.6234039664 -1.803336382 0.4305528998
0.6176174283 -1.788619041 0.4954317212
0.2956210077 -0.8595202565 -0.231953904
0.348947674 -1.015720606 -0.2379947752
0.618290782 -1.800750017 -0.3618366718
0.6168206334 -1.798511863 -0.2944611907
0.6229487062 -1.818448067 -0.2308770865
0.6203046441 -1.811761856 -0.1638274044
0.6262899637 -1.831328392 -0.09923011065
0.6237946749 -1.826114058 -0.03298325092
0.6240491867 -1.815457702 0.03280872852
0.6272295713 -1.826783895 0.09902077168
0.6235095263 -1.816981792 0.1643503457
0.6129672527 -1.788293839 0.2269772589
0.6082004309 -1.776408195 0.2907067835
0.6144977808 -1.795823932 0.3606918156
0.6120632291 -1.790749431 0.4269536734
0.6038802266 -1.768825173 0.4892200232
0.2926189005 -0.8605469465 -0.231953904
0.3416396677 -1.005861163 -0.2352953702
0.6082147956 -1.791742921 -0.3595469892
0.6067329645 -1.789429426 -0.2925839722
0.6102293134 -1.801809669 -0.2284397036
0.6101441383 -1.802592754 -0.1627815366
0.6102980971 -1.805122733 -0.09766003489
0.611974299 -1.811122537 -0.03266910836
0.6151346564 -1.810051441 0.03266910836
0.6121756434 -1.802377701 0.09755536169
0.6133226752 -1.807826638 0.1633044779
0.5971648097 -1.762221336 0.2233211845
0.5985043049 -1.767189384 0.288829565
0.601934433 -1.779360771 0.3568756282
0.5983226895 -1.77072072 0.4215548635
0.5961571336 -1.765326977 0.4876671433
0.2896133065 -0.8615630865 -0.231953904
0.345749408 -1.02915597 -0.2406942248
0.5969602466 -1.778964996 -0.3564940393
0.5932584405 -1.768957376 -0.288829565
0.5929016471 -1.769941926 -0.2240523994
0.5975261927 -1.785817266 -0.1610384285
0.5992413163 -1.791983366 -0.09682265669
0.5974130034 -1.78859067 -0.03221534565
0.5995714664 -1.783649564 0.03214553744
0.5995233655 -1.785569668 0.09650863707
0.6006732583 -1.791066647 0.1615613699
0.5862707496 -1.749134541 0.2213712633
0.5854337811 -1.748662591 0.2853879929
0.5960304737 -1.781347036 0.3568756282
0.5850352049 -1.750516057 0.4161560237
0.5826506019 -1.745407939 0.4814554751
0.2952871919 -0.8881834745 -0.2392008305
0.5798309445 -1.74608767 -0.4148063064
0.5811633468 -1.751121759 -0.3503881395
0.583350718 -1.759767056 -0.2869523466
0.5817278624 -1.756925106 -0.222102493
0.5865936279 -1.772656679 -0.1596439332
0.5842075944 -1.767515063 -0.0953572467
0.5836432576 -1.767878413 -0.03179648891
0.5933416486 -1.785731554 0.03214553744
0.5857375264 -1.764904499 0.09525258094
0.5903397799 -1.779811144 0.1603411883
0.5745429397 -1.734210968 0.2191776186
0.573741138 -1.733817101 0.28257218
0.5836442709 -1.764777064 0.3530594707
0.5728086829 -1.734043598 0.4116570055
0.572317481 -1.734588981 0.4778320193
0.2777114809 -0.8451613784 -0.2267775238
0.5725169778 -1.744397998 -0.4139065146
0.5719876885 -1.743812323 -0.3484800458
0.5710540414 -1.743020773 -0.2838236392
0.5731220841 -1.751398325 -0.2211275399
0.5704930425 -1.74439466 -0.1568549573
0.5767940879 -1.765746593 -0.09514790773
0.5718861818 -1.752795458 -0.03148234636
0.5796176791 -1.764993191 0.03172667697
0.5777057409 -1.761244893 0.09493856132
0.5729520321 -1.74778235 0.15720357
0.5666329861 -1.730546355 0.2184464186
0.5615450144 -1.717034221 0.2794434726
0.5713810325 -1.748142719 0.3492432833
0.5631235242 -1.724917412 0.4089576006
0.5554791093 -1.703516126 0.4685145319
0.2807261348 -0.8644996881 -0.231953904
0.561614573 -1.731556296 -0.4103072882
0.5610541701 -1.730857611 -0.3454271257
0.5570564866 -1.720572114 -0.2797563374
0.5633401275 -1.742055535 -0.2196651101
0.5601115823 -1.733104348 -0.1556347758
0.5620371103 -1.741139531 -0.09368249774
0.5608555079 -1.73955512 -0.03120310605
0.5641942024 -1.738475204 0.03120310605
0.5678591728 -1.751851082 0.09431052953
0.5643917322 -1.742189884 0.1565063298
0.5520330071 -1.706072092 0.2150340676
0.5512958169 -1.705826402 0.2772534192
0.5520003438 -1.709025502 0.3408477008
0.5541076064 -1.717599392 0.4067080915
0.545974195 -1.694412231 0.4654086828
0.5502142906 -1.716804147 -0.4062581658
0.5526134372 -1.725326777 -0.3439006507
0.5450282097 -1.703691721 -0.2766276598
0.5500055552 -1.721320391 -0.2167402357
0.5528463721 -1.731253147 -0.1552861482
0.5498871207 -1.724062443 -0.09263578057
0.5553866029 -1.743407607 -0.03123801202
0.553237021 -1.725200534 0.03092386574
0.5532113314 -1.727193594 0.09284512699
0.555269599 -1.734661698 0.1556347758
0.5400291085 -1.689080715 0.2125966847
0.5423334241 -1.698331594 0.2756890655
0.5460312963 -1.710941911 0.3408477008
0.5415984988 -1.699099541 0.4017591476
0.5365400314 -1.685262799 0.4623028636
0.5327292085 -1.680392623 -0.4607499838
0.5371587276 -1.69642055 -0.4008593559
0.5394798517 -1.704783916 -0.3393212259
0.5355058908 -1.694282532 -0.2747504413
0.5368227959 -1.700513721 -0.2138153762
0.5408052206 -1.714171767 -0.1535430402
0.5390633941 -1.710732222 -0.09179840982
0.5432946086 -1.726261139 -0.03088896349
0.5447958112 -1.719496012 0.03078424931
0.5399481654 -1.706263781 0.09158905596
0.5438042879 -1.719492555 0.1540659666
0.5305421948 -1.679597974 0.21113424
0.5292697549 -1.677608252 0.2719346285
0.5341520309 -1.694113731 0.3370315135
0.5268839598 -1.673098445 0.3950106502
0.5260168314 -1.672382712 0.4581617415
0.5233959556 -1.671180487 -0.4576441348
0.5283251405 -1.688985944 -0.3986098468
0.5241531134 -1.676675558 -0.3332153261
0.5260561705 -1.684827924 -0.2728732526
0.5249735713 -1.683426499 -0.2113779932
0.5288902521 -1.697027326 -0.1517999172
0.5289334655 -1.699254394 -0.09106569737
0.5265795588 -1.693775296 -0.03026067652
0.5364012122 -1.7137537 0.03064462915
0.5292213559 -1.692888141 0.0907516852
0.5300745964 -1.696657777 0.1517999172
0.5205370784 -1.668174863 0.2094280869
0.5157698393 -1.654928565 0.2678673267
0.5235647559 -1.680972338 0.3339785635
0.5175673962 -1.663762808 0.3923112452
0.5155904889 -1.659449697 0.454020679
0.5129916668 -1.658232808 -0.4535030127
0.5172486305 -1.674062848 -0.3945607543
0.5125048161 -1.659736395 -0.3293991685
0.514932394 -1.669665098 -0.27005741
0.5144193769 -1.670071602 -0.2094280869
0.51534307 -1.674108505 -0.1495338827
0.5194772482 -1.689635873 -0.09043767303
0.5171419978 -1.68413353 -0.03005124815
0.5221463442 -1.688868999 0.03015596233
0.5180053711 -1.677549958 0.08980964124
0.5159240365 -1.671844602 0.1493595541
0.5100333691 -1.654805422 0.2074781656
0.5053405762 -1.641615272 0.2653643787
0.511920929 -1.664025068 0.3301623762
0.5071777105 -1.650656939 0.3887120187
0.5024271607 -1.637230277 0.4472913742
0.5015552044 -1.641538143 -0.4483266473
0.5040076971 -1.65162766 -0.3887120187
0.5026992559 -1.648370147 -0.3267278373
0.5010430813 -1.64499712 -0.2656772435
0.5062754154 -1.664260387 -0.2084531188
0.5054394603 -1.662553549 -0.1483136863
0.5042915344 -1.660861254 -0.08876291662
0.508358717 -1.67636025 -0.02987672389
0.5069042444 -1.66008091 0.02959748544
0.5098159909 -1.671706319 0.08939094841
0.5054383874 -1.658388495 0.1479650736
0.4978951514 -1.635686159 0.2047970444
0.4984580278 -1.639589429 0.2647386491
0.4981192946 -1.639503241 0.3248197436
0.5014128685 -1.652417183 0.3887120187
0.4916661084 -1.622334838 0.4426326156
0.4891257882 -1.621084929 -0.4421150088
0.4926168025 -1.63471818 -0.3842130005
0.4941117465 -1.64071548 -0.3248197436
0.4896081388 -1.627819419 -0.2625485659
0.4953232408 -1.648906946 -0.2062594742
0.4950499833 -1.649041653 -0.1469191909
0.4939023554 -1.647306561 -0.08792554587
0.4979147315 -1.662799239 -0.02959748544
0.4964876771 -1.646523952 0.02931824513
0.4987942576 -1.656263947 0.08844890445
0.4939042032 -1.641064167 0.1462219507
0.4847539663 -1.612700224 0.2016284466
0.4842120707 -1.612939835 0.2600456178
0.4850591719 -1.616786361 0.3198587
0.4816582501 -1.607488751 0.3774644434
0.4765848219 -1.592578173 0.4338327646
0.4812577367 -1.615376592 -0.4400444329
0.4813500047 -1.617749691 -0.3797139823
0.4766306877 -1.602912068 -0.3168057501
0.4777372181 -1.608688474 -0.2591069937
0.4788398445 -1.614466071 -0.2016284466
0.4813638031 -1.624016166 -0.1444788426
0.4785114527 -1.616463661 -0.08614612371
0.4762333035 -1.610833168 -0.02862014994
0.487313658 -1.636747599 0.02910881676
0.485040158 -1.631193161 0.08698349446
0.4819300771 -1.621769905 0.1443045288
0.4689551592 -1.580127597 0.1972411424
0.4667901099 -1.574847698 0.253475368
0.4637998343 -1.565762162 0.3091734052
0.4611179829 -1.558705926 0.3653171062
0.4589803517 -1.553473234 0.422444731
0.4581722915 -1.557739615 -0.4234800041
0.4636169374 -1.578285694 -0.3698161244
0.4610786438 -1.570658445 -0.3099366426
0.4637827277 -1.581912518 -0.2544139624
0.4631605148 -1.581835747 -0.1972411424
0.4628229439 -1.581705809 -0.1404696703
0.4633421004 -1.585533738 -0.08436669409
0.4610835314 -1.579852104 -0.02802676708
0.4652436078 -1.582801223 0.02809657902
0.463591218 -1.579217434 0.08405268192
0.4689747691 -1.598588586 0.1420384794
0.4572971463 -1.560799837 0.1945600212
0.4524141252 -1.546133399 0.2484694868
0.461637795 -1.578677535 0.3114630878
0.4545816183 -1.556564689 0.3644172847
0.451932162 -1.549502254 0.4208918214
0.4489615858 -1.546342731 -0.4198565483
0.4564767182 -1.574279428 -0.3684664071
0.4566861689 -1.576029539 -0.3106998801
0.4582579732 -1.583521724 -0.2544139624
0.4576362073 -1.583442807 -0.1972411424
0.4545346498 -1.573740959 -0.1395981163
0.4566978216 -1.583303452 -0.08415735513
0.4577798843 -1.589138269 -0.02816638723
0.459158361 -1.582495213 0.02806167491
0.4597436488 -1.586580873 0.08436669409
0.4606208503 -1.590647101 0.1411669254
0.4546035826 -1.571921349 0.1957787126
0.4470143318 -1.547703266 0.2484694868
0.4561241269 -1.580279469 0.3114630878
0.4513046145 -1.565631986 0.366216898
0.4454519153 -1.547357321 0.4198565483
0.4462325573 -1.555173278 -0.4219270945
0.4504550099 -1.571959138 -0.3675666153
0.4533540905 -1.583118677 -0.3118447363
0.4511081874 -1.577356696 -0.2531625032
0.4521141946 -1.582964063 -0.1969974041
0.4539629817 -1.590488195 -0.1409926116
0.4511739314 -1.582809687 -0.08405268192
0.4533328712 -1.592491865 -0.0282012932
0.4508774579 -1.572396398 0.02785224468
0.45750615 -1.597617865 0.08489005268
0.4572660923 -1.597832918 0.1416898519
0.4436625838 -1.55234623 0.1930975765
0.4421498179 -1.549099922 0.2484694868
0.4506188631 -1.57981658 0.3110814691
0.4501208961 -1.580161572 0.3693662286
0.444288671 -1.561756134 0.4234800041
0.4434330761 -1.566015244 -0.4245152771
0.4439046979 -1.569771409 -0.3666667938
0.4472912848 -1.582802296 -0.3114630878
0.4434534609 -1.571317315 -0.2519110143
0.4438933134 -1.574979305 -0.1957787126
0.4489486516 -1.593980908 -0.1411669254
0.4456461072 -1.584375024 -0.08405268192
0.4493935704 -1.599840164 -0.02830600739
0.4491973817 -1.587429643 0.02809657902
0.4513835013 -1.597283125 0.08478538692
0.4533101618 -1.605171442 0.1422127783
0.4350080192 -1.542422295 0.1916351467
0.4367398918 -1.550633907 0.2484694868
0.4445695877 -1.579490185 0.3106998801
0.4409111738 -1.56859076 0.366216898
0.4383122921 -1.561437607 0.4229623973
0.4369240701 -1.563832402 -0.4234800041
0.4405175149 -1.578819513 -0.3684664071
0.4391269684 -1.574898243 -0.3095549941
0.4331969917 -1.555728793 -0.2490952164
0.4325429201 -1.555481315 -0.1930975765
0.4415040314 -1.589856505 -0.1406439841
0.4347721934 -1.566675425 -0.08300595731
0.4368635118 -1.576347351 -0.02785224468
0.4436533749 -1.588987947 0.02809657902
0.4388315082 -1.573838711 0.08342465013
0.4460999072 -1.600986242 0.1416898519
0.4237676561 -1.522894502 0.1889540404
0.4249775112 -1.529309869 0.2447150499
0.4332750738 -1.560224056 0.306502074
0.4276211858 -1.541952372 0.3594683707
0.4297656119 -1.551787257 0.4198565483
0.4255463779 -1.544935822 -0.4177860022
0.4272459447 -1.552164793 -0.3617178798
0.4281481206 -1.557566881 -0.3057388365
0.4259230494 -1.551591277 -0.2481565922
0.4250099957 -1.549324274 -0.1921226233
0.4296347797 -1.568328857 -0.1385522485
0.4263919592 -1.558626175 -0.08248259872
0.4276672304 -1.564360261 -0.02760791034
0.434918046 -1.578959465 0.02788715065
0.4301570058 -1.563806534 0.08279661834
0.4296739697 -1.564185977 0.1382036209
0.4173980951 -1.520535827 0.1884665489
0.4159810841 -1.517448306 0.2425249666
0.4254801571 -1.554227233 0.3049755991
0.4183696806 -1.530350804 0.3563190401
0.4167093337 -1.525324702 0.4120919704
