# .PCD v0.7 - Point Cloud Data file format
VERSION 0.7
FIELDS x y z
SIZE 4 4 4
TYPE F F F
COUNT 1 1 1
WIDTH 1245
HEIGHT 1
VIEWPOINT 0 0 0 1 0 0 0
POINTS 1245
DATA ascii
-2.061228275 2.91549015 -0.5588355064
-2.067812204 2.926970005 -0.4348863661
-2.069618225 2.931696892 -0.3102490604
-2.064831018 2.925999403 -0.1854797751
-2.080096483 2.949816704 -0.06230329722
-2.212865114 3.125340939 0.06614282727
-2.24835968 3.177823305 0.2018086016
-2.228638887 3.151116371 0.3339554071
-2.20580554 3.121142149 0.464135021
-2.212396622 3.132787466 0.6007599235
-2.257452726 3.197772026 0.7526135445
-2.096244097 2.971614599 0.8296161294
-2.208810091 3.133508682 1.015658021
-1.395752549 1.985953927 -0.6388174891
-1.491197467 2.122545719 -0.5889184475
-1.506822586 2.146378517 -0.501508832
-2.052798033 2.926259279 -0.559461236
-2.054163933 2.929293633 -0.4341551661
-2.061657906 2.942167044 -0.310597688
-2.052946329 2.931911945 -0.1853750944
-2.061759233 2.945592403 -0.06205896288
-2.209991455 3.14449811 0.06638715416
-2.262506962 3.221609831 0.2041113824
-2.219364166 3.162524939 0.3343040347
-2.190337896 3.122322083 0.4631600678
-2.203714371 3.143726826 0.601385653
-2.25022316 3.21245575 0.7541399598
-2.083102703 2.976085186 0.8287162781
-2.203397036 3.149113894 1.018246174
-1.385082483 1.983993173 -0.6367468834
-1.483035088 2.125881195 -0.5884685516
-1.491087556 2.138219118 -0.4984559119
-2.043593884 2.932694197 -0.559461236
-2.041035175 2.931202888 -0.4334239662
-2.049614668 2.945716381 -0.3102490604
-2.052849293 2.951463938 -0.1862124801
-2.046274424 2.944202662 -0.06188444048
-2.208706141 3.164928675 0.06666639447
-2.146706104 3.078375816 0.1944815516
-2.208277702 3.167847633 0.3341297209
-2.194721222 3.1507442 0.4663286805
-2.191020966 3.14777422 0.6007599235
-2.246846437 3.229179144 0.7564296722
-2.074855804 2.984214544 0.8291661739
-2.188532114 3.150057554 1.016175628
-1.371201634 1.979527593 -0.6336410642
-1.476715207 2.132646799 -0.5889184475
-1.486592412 2.148513079 -0.4996007979
-2.033955336 2.94178915 -0.5597741008
-2.034177303 2.943207979 -0.4341551661
-2.03252697 2.943016052 -0.3092031777
-2.043151855 2.960612774 -0.1863171607
-2.040527344 2.957911015 -0.06202405691
-2.198784351 3.174262762 0.06670130044
-2.138221741 3.089134693 0.1946908981
-2.188717604 3.164450645 0.3329095542
-2.187097073 3.163283587 0.4670598805
-2.183387756 3.160279751 0.6016985774
-2.228304386 3.227698326 0.7541399598
-2.067224741 2.99661088 0.8305159211
-2.169847012 3.146544695 1.012552142
-1.362094879 1.981117964 -0.6326057911
-1.471095085 2.141257524 -0.5898182392
-1.475749731 2.148833752 -0.4984559119
-2.011378527 2.93095541 -0.5563325882
-2.021645784 2.947016478 -0.4336676896
-2.018861294 2.945163488 -0.3086802363
-2.022647142 2.952896118 -0.1853750944
-2.01663208 2.945216656 -0.06160520017
-2.182603836 3.175708771 0.06656168401
-2.134210348 3.106457472 0.1953189373
-2.184424877 3.181926012 0.3339554071
-2.172120094 3.166367531 0.4663286805
-2.172343493 3.167881489 0.6016985774
-2.215913296 3.233837843 0.7537583113
-2.057275295 3.003450155 0.8305159211
-2.156667233 3.150912046 1.011516929
-1.359874249 1.99200654 -0.6346763968
-1.454103351 2.131635189 -0.5857691169
-1.47082746 2.156960249 -0.499219209
-1.997199178 2.931079149 -0.5550810695
-2.006273746 2.945501566 -0.4324489832
-2.010205507 2.953488827 -0.3088545799
-1.992626905 2.929859638 -0.1834910065
-2.021470547 2.973385811 -0.06205896288
-2.184460402 3.201097965 0.06694563478
-2.119395971 3.106917381 0.1949002594
-2.176106215 3.192444563 0.3343040347
-2.169429779 3.185038328 0.4680348635
-2.164050579 3.178332806 0.602324307
-2.201864958 3.236298323 0.7526135445
-2.049496651 3.013478279 0.8314157128
-2.144035101 3.154850483 1.010481596
-1.355429173 1.99970293 -0.6357116699
-1.454675794 2.147740364 -0.5889184475
-1.459264278 2.15532279 -0.4976926744
-1.988574624 2.939322948 -0.5553939342
-1.987086415 2.939330101 -0.4304990768
-1.998767495 2.958837271 -0.3086802363
-1.988488078 2.944728136 -0.1840143651
-2.001011848 2.965505838 -0.0617448166
-2.192902327 3.236466885 0.06753901392
-2.104059458 3.107680798 0.1944815516
-2.168858528 3.204592943 0.3348269761
-2.138838053 3.162616968 0.4636475444
-2.151835918 3.184231043 0.6020113826
-2.197713852 3.253343821 0.7549031973
-2.032422543 3.010923147 0.8287162781
-2.13841033 3.17032361 1.013069749
-1.343777895 1.998245358 -0.6336410642
-1.447170258 2.152804613 -0.5889184475
-1.449164987 2.157397747 -0.4969294369
-1.981091499 2.951511621 -0.5563325882
-1.976813316 2.94624877 -0.4304990768
-1.981770515 2.955866575 -0.3076343834
-1.983240604 2.960292578 -0.1845377237
-1.98174715 2.959180117 -0.06146558002
-2.173779488 3.232486963 0.06729467958
-2.097653866 3.12163806 0.1949002594
-2.162651062 3.220791817 0.335698545
-2.156550169 3.212917328 0.4699847698
-2.138507843 3.188441753 0.601385653
-2.187961817 3.264638424 0.7556664944
-2.023542881 3.021590233 0.8296161294
-2.138078213 3.193821669 1.018246174
-1.329288006 1.991675615 -0.6300175786
-1.439270735 2.158093929 -0.5889184475
-1.443802834 2.165710449 -0.4976926744
-1.967490435 2.953477383 -0.5553939342
-1.974801898 2.966693878 -0.4324489832
-1.967024803 2.956131935 -0.3069371283
-1.970684052 2.963870287 -0.1843283772
-1.974206805 2.971420765 -0.0615702942
-2.167467117 3.248749495 0.06746920943
-2.088413477 3.132629395 0.1951095909
-2.1536057 3.231636763 0.3360471725
-2.130455494 3.199320793 0.4668161571
-2.123523474 3.191325188 0.6004470587
-2.178726435 3.275525808 0.7564296722
-2.015139818 3.031881809 0.8305159211
-2.111395597 3.179106712 1.010999322
-1.32339406 1.997914553 -0.6305352449
-1.431728125 2.163105249 -0.5889184475
-1.444901109 2.183835506 -0.5007455945
-1.950632811 2.95043993 -0.5535167456
-1.965527892 2.975225925 -0.4326927364
-1.958890438 2.966304541 -0.3072857559
-1.962525368 2.974065781 -0.1845377237
-1.966024876 2.981632471 -0.06164010614
-2.158320665 3.259630442 0.06753901392
-2.079670429 3.143231153 0.1953189373
-2.136815786 3.230826139 0.3351756036
-2.120369673 3.208393335 0.4670598805
-2.123256922 3.215201378 0.6035757661
-2.146729946 3.251979828 0.749178946
-2.008836985 3.045403719 0.8323155046
-2.111979485 3.204200745 1.016693354
-1.318534732 2.005750418 -0.631570518
-1.417750001 2.158317089 -0.5862190723
-1.450200677 2.208558559 -0.5053250194
-1.95224309 2.975398064 -0.5569583178
-1.957306266 2.985389471 -0.433180213
-1.964906812 2.99812007 -0.3099004328
-1.951037169 2.979228258 -0.1844330579
-1.9714607 3.011558294 -0.06212876737
-2.153519154 3.277171373 0.06774844229
-2.069236517 3.150110006 0.1953189373
-2.132083893 3.248259306 0.3362214565
-2.112424374 3.220754862 0.4677911103
-2.101751804 3.205705404 0.6004470587
-2.090179682 3.190479994 0.7331510186
-1.996060252 3.049135923 0.8314157128
-2.107689857 3.220885277 1.019799113
-1.316803575 2.018430233 -0.6341587305
-1.410584331 2.163006783 -0.5862190723
-1.441410184 2.2119627 -0.5049434304
-1.943442822 2.983511209 -0.5572711229
-1.93981576 2.980217457 -0.4314740598
-1.953342319 3.003290653 -0.309726119
-1.9476794 2.995728016 -0.1850610822
-1.957667351 3.013391495 -0.06202405691
-2.145918369 3.289318562 0.0678531602
-2.051682711 3.147275209 0.1946908981
-2.12508297 3.262359381 0.3369187117
-2.104980946 3.23273325 0.4685223103
-2.094858885 3.219645262 0.6016985774
-2.11384058 3.250058889 0.7453627586
-1.981689453 3.049203157 0.8296161294
-2.091172457 3.220122814 1.01721096
-1.304851413 2.014678955 -0.631570518
-1.407261014 2.174461365 -0.5880186558
-1.428735614 2.208488226 -0.5030353069
-1.935161948 2.993594408 -0.5578969121
-1.93047893 2.988637686 -0.4317177832
-1.935284257 2.998372793 -0.3085059524
-1.9350456 2.999151707 -0.1848517358
-1.942803264 3.013483524 -0.06188444048
-2.13333559 3.295111179 0.06781825423
-2.049363613 3.167832851 0.1955282837
-2.116417408 3.272734165 0.3372673392
-2.093684673 3.240061045 0.4685223103
-2.08360815 3.226937532 0.6016985774
-2.122712135 3.288758278 0.7526135445
-1.971034288 3.056101561 0.8296161294
-2.077826738 3.224154472 1.016175628
-1.288059831 2.004820585 -0.626911819
-1.401767612 2.182640076 -0.5889184475
-1.422751665 2.217015028 -0.5037985444
-1.919910789 2.994016171 -0.5566453934
-1.92217648 2.998700857 -0.43220523
-1.918357849 2.995043755 -0.3074600697
-1.922962785 3.004542112 -0.1847470701
-1.923650146 3.006771803 -0.06160520017
-2.125062227 3.307585478 0.06792297214
-2.038294315 3.174966812 0.1955282837
-2.092573643 3.262022972 0.3353499174
-2.086647272 3.254034519 0.4694972932
-2.075527668 3.23918128 0.6026371717
-2.124404907 3.318010569 0.7575744987
-1.964019775 3.069871902 0.8314157128
-2.057191849 3.216741085 1.011516929
-1.283131599 2.012562037 -0.6279470921
-1.393758893 2.187762737 -0.5889184475
-1.417113781 2.225279331 -0.5045617819
-1.905206919 2.994033098 -0.5553939342
-1.913303733 3.00907588 -0.4326927364
-1.913235903 3.010128975 -0.3083316386
-1.911393166 3.009549618 -0.1846424043
-1.917430639 3.020220757 -0.0617448166
-2.105402708 3.303547144 0.0676786378
-2.030417681 3.187116385 0.1958422959
-2.08438468 3.274349213 0.335872829
-2.085361719 3.278409481 0.4719346762
-2.066328526 3.249739885 0.6032629013
-2.106493473 3.315463066 0.7552847862
-1.959559679 3.086579561 0.8341151476
-2.042845964 3.219008446 1.009963989
-1.280230403 2.023558378 -0.6300175786
-1.3844136 2.189078331 -0.5880186558
-1.413533092 2.236850977 -0.5060882568
-1.895266891 3.000334978 -0.5553939342
-1.906494021 3.020439625 -0.4334239662
-1.900590301 3.013419151 -0.307983011
-1.895012021 3.005734205 -0.1840143651
-2.094437122 3.310510397 0.0676786378
-2.011808634 3.182367802 0.1951095909
-2.072941303 3.281605721 0.335872829
-2.065998793 3.271879673 0.4699847698
-2.054971457 3.256933451 0.6032629013
-2.097581387 3.32575202 0.7560480833
-1.945156336 3.086466789 0.8323155046
-2.033656359 3.229388952 1.010999322
-1.271457434 2.024521351 -0.6289823651
-1.380906701 2.200500488 -0.5898182392
-1.402977228 2.23653698 -0.5049434304
-1.882684469 3.003584385 -0.5547682047
-1.886455059 3.011935472 -0.4312303066
-1.896931171 3.029837132 -0.3090288639
-1.884507656 3.012331009 -0.1840143651
-1.889938951 3.023359299 -0.06153539196
-2.089246988 3.327963591 0.06788806617
-1.999627352 3.187678576 0.1950049102
-2.071574688 3.303653479 0.337441653
-2.060889721 3.289163828 0.4714471698
-2.045687199 3.267434835 0.6038886309
-2.096375465 3.349695444 0.7598642111
-1.930238485 3.086628437 0.8305159211
-2.031584024 3.251213074 1.015658021
-1.267448425 2.033865452 -0.6305352449
-1.374247789 2.206961393 -0.5902681351
-1.392049789 2.236420155 -0.5037985444
-1.877405882 3.018524885 -0.5563325882
-1.863355398 2.998270273 -0.4283054471
-1.880035996 3.02628541 -0.307983011
-2.071272612 3.325052738 0.0676786378
-1.989544034 3.196334124 0.1951095909
-2.054766417 3.302406311 0.3365701139
-2.049396515 3.296337128 0.4714471698
-2.029058218 3.266165733 0.602324307
-2.082599401 3.35365653 0.7591009736
-1.921507955 3.096658468 0.8314157128
-2.009024143 3.240224838 1.009963989
-1.251196742 2.023489714 -0.6258764863
-1.374729276 2.225007772 -0.5938673615
-1.381139159 2.23625493 -0.502653718
-1.865819335 3.023379087 -0.5560196638
-1.859130263 3.014894009 -0.4297678471
-1.873641849 3.039614201 -0.3086802363
-1.865526795 3.028815269 -0.1842237115
-1.874026537 3.04499507 -0.06170991436
-1.984723449 3.217307568 0.4590165019
-2.002095699 3.248005152 0.5976312757
-2.054401159 3.334163189 0.7529951334
-1.915794492 3.111644506 0.8336651921
-1.984542489 3.225827217 1.003234744
-1.251198173 2.039371252 -0.6295000315
-1.361862302 2.221485615 -0.5916178823
-1.381531596 2.254453659 -0.5057066679
-1.872791409 3.058511972 -0.5613384247
-1.889000535 3.087403059 -0.4392736852
-1.894207001 3.097126722 -0.31390962
-1.893478274 3.098364115 -0.188096568
-1.907155871 3.123198032 -0.06317591667
-1.984239101 3.23544693 0.06554944068
-2.015970469 3.293632984 0.4690097868
-2.004145145 3.276881218 0.6016985774
-2.037630796 3.332938671 0.7510870099
-1.906952143 3.121639729 0.8345649838
-1.973271012 3.232734442 1.003234744
-1.243066669 2.042076349 -0.6289823651
-1.351061821 2.221230745 -0.5902681351
-1.381812811 2.272682905 -0.5087596178
-1.887744188 3.107236862 -0.5691601634
-1.890572548 3.114341497 -0.4421985447
-1.905089259 3.139489889 -0.3175701201
-1.897148013 3.128865004 -0.189561978
-1.896242857 3.129836082 -0.06317591667
-1.945906043 3.197938442 0.06464191526
-1.924834251 3.165796518 0.1919694394
-1.90314126 3.131348848 0.3168728948
-1.863295078 3.068199873 0.4356175959
-1.889191628 3.113291502 0.5700987577
-1.867145658 3.078171968 0.691554606
-1.890994191 3.119944096 0.8323155046
-1.809859514 2.988432884 0.9245536923
-1.240925074 2.054671049 -0.631570518
-1.348333836 2.234276056 -0.592517674
-1.372857451 2.275810957 -0.5083779693
-1.853432894 3.07489562 -0.5619641542
-1.859207034 3.086911917 -0.4373237491
-1.872538805 3.110275269 -0.31390962
-1.876947761 3.120065928 -0.1886199266
-1.863672256 3.10044384 -0.06244291365
-1.845683336 3.059623241 0.1850610822
-1.793431401 2.974177599 0.3001389802
-1.764469504 2.928458929 0.4146560729
-1.786614895 2.967556238 0.5419405699
-1.759206891 2.923185825 0.6549192667
-1.850969315 3.078094244 0.8192683458
-1.735737562 2.888753891 0.8914248347
-1.310203195 2.186589241 -0.6714286804
-1.345531225 2.247329235 -0.5947671533
-1.35885644 2.270481586 -0.5060882568
-1.799092054 3.008446932 -0.5485107899
-1.811762929 3.032037497 -0.4285491705
-1.802412152 3.017584324 -0.3037995398
-1.796442628 3.009976387 -0.1815022379
-1.77294898 2.972966671 -0.05972033739
-1.977991462 3.302367449 0.06649187207
-1.792940021 2.995781898 0.1807695329
-1.72677958 2.886382341 0.2905518711
-1.698217511 2.840886831 0.401250422
-1.725596547 2.888980389 0.526297152
-1.696657658 2.841654301 0.6350751519
-1.831226707 3.069474936 0.8152192235
-1.672227859 2.805188179 0.8634724617
-1.327241063 2.232664585 -0.6843696237
-1.344645262 2.263740063 -0.5979164839
-1.355933547 2.283651829 -0.5079963803
-1.801683068 3.03679347 -0.5525780916
-1.806230307 3.046880722 -0.4297678471
-1.758350253 2.967293739 -0.2980472445
-1.711641431 2.890770912 -0.1738611907
-1.652591228 2.793264866 -0.05595061556
-1.678381085 2.82446909 0.05664871633
-1.676423669 2.823418617 0.1698836535
-1.655680299 2.789591789 0.2800931633
-1.635635734 2.758012295 0.3885760307
-1.870585322 3.156695366 0.5744789839
-1.935866237 3.268160343 0.7300980687
-1.855241895 3.134543657 0.8309657574
-1.870905519 3.163527012 0.9732117057
-1.32728982 2.250596523 -0.688510716
-1.33475697 2.265062094 -0.5970166922
-1.344964027 2.283296824 -0.5068514943
-1.795080423 3.049873352 -0.5538296103
-1.714072704 2.914566517 -0.4100250304
-1.760098934 2.994024038 -0.3001389802
-1.750095606 2.979391098 -0.178885445
-1.593231559 2.714512348 -0.05424028635
-1.603518605 2.720061302 0.05441480875
-1.60776341 2.729441881 0.163812682
-1.582245708 2.687190771 0.2691115439
-1.575667024 2.678158045 0.3763890862
-1.806497574 3.07295084 0.5578969121
-1.567364454 2.667240381 0.5930971503
-1.855141997 3.159486294 0.835914731
-1.549956918 2.641838074 0.8091204166
-1.318450451 2.253548145 -0.6879930496
-1.32487464 2.266343117 -0.5961169004
-1.342929244 2.298147678 -0.5091412067
-1.793386817 3.071474075 -0.5566453934
-1.775911927 3.043985128 -0.4275742173
-1.749636292 3.000150204 -0.3001389802
-1.53656137 2.636899233 -0.1577417254
-1.646130681 2.827199697 -0.05640438199
-1.541519165 2.635881186 0.05259975791
-1.552881479 2.657437801 0.1591024548
-1.536678314 2.630763292 0.2628363371
-1.5052706 2.579060555 0.3615210354
-1.514133453 2.596326828 0.4693549275
-1.514540315 2.59806633 0.5763059258
-1.84410274 3.165942192 0.835914731
-1.489222884 2.558740377 0.7816855311
-1.311546445 2.259807348 -0.688510716
-1.318911314 2.274325132 -0.5970166922
-1.368375778 2.360570669 -0.5221162438
-1.783643842 3.079425335 -0.5569583178
-1.478904605 2.555352449 -0.3573774695
-1.521653771 2.630279064 -0.262139082
-1.489364505 2.576539516 -0.1537641883
-1.450661421 2.510595798 -0.04991208389
-1.478121758 2.547842264 0.05071489513
-1.487951875 2.565817833 0.1532408148
-1.471547723 2.539572954 0.2530748844
-1.459457517 2.520735741 0.3525027037
-1.461978912 2.526107073 0.4555887282
-1.456322074 2.518360138 0.5572250485
-1.438216567 2.490058422 0.7589095235
-1.308469057 2.272742987 -0.6910989285
-1.311361551 2.278686762 -0.5970166922
-1.424944401 2.479055405 -0.4462026358
-1.403193951 2.443188429 -0.3408032358
-1.433129668 2.497329235 -0.2481941581
-1.435098171 2.501770973 -0.1489492804
-1.41006875 2.460126638 -0.04879513383
-1.429754853 2.48341012 0.04931870475
-1.42719841 2.480972052 0.1477978826
-1.42395103 2.477327108 0.2462767363
-1.401642561 2.439501286 0.3403157592
-1.394141197 2.428407192 0.4368165731
-1.404966474 2.448252916 0.5404338837
-1.390176177 2.424439669 0.6352583766
-1.377655029 2.404547691 0.7309570909
-1.222342968 2.139522552 -0.6486526132
-1.309196591 2.293404579 -0.5997161269
-1.362006187 2.386881828 -0.5259323716
-1.369318724 2.401643991 -0.4311849177
-1.376969218 2.417025089 -0.3364159465
-1.363712668 2.394724607 -0.2373868525
-1.378944278 2.423441172 -0.1439250112
-1.356009483 2.385067701 -0.04718951136
-1.389344215 2.432818174 0.04820175096
-1.39378345 2.442570686 0.1451810896
-1.372294188 2.405886889 0.238607049
-1.355767846 2.378841639 0.331053704
-1.342645526 2.357729912 0.4230503142
-1.347851396 2.367832422 0.5213530064
-1.337386608 2.351357222 0.6145628691
-1.327253938 2.335441351 0.708180964
-1.346897125 2.379661322 -0.5232610703
-1.3405056 2.370301247 -0.4246146679
-1.342156053 2.375154018 -0.3298349977
-1.34848547 2.387327433 -0.2361666709
-1.338081598 2.370840788 -0.1404708475
-1.349639654 2.393270731 -0.04725931957
-1.343389869 2.371536016 0.04687536508
-1.355735183 2.39527607 0.1420409232
-1.343284011 2.374246836 0.2349465042
-1.335732341 2.362823248 0.3281288445
-1.319833994 2.336603403 0.4183573127
-1.329924583 2.355427504 0.517536819
-1.325339913 2.349222422 0.612763226
-1.316248178 2.335011005 0.7066280246
-1.315287828 2.339985371 -0.7076632977
-1.329416037 2.367054462 -0.616812408
-1.331854224 2.372365236 -0.5205897689
-1.335123181 2.380134106 -0.425553292
-1.336769462 2.385019302 -0.3305662274
-1.337222815 2.386804819 -0.2356437296
-1.33174932 2.378982306 -0.140680179
-1.348111153 2.41018343 -0.04750365391
-1.344432116 2.39476943 0.1417269111
-1.340838909 2.389346123 0.235992372
-1.316797376 2.348424911 0.3254477084
-1.325187325 2.36532259 0.4227374792
-1.328410029 2.372045517 0.5202081203
-1.313325644 2.347031832 0.6109636426
-1.309975505 2.342963457 0.7076632977
-1.29582262 2.324314594 -0.7014516592
-1.307869077 2.34784627 -0.6105137467
-1.305417538 2.344410181 -0.5133389831
-1.306639075 2.348529577 -0.4189830422
-1.308180571 2.353235722 -0.3254477084
-1.316302896 2.368817329 -0.2333776802
-1.304046273 2.348693609 -0.1385867447
-1.313496947 2.367661953 -0.04656122625
-1.331668973 2.389589787 0.0470498912
-1.323432565 2.376763582 0.1403661817
-1.318924189 2.369639635 0.2335520089
-1.287365198 2.314840555 0.3200854659
-1.311166286 2.359573603 0.4208602607
-1.31630826 2.369803667 0.5186816454
-1.299450278 2.341378689 0.6082642078
-1.303662181 2.350901127 0.7086986303
-1.284897447 2.323751688 -0.6998987198
-1.29212606 2.338752031 -0.6069145799
-1.290582895 2.336922169 -0.5106676817
-1.298432589 2.353076696 -0.4189830422
-1.297083259 2.352572203 -0.3247164786
-1.301293969 2.361183643 -0.2321575135
-1.296803832 2.354980707 -0.1386914253
-1.299440861 2.361720085 -0.04635179415
-1.300103068 2.352220774 0.04621217772
-1.29871428 2.351646185 0.1385867447
-1.308719158 2.370740175 0.2332033813
-1.285030127 2.329749107 0.3215478659
-1.29529357 2.350296021 0.4183573127
-1.313712239 2.384701014 0.5209713578
-1.295028806 2.352729082 0.6100638509
-1.293586612 2.352051735 0.7076632977
-1.270276308 2.316365242 -0.6962752938
-1.279271603 2.334703207 -0.6046649814
-1.281474948 2.339690685 -0.5102860332
-1.294003606 2.36452651 -0.4202345312
-1.292672276 2.364052773 -0.3256914616
-1.286354184 2.353473902 -0.2309373319
-1.293361306 2.368257761 -0.1392147839
-1.292147398 2.367996931 -0.04638670012
-1.295729756 2.363758326 0.04635179415
-1.295295238 2.364923716 0.1391101032
-1.287997961 2.352574825 0.2309373319
-1.278795719 2.337703466 0.3220353425
-1.288975716 2.358270168 0.4189830422
-1.301615477 2.382380724 0.5194448829
-1.284940243 2.353814602 0.6091640592
-1.280742526 2.348073244 0.7050751448
-1.265874386 2.327574015 -0.6983458996
-1.268323302 2.334017515 -0.6033153534
-1.277984858 2.352775812 -0.5121941566
-1.280088782 2.358611584 -0.4183573127
-1.284412861 2.368550539 -0.3256914616
-1.281929612 2.364956141 -0.2316345721
-1.286038399 2.374514103 -0.1393194646
-1.282921314 2.370734453 -0.04635179415
-1.287470222 2.368267059 0.04635179415
-1.291798115 2.378206253 0.1396334618
-1.283580303 2.36406064 0.2316345721
-1.268733978 2.338663578 0.3215478659
-1.28450191 2.369701385 0.4202345312
-1.289549589 2.380005121 0.5179184079
-1.285994291 2.375422478 0.6136630774
-1.274377227 2.355927706 0.7061104178
-1.255908251 2.328577757 -0.6973105669
-1.258319855 2.334999323 -0.6024155021
-1.271626949 2.36067915 -0.5129573345
-1.269976139 2.359586716 -0.4177315831
-1.281778812 2.383509159 -0.3271538615
-1.277440548 2.376435995 -0.2323318273
-1.269237161 2.363152504 -0.1383774132
-1.280310869 2.385770559 -0.04656122625
-1.271604419 2.358664751 0.04607255757
-1.277806282 2.372150421 0.1390054375
-1.273431659 2.365017891 0.2312859595
-1.257740736 2.337833881 0.3208166659
-1.278093457 2.377650499 0.4208602607
-1.283091903 2.387951374 0.5186816454
-1.275851488 2.376462698 0.612763226
-1.270712256 2.368873596 0.7086986303
-1.252327323 2.341465235 -0.6998987198
-1.251997828 2.342815399 -0.6033153534
-1.263378263 2.36510396 -0.5129573345
-1.267311931 2.374461889 -0.4196088016
-1.26597774 2.373956203 -0.3252039552
-1.272885561 2.387913465 -0.2330290675
-1.265674233 2.376383066 -0.1389007717
-1.270513415 2.386472702 -0.04649141803
-1.27279067 2.38072443 0.04642160237
-1.264284134 2.365806103 0.1383774132
-1.274552107 2.387024164 0.2330290675
-1.250507355 2.343961239 0.3210604191
-1.269271493 2.380132914 0.4205473661
-1.276595592 2.395880699 0.5194448829
-1.262053132 2.37058115 0.6100638509
-1.268294334 2.383307219 0.7118044496
-1.248672605 2.354355335 -0.7024869323
-1.249698997 2.357284307 -0.6060147285
-1.251439452 2.362559557 -0.5114309192
-1.261280179 2.382142544 -0.4202345312
-1.256242394 2.374631882 -0.3247164786
-1.259887576 2.38353467 -0.2321575135
-1.262452602 2.389396429 -0.1394241303
-1.256574512 2.380282164 -0.04628198594
-1.263015628 2.381398678 0.04635179415
-1.26162982 2.380793333 0.1390054375
-1.264348149 2.387936831 0.2326804549
-1.249228239 2.360376596 0.3227665722
-1.257262468 2.377563953 0.419295907
-1.274148583 2.410514593 0.5217345953
-1.254185557 2.374752998 0.6100638509
-1.256361604 2.380885363 0.7097339034
-1.22646606 2.331129313 -0.6942047477
-1.242370248 2.363357067 -0.6064646244
-1.247250199 2.373648643 -0.5129573345
-1.252957702 2.386530399 -0.4202345312
-1.251633763 2.386034489 -0.3256914616
-1.249200225 2.382406235 -0.2316345721
-1.255957365 2.397327185 -0.1396334618
-1.25382185 2.395284414 -0.04649141803
-1.254694581 2.385793447 0.04635179415
-1.255169034 2.388719082 0.1392147839
-1.254568934 2.388589144 0.2323318273
-1.240980744 2.364723206 0.3227665722
-1.250789642 2.38543725 0.4199216366
-1.26572597 2.414947748 0.5217345953
-1.251312137 2.389474869 0.612763226
-1.24087739 2.371562958 0.7055928111
-1.22904408 2.355949402 -0.7004163861
-1.233211517 2.3659513 -0.6060147285
-1.24077189 2.381469965 -0.5137206316
-1.240970373 2.383881092 -0.4189830422
-1.246961832 2.397433043 -0.3266663849
-1.246391296 2.397358418 -0.2326804549
-1.243899345 2.394607067 -0.1392147839
-1.247295856 2.403195858 -0.04656122625
-1.242661119 2.383065939 0.04621217772
-1.250515103 2.400170565 0.1396334618
-1.243463159 2.387652397 0.2318088859
-1.232719302 2.369040251 0.3227665722
-1.247011662 2.398551702 0.4214859903
-1.251857162 2.40889883 0.5194448829
-1.246556282 2.400745869 0.6145628691
-1.237928748 2.386169434 0.7086986303
-1.219038129 2.356792927 -0.6993811727
-1.222260594 2.36504817 -0.6046649814
-1.234254003 2.389274836 -0.5144838691
-1.232640862 2.388198853 -0.4189830422
-1.240404606 2.40530014 -0.3271538615
-1.238014817 2.401695013 -0.2326804549
-1.231874466 2.391832352 -0.138796106
-1.239318967 2.407319069 -0.04656122625
-1.234335661 2.387388706 0.04621217772
-1.242548347 2.404304504 0.1396334618
-1.241520405 2.404369831 0.2330290675
-1.218981862 2.362743855 0.3213041425
-1.242671967 2.409696817 0.4227374792
-1.245239854 2.416743994 0.5202081203
-1.236383915 2.401617765 0.6136630774
-1.231778741 2.39369607 0.7097339034
-1.218737245 2.376505136 -0.7040398717
-1.216189504 2.372556686 -0.6055648327
-1.224115849 2.390074253 -0.5137206316
-1.228315711 2.399306297 -0.4202345312
-1.226998091 2.39879632 -0.3256914616
-1.233250856 2.413097858 -0.2333776802
-1.226662278 2.401239872 -0.1391101032
-1.232727051 2.415192604 -0.04663103446
-1.231886268 2.402145147 0.04642160237
-1.228684068 2.397962093 0.1390054375
-1.234935164 2.412236452 0.2333776802
-1.214756608 2.373842001 0.3222790956
-1.234253526 2.414019823 0.4227374792
-1.242578745 2.431349516 0.5224978328
-1.226641059 2.402232885 0.612763226
-1.228682756 2.408306599 0.7128397226
-1.19946444 2.358148575 -0.6973105669
-1.211432457 2.383736372 -0.6073644161
-1.214405417 2.390619278 -0.5129573345
-1.221721649 2.407102108 -0.4208602607
-1.218616605 2.403065205 -0.3256914616
-1.223441005 2.413619757 -0.2330290675
-1.222784162 2.414416313 -0.1396334618
-1.225124478 2.412765741 0.2330290675
-1.209157705 2.383378506 0.3230103254
-1.219568133 2.405979395 0.4205473661
-1.235859275 2.439174414 0.5232610703
-1.218248725 2.406500101 0.612763226
-1.219395995 2.410856962 0.7123220563
-1.197313905 2.374396324 -0.7009340525
-1.20924139 2.400133133 -0.6105137467
-1.211350918 2.405364752 -0.5152471066
-1.215087056 2.414881468 -0.4214859903
-1.212004662 2.410851002 -0.3261789382
-1.21321857 2.414315462 -0.2326804549
-1.216141701 2.422239542 -0.1398428231
-1.213145971 2.418377399 -0.04652632028
-1.215986133 2.412472725 0.04645651206
-1.217303157 2.417184353 0.1396334618
-1.219383001 2.422366142 0.2335520089
-1.203505993 2.392905235 0.3237415254
-1.21204865 2.411987305 0.4208602607
-1.225574613 2.439965248 0.5224978328
-1.211588621 2.414221764 0.6136630774
-1.204046369 2.401283264 0.708180964
-1.190746307 2.382016659 -0.7019693255
-1.197373509 2.397365808 -0.6087141633
-1.202947736 2.409578323 -0.5152471066
-1.203123808 2.412037373 -0.4202345312
-1.210665822 2.429280281 -0.3281288445
-1.207913041 2.425880194 -0.2333776802
-1.205899715 2.422893524 -0.1396334618
-1.21805191 2.4494555 -0.0470498912
-1.232585192 2.466789007 0.0474338457
-1.237406254 2.478600979 0.1429829746
-1.209141135 2.423042297 0.2332033813
-1.193374872 2.393538237 0.3232540786
-1.208907127 2.426811934 0.4227374792
-1.213548899 2.437198639 0.5209713578
-1.210098505 2.432393789 0.6172622442
-1.198237181 2.410661221 0.7097339034
-1.187151909 2.396751881 -0.7050751448
-1.185539842 2.394545078 -0.6069145799
-1.197589517 2.421010494 -0.5167735815
-1.196025014 2.419972897 -0.4208602607
-1.202178121 2.433491945 -0.3281288445
-1.201202154 2.433655262 -0.2337263227
-1.197010636 2.427297354 -0.1396334618
-1.223640919 2.482390165 -0.0476083681
-1.231954455 2.487204075 0.04774798453
-1.235833049 2.497226 0.1438203603
-1.200252652 2.427457333 0.2332033813
-1.183252931 2.394130707 0.3227665722
-1.20042789 2.431017399 0.4227374792
-1.208083153 2.448672771 0.5224978328
-1.197728157 2.429821253 0.6154626608
-1.190668225 2.416562319 0.7102515101
-1.180481911 2.404349327 -0.7061104178
-1.178471327 2.402373552 -0.6078143716
-1.189131856 2.425175905 -0.5167735815
-1.191047192 2.431228638 -0.4221117496
-1.186692715 2.423410416 -0.3261789382
-1.192700386 2.437833071 -0.2337263227
-1.190285325 2.435049534 -0.1398428231
-1.225503206 2.508206606 -0.04802722484
-1.214901686 2.475546122 0.0474338457
-1.217433453 2.481799841 0.1426689625
-1.196155548 2.440577984 0.2340749502
-1.171851516 2.393102407 0.3220353425
-1.19106698 2.433418512 0.4224245846
-1.201253653 2.456401825 0.5232610703
-1.187952876 2.430278063 0.6145628691
-1.188159466 2.432855606 0.7138749957
-1.169965744 2.403039694 -0.704557538
-1.17390728 2.413278103 -0.609613955
-1.175932646 2.418511629 -0.5144838691
-1.184703946 2.438718796 -0.4227374792
-1.182118654 2.434474945 -0.3271538615
-1.184609056 2.441775084 -0.2337263227
-1.183945417 2.442578077 -0.1400521696
-1.204971552 2.487062693 -0.04753855988
-1.225062132 2.517320633 0.04816684499
-1.217058897 2.501987934 0.143610999
-1.188055038 2.444531441 0.2340749502
-1.170846462 2.411260605 0.3239852488
-1.181264997 2.433800936 0.4217988551
-1.196528435 2.467437506 0.5247875452
-1.181586623 2.437711716 0.6154626608
-1.178401828 2.433304548 0.7128397226
-1.157790422 2.398207903 -0.7019693255
-1.16759181 2.420667887 -0.6105137467
-1.171315908 2.429472208 -0.516010344
-1.176610827 2.442633867 -0.4227374792
-1.177483201 2.445536375 -0.3281288445
-1.174778104 2.442098379 -0.2333776802
-1.179300308 2.453691006 -0.1404708475
-1.199315906 2.496452093 -0.04764327407
-1.194980264 2.476345301 0.04729422554
-1.202682018 2.493417501 0.142878294
-1.173887849 2.435893536 0.2328547686
-1.162843347 2.415130615 0.3239852488
-1.177471519 2.446604252 0.4233632088
-1.184935808 2.464314938 0.5232610703
-1.175185204 2.445128918 0.6163624525
-1.164472938 2.425008297 0.7092162371
-1.151500106 2.405519247 -0.7030045986
-1.157877088 2.421010256 -0.609613955
-1.164947033 2.436885595 -0.5167735815
-1.165098071 2.439392328 -0.4214859903
-1.172788382 2.456593037 -0.3291037679
-1.168388367 2.449578047 -0.2337263227
-1.171157479 2.457587957 -0.1404708475
-1.186730385 2.491389036 -0.04746875167
-1.197119355 2.501940489 0.04771308228
-1.203886509 2.517211437 0.1440296918
-1.171817303 2.452356577 0.2340749502
-1.159104586 2.427930117 0.3252039552
-1.169352293 2.450495243 0.4233632088
-1.17675662 2.468230963 0.5232610703
-1.170424223 2.456049204 0.6181620955
-1.159746051 2.435833693 0.7112868428
-1.145969391 2.418851376 -0.7055928111
-1.145647407 2.420354843 -0.6082642078
-1.152635932 2.4362185 -0.5156286955
-1.155297041 2.444049358 -0.4214859903
-1.159096599 2.454304218 -0.3281288445
-1.15769577 2.452446461 -0.2335520089
-1.156170368 2.451431274 -0.1398428231
-1.186100006 2.516028881 -0.04785270244
-1.197335958 2.528413534 0.04813193902
-1.193771482 2.522024155 0.1440296918
-1.162814498 2.458842039 0.2342492491
-1.139172196 2.411026001 0.3222790956
-1.165410399 2.467673063 0.425553292
-1.166839719 2.472934484 0.5232610703
-1.160125613 2.460930586 0.6181620955
-1.153253078 2.447459698 0.7133573294
-1.137519598 2.422836542 -0.7055928111
-1.139270067 2.427669287 -0.6091640592
-1.151626229 2.456224918 -0.5190632939
-1.150538325 2.455022335 -0.4227374792
-1.154319048 2.465325356 -0.3291037679
-1.155038118 2.469105005 -0.2347721756
-1.149727225 2.458870173 -0.1400521696
-1.188313484 2.543706179 -0.04830646515
-1.190644979 2.53599 0.04820175096
-1.185809493 2.527983904 0.1441343725
-1.158451319 2.471907139 0.235120818
-1.137907624 2.429171085 0.324229002
-1.158463478 2.475304604 0.4261790216
-1.163624525 2.487460136 0.5255507827
-1.147007108 2.454171896 0.6154626608
-1.147154212 2.456721783 0.7149102688
-1.132739067 2.433601379 -0.7076632977
-1.134898186 2.440466166 -0.6114135981
-1.138509035 2.449348927 -0.5167735815
-1.143626332 2.46260643 -0.4233632088
-1.141528249 2.460336208 -0.3278850913
-1.145166874 2.469307184 -0.2344235629
-1.142815828 2.46649313 -0.1402615011
-1.173148155 2.533117056 -0.04802722484
-1.186003685 2.549195766 0.04837627336
-1.183314323 2.544579506 0.1448670775
-1.148569226 2.472120762 0.2347721756
-1.133599758 2.442131519 0.3254477084
-1.142766714 2.463005543 0.4233632088
-1.15988791 2.502194166 0.5278404951
-1.141709685 2.465233564 0.6172622442
-1.139001608 2.460512161 0.7149102688
-1.115337849 2.418243647 -0.7019693255
-1.129247069 2.449525118 -0.612763226
-1.131595373 2.456874132 -0.517536819
-1.135454297 2.466385126 -0.4233632088
-1.13502264 2.467714787 -0.3283725679
-1.134877086 2.469668627 -0.2340749502
-1.137964129 2.477529287 -0.140680179
-1.184315801 2.580815554 -0.04886494204
-1.283906817 2.78373003 0.05280918628
-1.276399851 2.769995689 0.1576370448
-1.138267159 2.472495079 0.2344235629
-1.126325369 2.447680473 0.3256914616
-1.136638165 2.47236371 0.4243018329
-1.148305416 2.498890877 0.5263140202
-1.136781335 2.476090193 0.6190618873
-1.125572681 2.453937531 0.7118044496
-1.1169523 2.443011761 -0.708180964
-1.120689034 2.45345211 -0.612763226
-1.128334641 2.471328259 -0.5198264718
-1.125197649 2.466739416 -0.4227374792
-1.131340504 2.482500315 -0.3298349977
-1.124202728 2.467979193 -0.2335520089
-1.129309535 2.481486082 -0.140680179
-1.150910616 2.53012228 -0.04781780019
-1.161143899 2.540840626 0.04806213081
-1.172605157 2.56710887 0.1457044482
-1.126752496 2.469006538 0.2337263227
-1.119420886 2.455209732 0.3261789382
-1.133347511 2.486904383 0.4261790216
-1.136320829 2.495737076 0.5247875452
-1.129744291 2.483590841 0.619961679
-1.119828224 2.462932348 0.7133573294
-1.102040052 2.432818413 -0.7040398717
-1.110136151 2.451829433 -0.6114135981
-1.118891478 2.473463535 -0.5194448829
-1.118639708 2.474056959 -0.4233632088
-1.121468067 2.482620001 -0.3293475211
-1.12131846 2.484600067 -0.2347721756
-1.116147399 2.474293709 -0.1400521696
-1.14371562 2.537770271 -0.04788760841
-1.146110058 2.530105591 0.04778289422
-1.239398837 2.738588572 0.155334264
-1.123873591 2.485632181 0.2349465042
-1.101463199 2.437201023 0.3232540786
-1.127098918 2.496246338 0.4271176159
-1.131269336 2.506649017 0.5263140202
-1.121502638 2.487323523 0.619961679
-1.115191936 2.475632906 0.7159455419
-1.106627584 2.46465683 -0.7123220563
-1.104760528 2.462801933 -0.6132131815
-1.111486793 2.478951454 -0.5198264718
-1.113226414 2.485157728 -0.4246146679
-1.109550953 2.479272127 -0.3283725679
-1.117518783 2.499412298 -0.2358180583
-1.109132767 2.481821775 -0.1402615011
-1.138111711 2.549050808 -0.04802722484
-1.147095799 2.555983543 0.04820175096
-1.199598432 2.675467014 0.1514613926
-1.118883252 2.496618271 0.2356437296
-1.097816706 2.451901436 0.3247164786
-1.116764665 2.49655962 0.4264918864
-1.124115825 2.51416707 0.5270772576
-1.111223221 2.487664938 0.6190618873
-1.110479355 2.488331556 0.7185336947
-1.086598516 2.443983078 -0.7050751448
-1.097740293 2.470204353 -0.6141129732
-1.100799441 2.479420185 -0.5190632939
-1.105712771 2.492832661 -0.4252404273
-1.100890517 2.48312974 -0.3283725679
-1.10555923 2.496011257 -0.235120818
-1.10649538 2.500481606 -0.1410988867
-1.130015135 2.554837227 -0.04806213081
-1.14872849 2.583726168 0.04865551367
-1.144037485 2.575596571 0.1454951018
-1.109725714 2.500702143 0.2356437296
-1.090860367 2.459347963 0.3252039552
-1.104042292 2.491412163 0.4249275625
-1.118071795 2.525451183 0.5286037326
-1.102098584 2.491720915 0.6190618873
-1.10178721 2.492192507 0.7185336947
-1.076503992 2.444225073 -0.7040398717
-1.090248227 2.477778912 -0.6150127649
-1.089767337 2.477855921 -0.5179184079
-1.098592997 2.500294209 -0.4258661568
-1.09497416 2.494418621 -0.3293475211
-1.09363699 2.492557526 -0.2344235629
-1.099363208 2.507987499 -0.1413082182
-1.122694612 2.562429667 -0.04813193902
-1.273801804 2.893562794 0.05448461697
-1.267763734 2.881213903 0.1627659649
-1.09938693 2.500912428 0.2352951169
-1.085032582 2.470599651 0.3261789382
-1.100897312 2.507911921 0.4271176159
-1.110827208 2.532934666 0.5293669701
-1.09495759 2.49912262 0.619961679
-1.087656975 2.483635902 0.7149102688
-1.075689793 2.465675116 -0.7092162371
-1.08358407 2.484953403 -0.6159126163
-1.088167667 2.497844219 -0.5213530064
-1.085564375 2.493056536 -0.4239889383
-1.089863062 2.50531745 -0.3303224742
-1.088106871 2.503668785 -0.235120818
-1.091040969 2.511619091 -0.1413082182
-1.126481295 2.595682859 -0.04869041964
-1.119467974 2.566022635 0.04816684499
-1.121240616 2.572535276 0.1448670775
-1.091445088 2.506561995 0.2354694307
-1.08000195 2.481465101 0.3271538615
-1.093711138 2.515363216 0.4277433455
-1.09772563 2.525800943 0.5270772576
-1.089769125 2.509889841 0.621761322
-1.080517769 2.490962267 0.7159455419
-1.072107553 2.479867697 -0.7123220563
-1.071812987 2.481564283 -0.6141129732
-1.081435323 2.505043507 -0.5221162438
-1.07842052 2.500458241 -0.4246146679
-1.079540849 2.505460262 -0.3298349977
-1.082512379 2.5147717 -0.2358180583
-1.079108953 2.508074045 -0.1408895403
-1.115835071 2.595924854 -0.04862061143
-1.255662918 2.905837536 0.05455442518
-1.319655657 3.056858778 0.1722911149
-1.087074399 2.519314051 0.2363409996
-1.065833211 2.472459078 0.3254477084
-1.084924817 2.519165277 0.4277433455
-1.090455174 2.533223867 0.5278404951
-1.084081411 2.520839214 0.6235609055
-1.074865818 2.501818895 0.7180161476
-1.056929588 2.469572544 -0.708180964
-1.063143611 2.485290766 -0.6141129732
-1.073789001 2.512601137 -0.5228794217
-1.072350621 2.511661291 -0.4258661568
-1.069229603 2.505562067 -0.3293475211
-1.075289607 2.522200823 -0.2361666709
-1.073040366 2.519361973 -0.1413082182
-1.079351544 2.535407305 -0.04739893973
-1.141653299 2.667534113 0.04994699359
-1.103253603 2.580300331 0.1448670775
-1.080963254 2.5306108 0.2370382249
-1.058754444 2.479816198 0.325935185
-1.075348973 2.52112031 0.4274305105
-1.085780263 2.54804039 0.5301302075
-1.070254207 2.514037609 0.6208614707
-1.070665121 2.516221046 0.7211219072
-1.058104038 2.496369362 -0.7149102688
-1.058587193 2.499937534 -0.616812408
-1.0588907 2.501869917 -0.5198264718
-1.068193078 2.526305437 -0.4277433455
-1.061584473 2.513121128 -0.3298349977
-1.068029404 2.52960968 -0.2365152985
-1.065792441 2.526772499 -0.1415175647
-1.062726736 2.52073288 -0.0470498912
-1.099106789 2.594366789 0.04848098755
-1.093461752 2.582296371 0.1447623968
-1.072123766 2.534368277 0.2370382249
-1.052749991 2.490993977 0.3269101381
-1.067311168 2.526678085 0.4277433455
-1.079933167 2.559049845 0.5316566825
-1.064500809 2.524940968 0.6226611137
-1.062626004 2.521723032 0.7216395736
-1.042653799 2.48401618 -0.7102515101
-1.051799536 2.507027864 -0.6177121997
-1.054703832 2.516415358 -0.5221162438
-1.056757092 2.522545815 -0.4264918864
-1.057842493 2.52761507 -0.3312974572
-1.056118011 2.525969982 -0.2358180583
-1.063567758 2.545035839 -0.1423549354
-1.056231976 2.529963732 -0.04715460539
-1.061086893 2.527931213 0.04715460539
-1.064359069 2.5382092 0.1420409232
-1.058652163 2.52706933 0.235992372
-1.04678309 2.499964476 0.3276413381
-1.060010195 2.534032822 0.4283691347
-1.068411112 2.555372 0.5301302075
-1.061378837 2.541044474 0.6258104444
-1.050840497 2.51828599 0.7195689678
-1.03886199 2.498162508 -0.7133573294
-1.044536591 2.514283419 -0.6186119914
-1.044847965 2.516272306 -0.5213530064
-1.047944665 2.526219368 -0.4264918864
-1.050533533 2.534959793 -0.331784904
-1.049261212 2.533139467 -0.2361666709
-1.050096035 2.537659883 -0.1417269111
-1.058854222 2.561354876 -0.04767817631
-1.056861877 2.542698622 0.04736403748
-1.059322715 2.551131248 0.1425642818
-1.054847956 2.54160738 0.2370382249
-1.041092038 2.510938168 0.3286163211
-1.0519135 2.539542913 0.4286819696
-1.059485197 2.559085846 0.5301302075
-1.054737449 2.550136089 0.6271601319
-1.041306615 2.520153046 0.7190513611
-1.031607032 2.50534606 -0.7143926024
-1.031304955 2.507101297 -0.6159126163
-1.042031169 2.534430265 -0.5244059563
-1.040620565 2.533516645 -0.4271176159
-1.040171862 2.534938335 -0.3312974572
-1.041923761 2.5404737 -0.2365152985
-1.041230798 2.541310072 -0.1417269111
-1.049907446 2.565035105 -0.04767817631
-1.047219157 2.544522762 0.04732913151
-1.045854807 2.543730259 0.1419362575
-1.049756646 2.554487944 0.2379097939
-1.0247823 2.496192932 0.3261789382
-1.049038291 2.557820559 0.4311849177
-1.050546408 2.562768221 0.5301302075
-1.043613195 2.548392296 0.6258104444
-1.034697056 2.529136896 0.7206043005
-1.02723062 2.519665718 -0.7174984813
-1.023282886 2.512490273 -0.6163624525
-1.034657717 2.541689157 -0.5251691937
-1.033259392 2.540793419 -0.4277433455
-1.028327584 2.531197309 -0.3303224742
-1.037547588 2.555170774 -0.2375611663
-1.030852556 2.541227341 -0.1415175647
-1.042448759 2.572391272 -0.04774798453
-1.041348577 2.555570841 0.04746875167
-1.031697273 2.534416914 0.1412035525
-1.043085456 2.563673496 0.2384327203
-1.020546913 2.510788918 0.3276413381
-1.03564477 2.550484896 0.4293076992
-1.043070197 2.570058346 0.530893445
-1.030318499 2.54118371 0.6231110096
-1.02948916 2.54168582 0.723192513
-1.018429637 2.523235559 -0.7174984813
-1.019608259 2.528698444 -0.6195118427
-1.024312139 2.541643143 -0.5244059563
-1.027335644 2.551714182 -0.4289948642
-1.022449255 2.5421381 -0.3312974572
-1.027136445 2.555079699 -0.2372125536
-1.027929544 2.559637547 -0.1423549354
-1.028995037 2.564879417 -0.04753855988
-1.033918262 2.562898636 0.04753855988
-1.025831103 2.545412302 0.1416222453
-1.03338635 2.565450668 0.2382584065
-1.012516856 2.516177893 0.3278850913
-1.026736259 2.554084301 0.4293076992
-1.041411519 2.591900826 0.5347096324
-1.022894263 2.548381805 0.6240108609
-1.020610094 2.545264244 0.723192513
-1.00388062 2.512423992 -0.7133573294
-1.013664246 2.539481878 -0.6213114262
-1.013978124 2.541556358 -0.5236426592
-1.016958833 2.551615 -0.4283691347
-1.015037179 2.549380541 -0.331784904
-1.015263796 2.551244974 -0.2365152985
-1.018988967 2.563210011 -0.1423549354
-1.023438096 2.575710535 -0.04767817631
-1.022740126 2.560921192 0.0474338457
-1.021085858 2.558074713 0.1421456039
-1.019258499 2.556087494 0.2370382249
-1.007401347 2.528917551 0.3291037679
-1.016798854 2.553804874 0.4286819696
-1.028004766 2.584574699 0.5324198604
-1.01471138 2.553747892 0.6244606972
-1.010738492 2.545043468 0.7221571803
-0.9972366095 2.521301985 -0.7149102688
-1.006670833 2.546453714 -0.6222112179
-1.006543159 2.548732281 -0.5244059563
-1.007041693 2.551298141 -0.4277433455
-1.010947227 2.563812494 -0.3332473338
-1.007811904 2.558481216 -0.2368639261
-1.010484099 2.566574812 -0.1423549354
-1.015172243 2.581128836 -0.04771308228
-1.014242768 2.564298391 0.0474338457
-1.015086651 2.569053411 0.1425642818
-1.015450954 2.57260251 0.2382584065
-1.000467062 2.535937309 0.3295912445
-1.013673186 2.572041035 0.4311849177
-1.016549468 2.580662966 0.530893445
-1.01194644 2.571605682 0.6280599236
-1.00326252 2.552151918 0.723192513
-0.9930970073 2.535387993 -0.7180161476
-0.9899653196 2.529989481 -0.6172622442
-1.002375245 2.563026667 -0.5266956091
-0.9995681643 2.55847764 -0.4283691347
-1.003434539 2.571024656 -0.3337348402
-1.005389094 2.578690052 -0.2384327203
-1.00151813 2.570086479 -0.1423549354
-1.014861822 2.607018232 -0.04813193902
-1.003097892 2.562237263 0.04732913151
-1.007567048 2.576301575 0.1427736282
-1.006188273 2.574100494 0.2380841076
-0.9879978299 2.530168533 0.3283725679
-1.005407333 2.577403545 0.4314978123
-1.010388255 2.591512203 0.5324198604
-1.001548529 2.571491003 0.6271601319
-0.9971490502 2.562840223 0.7252629995
-0.9844961166 2.540812016 -0.7185336947
-0.9853498936 2.544333458 -0.619961679
-0.9915585518 2.563021421 -0.5259323716
-0.9944561124 2.573179483 -0.4302463233
-0.9930237532 2.570807695 -0.3332473338
-0.9956649542 2.58032465 -0.2382584065
-0.9920921326 2.573739767 -0.1423549354
-0.9913777709 2.573224545 -0.0474338457
-0.9948709607 2.567587614 0.04736403748
-1.006498933 2.600291252 0.1439250112
-1.001777291 2.590778828 0.2393042892
-0.9827384949 2.542860031 0.3295912445
-0.9971150756 2.582740545 0.4318106472
-1.002296686 2.598861456 0.5331831574
-0.990015626 2.569689035 0.6258104444
-0.9916684628 2.575318813 0.727851212
-0.9776966572 2.549644232 -0.7200866342
-0.9802009463 2.558846235 -0.6226611137
-0.9812024236 2.562799692 -0.5251691937
-0.9861741066 2.578480005 -0.4305591881
-0.9821770191 2.570721626 -0.3327598572
-0.9847793579 2.580233812 -0.2379097939
-0.9887961149 2.592116356 -0.1431923211
-1.004013181 2.634768724 -0.04851589352
-1.132160902 2.954003334 0.05451951921
-1.127647519 2.94529891 0.1630799919
-0.9898788333 2.586817026 0.238607049
-0.9762464762 2.553862333 0.3305662274
-0.9848228097 2.57899642 0.4305591881
-0.9974184036 2.613349676 0.5354728103
-0.9824274778 2.576771021 0.6267102361
-0.9801594019 2.573520422 0.7262982726
-0.9621789455 2.536954165 -0.7154279351
-0.9740251899 2.569541216 -0.6244606972
-0.9745830297 2.573722839 -0.5266956091
-0.977415204 2.583925247 -0.4308720827
-0.9774101973 2.585275412 -0.3342222869
-0.9743593931 2.579927683 -0.2375611663
-0.9806994796 2.599460125 -0.1434016526
-0.9941049218 2.636385679 -0.04848098755
-1.010510325 2.664388418 0.04903946444
-1.012632489 2.672796965 0.147588551
-0.9782758951 2.584837437 0.2380841076
-0.9701356888 2.564681053 0.3315411508
-0.978607893 2.589809656 0.4318106472
-0.9864472151 2.613314152 0.5347096324
-0.9771024585 2.591295004 0.6294096708
-0.9684455991 2.569694996 0.7242277861
-0.9576016068 2.549006462 -0.7180161476
-0.9641301036 2.569108009 -0.6235609055
-0.9678721428 2.580448389 -0.5274589062
-0.9651346803 2.575884104 -0.4289948642
-0.9716143012 2.595939159 -0.3351972401
-0.9685890079 2.590609789 -0.2382584065
-0.9718284607 2.60065794 -0.1432970017
-0.9958460927 2.667769432 -0.04900455847
-1.184429765 3.15446496 0.05811471865
-1.215591073 3.240893126 0.1791994572
-0.9722480178 2.593494892 0.238607049
-0.9602326155 2.564166069 0.331053704
-0.9727834463 2.600440979 0.433062166
-0.9768565893 2.612722635 0.5339463949
-0.9696392417 2.596177101 0.6298595667
-0.9626192451 2.580132484 0.7262982726
-0.9516156912 2.561553955 -0.7206043005
-0.9524424076 2.565150738 -0.621761322
-0.9625034332 2.595022917 -0.529748559
-0.9611768126 2.594222784 -0.4314978123
-0.9625474215 2.599314451 -0.3351972401
-0.9609231949 2.597712278 -0.238607049
-0.9595215321 2.596708059 -0.142878294
-0.996227324 2.697491169 -0.04949323088
-0.9937437177 2.674953938 0.04910927638
-0.9930260181 2.675882578 0.1473791897
-0.9668915868 2.608249664 0.2396529019
-0.9471384883 2.556333542 0.3295912445
-0.9698703885 2.620494366 0.435877949
-0.969997704 2.623650789 0.5354728103
-0.9628170729 2.6070261 0.6316591501
-0.9569523931 2.592538357 0.7288864851
-0.9480003715 2.579365969 -0.7247454524
-0.9450496435 2.574111938 -0.6231110096
-0.9520872831 2.594680548 -0.5289853215
-0.952115953 2.597562075 -0.4314978123
-0.950283289 2.595369101 -0.3342222869
-0.9559583068 2.612276554 -0.2396529019
-0.9525079131 2.605669498 -0.1431923211
-0.986805737 2.700952053 -0.04949323088
-1.012891531 2.757415056 0.0505752787
-0.987121582 2.688706875 0.1479025483
-0.9598385692 2.617220879 0.2401758432
-0.9391290545 2.563515663 0.3300787508
-0.9573206306 2.614589214 0.4343136251
-0.9621828794 2.630708218 0.5362361073
-0.9496989846 2.599388361 0.6289597154
-0.9512106776 2.604936361 0.731474638
-0.9363511205 2.575397015 -0.7226748466
-0.9398354292 2.58638978 -0.6253604889
-0.9403455257 2.590606213 -0.5274589062
-0.9475382566 2.611847162 -0.433375001
-0.9443773031 2.605971098 -0.3351972401
-0.9454769492 2.611850977 -0.2393042892
-0.949298501 2.623838425 -0.1440296918
-0.9970815182 2.758919477 -0.05050547048
-1.092570424 3.005072117 0.0551129058
-0.9750023484 2.684627295 0.1474838704
-0.9479795694 2.613063574 0.239478603
-0.9360354543 2.581545353 0.3320286274
-0.9441525936 2.606770992 0.4324364364
-0.9574625492 2.64496088 0.5385257602
-0.943723917 2.609854221 0.6307593584
-0.9394860864 2.600973129 0.7294041514
-0.9238804579 2.567581415 -0.7195689678
-0.9334387183 2.596990108 -0.6271601319
-0.9357312322 2.60479641 -0.529748559
-0.9384160042 2.615138292 -0.433375001
-0.937954843 2.616725922 -0.3361722231
-0.9341232777 2.60746932 -0.238607049
-0.9408073425 2.629016638 -0.1441343725
-0.9793669581 2.739786863 -0.05008661002
-0.9744753242 2.70967555 0.04956303909
-0.9663012624 2.689894199 0.147588551
-0.939309597 2.616192341 0.239478603
-0.9290295243 2.590402603 0.3327598572
-0.9390452504 2.621208429 0.4343136251
-0.945577383 2.640893459 0.5369993448
-0.9378899932 2.622306824 0.6330088973
-0.9291020036 2.600598335 0.7283688784
-0.9175037146 2.578070641 -0.7216395736
