# .PCD v0.7 - Point Cloud Data file format
VERSION 0.7
FIELDS x y z
SIZE 4 4 4
TYPE F F F
COUNT 1 1 1
WIDTH 1309
HEIGHT 1
VIEWPOINT 0 0 0 1 0 0 0
POINTS 1309
DATA ascii
6.132822514 6.26919508 -0.4574174285
6.137130737 6.271409035 -0.1524624228
6.102442741 6.257771969 0.1518690437
6.066879272 6.219138145 0.4531258941
6.09754467 6.246203423 0.7599726915
6.085914135 6.229943275 1.064219713
6.065785885 6.207164764 1.367914677
6.072254658 6.209453106 1.67994535
6.038146973 6.170259953 1.983165264
5.280612469 5.394271851 2.011075974
6.106250286 6.218111992 -2.002061129
6.141077042 6.249206543 -1.69482851
6.136794567 6.242674828 -1.379803658
6.131291389 6.232717991 -1.068363309
6.162789822 6.260365009 -0.7648534775
6.175998688 6.271593571 -0.4590921402
6.19126606 6.282708645 -0.1532652378
6.142771244 6.257480621 0.1523577124
6.161334038 6.27200985 0.4585688412
6.145843983 6.251880646 0.7632846236
6.130203247 6.233787537 1.068363309
6.116508007 6.215525627 1.374484897
6.112095833 6.208868504 1.685287952
6.083193302 6.175189018 1.99126339
5.303480148 5.379932404 2.012628794
6.105778694 6.178674698 -2.315964937
6.149843693 6.21892786 -2.009259462
6.186620235 6.253929138 -1.701697469
6.198851585 6.261926174 -1.388876796
6.1739645 6.232432842 -1.072019339
6.214368343 6.271029949 -0.7686882615
6.221759796 6.274107456 -0.4608716071
6.231781483 6.282020092 -0.1537539065
6.195503712 6.267288208 0.1531256139
6.196141243 6.26574564 0.4596155286
6.207185745 6.272533894 0.7683396935
6.165895462 6.226454258 1.070800662
6.16350174 6.221871376 1.380429387
6.164140224 6.218167305 1.693683505
6.126666069 6.176057339 1.998461962
5.318571568 5.359571934 2.01159358
6.158646107 6.188822746 -2.327870369
6.192431927 6.220596313 -2.016458035
6.230577469 6.254553795 -1.707803488
6.250261307 6.272117615 -1.395760059
6.214223862 6.231602192 -1.075431705
6.261554241 6.274683475 -0.7718259096
6.265109539 6.276054382 -0.4625463188
6.276285648 6.28286314 -0.1543123722
6.244461536 6.275058746 0.1538237035
6.240525723 6.266720772 0.4612902403
6.255766392 6.277641773 0.7716516256
6.22294569 6.242527008 1.077137828
6.206110954 6.221294403 1.385122538
6.215234756 6.228266716 1.702079296
6.167769909 6.176389217 2.0052104
5.341342926 5.345074654 2.0131464
6.20043993 6.185305119 -2.33511734
6.24663353 6.227042675 -2.026355743
6.278496742 6.256616116 -1.714672685
6.299490929 6.273162365 -1.401391625
6.271874428 6.241302967 -1.081281424
6.325471401 6.292441368 -0.7768809199
6.341569424 6.304053307 -0.4664191902
6.331893444 6.292237759 -0.1551151872
6.299663067 6.28209877 0.15459162
6.293156147 6.27341938 0.4634884
6.29708147 6.27295208 0.773917675
6.28344965 6.25499773 1.083474994
6.252673149 6.222194672 1.390441179
6.269731522 6.234810352 1.71047473
6.205262184 6.166399479 2.009709597
5.348564625 5.31320715 2.00848794
6.249438286 6.190819263 -2.34547019
6.293559551 6.232345104 -2.034904003
6.333787918 6.267805576 -1.723831296
6.345539093 6.277242184 -1.407023191
6.329243183 6.256752491 -1.087618709
6.378582478 6.301126003 -0.7807157636
6.392284393 6.312457561 -0.4686172903
6.393673897 6.309423447 -0.1560925245
6.357397079 6.297765255 0.1554991454
6.357596397 6.293568134 0.4666285217
6.354352474 6.285960674 0.7782753706
6.329563141 6.259253025 1.087862372
6.309483051 6.235042095 1.398262978
6.315511703 6.23882103 1.717343926
6.229837894 6.14989233 2.011059046
5.360200882 5.287722111 2.005899668
6.301604748 6.201225281 -2.35737586
6.338895321 6.233568668 -2.042552233
6.382537365 6.274294853 -1.731463671
6.395594597 6.282742023 -1.413280606
6.372292995 6.255482197 -1.091274738
6.426460266 6.306454659 -0.7840276957
6.445651054 6.320872307 -0.4709200561
6.445651054 6.316460609 -0.1568255275
6.407853127 6.303580761 0.1561972499
6.415135384 6.306339741 0.4692453444
6.406424999 6.29557848 0.7821102738
6.374033451 6.259376049 1.091762185
6.359405994 6.240652561 1.404520273
6.362475395 6.241485596 1.724212885
6.251268864 6.128107071 2.011059046
5.382764816 5.273036003 2.007452488
6.353610992 6.208893299 -2.368763924
6.387108326 6.237271309 -2.051100492
6.438118458 6.284890175 -1.74062264
6.448596478 6.290724277 -1.42016387
6.422516823 6.260915279 -1.096149445
6.488390446 6.322916985 -0.788908422
6.490568638 6.32063055 -0.4725948572
6.496324062 6.32181263 -0.1575236171
6.459856033 6.310521126 0.1569302529
6.462836742 6.309020042 0.4711294472
6.466860771 6.310750008 0.7868167162
6.415743351 6.256489754 1.095174551
6.409446716 6.245986938 1.410777688
6.412351608 6.246635914 1.73184526
6.264242649 6.09809494 2.008359671
5.405291557 5.258257389 2.009005547
6.400198936 6.210895538 -2.378081322
6.442414761 6.247498512 -2.061897993
6.485389709 6.286976337 -1.747491717
6.504565716 6.301163197 -1.427672625
6.47143364 6.264689922 -1.100780487
6.544782162 6.333483219 -0.7930918932
6.544180393 6.32847929 -0.4748976231
6.544234753 6.324112892 -0.1581519097
6.517729282 6.322741032 0.1578028649
6.502027512 6.303105354 0.4723855257
6.517467022 6.31586647 0.7903029323
6.471766472 6.267200947 1.10102427
6.459599972 6.251050949 1.417035103
6.467981339 6.256976128 1.741004229
6.271478653 6.062648296 2.003860712
5.418056965 5.233987331 2.006934881
6.441316128 6.207282066 -2.385328293
6.496467113 6.256062984 -2.072245836
6.529927731 6.286083221 -1.753597617
6.54929781 6.3003335 -1.43267858
6.526178837 6.273703098 -1.106386542
6.584088802 6.327167988 -0.795183599
6.599366188 6.337413788 -0.4773050845
6.592242718 6.326151371 -0.1587802023
6.574324608 6.333245277 0.1586405784
6.561402798 6.316382885 0.4751069844
6.568187237 6.320706844 0.7937891483
6.532237053 6.281720161 1.107605219
6.502744198 6.248997688 1.421728015
6.520931721 6.264280319 1.749399781
6.285572529 6.033973217 2.001611233
5.433506966 5.212365627 2.005899668
6.492250919 6.212813377 -2.39619875
6.547843456 6.261630535 -2.081693649
6.585885048 6.295814991 -1.762756467
6.602675915 6.307450771 -1.439561605
6.579626083 6.281040668 -1.111748815
6.632081032 6.328903198 -0.7983212471
6.653244495 6.34466362 -0.4796078503
6.63923645 6.329093456 -0.1594084948
6.615175724 6.328229427 0.1590943336
6.619840622 6.330480576 0.4778284729
6.616137981 6.322519779 0.7969267964
6.585708141 6.289043903 1.112967491
6.559153557 6.261497021 1.429549813
6.565489292 6.263161182 1.755505681
6.315061569 6.020062447 2.004310608
5.440973759 5.184988976 2.002276182
6.544708729 6.219389439 -2.407586813
6.594005108 6.264039516 -2.089792013
6.639147758 6.302522182 -1.77115202
6.649349689 6.309994698 -1.445193291
6.629225254 6.28650713 -1.116623521
6.691731453 6.341347694 -0.8028533459
6.704695225 6.351411819 -0.4818059504
6.710665226 6.352618217 -0.1605952531
6.663664818 6.33243227 0.1597575247
6.673758507 6.337593079 0.4801312387
6.669963837 6.329556465 0.8007615805
6.643970013 6.30269289 1.119304657
6.612510681 6.268459797 1.436432838
6.614718914 6.268367767 1.763138056
6.329331875 5.993725777 2.002511024
5.466051579 5.172607899 2.004864454
6.587774277 6.218867302 -2.415868998
6.64417696 6.267733097 -2.098790169
6.700006008 6.318183422 -1.781837225
6.705832958 6.319263935 -1.452702045
6.682924271 6.293266296 -1.121985793
6.745749474 6.347988129 -0.8066881895
6.750102997 6.349864006 -0.4834807515
6.756109715 6.351070881 -0.1611537188
6.720634937 6.342070103 0.1605952531
6.721997738 6.338921547 0.4820153415
6.725709915 6.340205669 0.8049451113
6.671711445 6.284905434 1.120279551
6.676059723 6.284610271 1.445506215
6.668015957 6.274837971 1.771533608
6.338854313 5.960920334 1.998911858
5.489706993 5.158786297 2.006934881
6.658450127 6.23959446 -2.43346858
6.701571941 6.277807713 -2.110037565
6.746049881 6.315052986 -1.787943244
6.757805347 6.321628094 -1.45895946
6.735298634 6.298375607 -1.127104402
6.802805424 6.357048035 -0.8108716607
6.81274271 6.361886978 -0.4863068759
6.810398579 6.357467651 -0.1619216353
6.776290894 6.350022316 0.1613980532
6.767410755 6.337259769 0.4836900532
6.786725521 6.350908279 0.80947721
6.738550663 6.303616047 1.127835512
6.722489357 6.284198284 1.450824857
6.725399971 6.282522202 1.780692458
6.356390476 5.933653355 1.99756217
5.504855156 5.136957169 2.005899668
6.708476543 6.242633343 -2.44382143
6.757357121 6.283726215 -2.120385408
6.793936253 6.315525055 -1.794812441
6.820351124 6.33564949 -1.467719913
6.790346622 6.303357124 -1.132466555
6.851238251 6.357662201 -0.8140092492
6.867128849 6.367942333 -0.4886096418
6.858941078 6.358130455 -0.1625499129
6.834661007 6.357830048 0.1622357816
6.824588776 6.346245766 0.4862022102
6.835124969 6.35158968 0.8126147389
6.795064449 6.309945107 1.133441448
6.768998146 6.283539772 1.456143737
6.7904706 6.299060822 1.792140961
6.374200821 5.908783436 1.99666214
5.524170876 5.119021893 2.006417274
6.755764008 6.242779255 -2.453138828
6.806788445 6.287727356 -2.129383326
6.856331348 6.329058647 -1.805497646
6.873263359 6.342467308 -1.474602938
6.838941097 6.306371212 -1.137097597
6.899763584 6.358008385 -0.8171468377
6.926404476 6.380316257 -0.4913311005
6.91787672 6.368005276 -0.1634225398
6.88507843 6.362274647 0.1629338712
6.881917477 6.354901791 0.4887143075
6.883610249 6.352015018 0.815752387
6.848051071 6.316990376 1.13880384
6.825747967 6.292007446 1.463652611
6.837307453 6.300456524 1.799010158
6.390895367 5.884971619 1.995762348
5.532056332 5.090549469 2.002793789
6.804890633 6.246471405 -2.463491678
6.864598751 6.296860218 -2.14063096
6.909114838 6.335480213 -1.813893199
6.914295197 6.335783482 -1.478670239
6.901900768 6.320002079 -1.143922329
6.959022999 6.37006855 -0.8216789365
6.976629734 6.381717682 -0.493319869
6.972900391 6.376065254 -0.1642253548
6.933764458 6.362540245 0.1635621637
6.941222668 6.367146969 0.4914357662
6.936945915 6.358772278 0.8195872307
6.897871494 6.318525314 1.143434882
6.890279293 6.309360027 1.473038554
6.882431984 6.297759056 1.805116057
6.417152882 5.867886066 1.99756217
5.557461262 5.079998016 2.005899668
6.863776207 6.256514549 -2.476950169
6.911369324 6.297688961 -2.148729324
6.971834183 6.348332882 -1.824578524
6.979091167 6.352712631 -1.488056421
6.952192783 6.323792458 -1.148797035
7.028392792 6.388623714 -0.827256918
7.027318478 6.385407925 -0.4954133332
7.036565781 6.389327526 -0.1652026922
6.99029541 6.37184 0.1643998623
6.992935181 6.369778633 0.4935292006
6.997410297 6.369387627 0.8241193295
6.948152065 6.322333813 1.148309588
6.947340488 6.317163467 1.480547547
6.941052437 6.309233189 1.815038204
6.425034523 5.836092472 1.993962765
5.575158596 5.060569286 2.005899668
6.924581051 6.270026684 -2.491444111
6.976658344 6.312751293 -2.1622262
7.019054413 6.348885059 -1.831447601
7.030531406 6.354805946 -1.494313717
7.000741959 6.323435307 -1.153184414
7.083190918 6.393418789 -0.8310917616
7.083673 6.391611099 -0.4978208244
7.088530064 6.391506672 -0.1659007818
7.055490971 6.386315823 0.1654121131
7.038825035 6.36676836 0.4952040017
7.053963661 6.37821722 0.8283028007
7.012891293 6.336637974 1.155377984
6.992804527 6.314056396 1.485553384
7.000926971 6.319165707 1.824960232
6.428000927 5.797968388 1.988563895
5.599966049 5.047543526 2.00848794
6.980563641 6.27430582 -2.503349781
7.029094219 6.315709591 -2.171674013
7.074416637 6.351970673 -1.839843154
7.092005253 6.363293171 -1.50244832
7.064148426 6.336073399 -1.160009027
7.13216877 6.392592907 -0.8342294097
7.144242764 6.398919582 -0.5004375577
7.1435709 6.396071434 -0.1666686833
7.111945152 6.39239502 0.1662149131
7.105584621 6.382195473 0.4983440936
7.109911919 6.38160038 0.8321376443
7.07190752 6.34526062 1.161471486
7.041278362 6.313344002 1.491185069
7.064980507 6.330148697 1.835645556
6.44920969 5.774367809 1.988563895
5.594518185 5.007351398 2.000205517
7.024039745 6.269197941 -2.511114359
7.091460228 6.32492733 -2.18382144
7.130249023 6.357289314 -1.848620534
7.146619797 6.367409706 -1.509331465
7.124765396 6.345702171 -1.166346192
7.18569231 6.395476341 -0.8378899097
7.208324909 6.411106586 -0.5033684373
7.207697868 6.40830183 -0.1676460356
7.172628403 6.399569988 0.16708754
7.175515175 6.399897099 0.501693666
7.164865494 6.385909557 0.8359725475
7.147001266 6.365506649 1.170002341
7.107535362 6.328131676 1.500571132
7.116370678 6.331546783 1.843277812
6.46541214 5.750357628 1.987664223
5.611964226 4.987791061 2.000205517
7.063584328 6.26252985 -2.517843723
7.150321484 6.334974289 -2.19551897
7.193914413 6.371355534 -1.859687328
7.200240135 6.372475624 -1.51621449
7.181450367 6.353610992 -1.172196031
7.244179726 6.404602528 -0.8422477245
7.259476662 6.413619518 -0.5054618716
7.264882088 6.416131973 -0.1684837341
7.216257095 6.395645618 0.1676111072
7.229589462 6.405203819 0.5039964914
7.224786758 6.396454811 0.8405046463
7.182937145 6.354926109 1.172439694
7.169908047 6.341175079 1.509331465
7.160862446 6.328716278 1.849383712
6.490283966 5.734051228 1.989463806
5.625576019 4.966597557 1.999170423
7.101708412 6.254394531 -2.524055481
7.177140236 6.316380024 -2.197318554
7.257388592 6.382510185 -1.870372772
7.259904385 6.38247633 -1.524349093
7.239375114 6.359949112 -1.17804563
7.312909126 6.420022964 -0.847651422
7.30734539 6.410630226 -0.5072412491
7.326325893 6.425013065 -0.1693912596
7.271949291 6.402070999 0.1684139222
7.272898197 6.398396015 0.5054618716
7.287851334 6.409300327 0.8453853726
7.238268375 6.361209393 1.17804563
7.224654198 6.344783306 1.51621449
7.227178574 6.342533112 1.860832334
6.501471996 5.703649044 1.986764431
5.64723587 4.950752258 2.000723124
7.123132229 6.227050781 -2.523537874
7.156212807 6.251570225 -2.18382144
7.310314655 6.381688118 -1.878005147
7.318967819 6.3869977 -1.531857967
7.289569378 6.356855869 -1.182433009
7.372439384 6.424593925 -0.8518348932
7.372964859 6.420532227 -0.5101721287
7.383006573 6.427004337 -0.170159176
7.337527752 6.41221714 0.1693912596
7.332404613 6.403227806 0.507973969
7.347318649 6.413991451 0.8495688438
7.301921844 6.369872093 1.184626579
7.282107353 6.348117352 1.523410559
7.291826725 6.352107048 1.871517539
6.507635117 5.666984558 1.982265353
5.665344238 4.930019855 2.000723124
7.132773876 6.189507008 -2.518878937
7.152581692 6.202314854 -2.175723314
7.363697529 6.383137226 -1.886019111
7.384139061 6.396337986 -1.5406183
7.354842186 6.366474152 -1.189257622
7.430980682 6.430106163 -0.8560183048
7.440657139 6.433945179 -0.5133122206
7.441311359 6.429973602 -0.1709619761
7.406296253 6.424592018 0.1704384089
7.395061493 6.41032505 0.5106954575
7.40992403 6.42094326 0.854100883
7.37924242 6.389848709 1.193401217
7.336699009 6.348523617 1.529980779
7.35849905 6.365148544 1.882966161
6.528366089 5.643089771 1.982265353
5.677526474 4.904171467 1.998652816
7.129457951 6.14313221 -2.510079145
7.171229839 6.174770832 -2.174823284
7.430574417 6.395815372 -1.897467494
7.445354939 6.404020786 -1.548752904
7.422184944 6.379579067 -1.19656992
7.491156578 6.43659544 -0.8603761196
7.499439716 6.439157486 -0.5158243775
7.506206036 6.44041729 -0.1719393134
7.458978176 6.424803257 0.1711365134
7.465834141 6.426164627 0.5140449405
7.459476471 6.418431759 0.8572384715
7.433113098 6.391228199 1.198519707
7.405257702 6.362788677 1.539679766
7.40748167 6.362446785 1.889835119
6.545063496 5.617733955 1.981365561
5.682881355 4.874260426 1.994511724
7.149385929 6.116957188 -2.509561539
7.170524597 6.130704403 -2.168074846
7.491653919 6.403007984 -1.907389641
7.500711441 6.406214237 -1.555635929
7.488195419 6.391005516 -1.203638196
7.552988052 6.444026947 -0.8649082184
7.556043625 6.43751812 -0.172567606
7.513273716 6.426020145 0.1718695015
7.527690887 6.433808327 0.5167664289
7.524250507 6.428590298 0.8621191978
7.493115425 6.397471428 1.204613209
7.464992523 6.368950844 1.547501326
7.459519386 6.362032413 1.897467494
6.5646348 5.594851494 1.981365561
5.705743313 4.859405041 1.996582389
7.172168732 6.093213081 -2.510079145
7.188909054 6.103116035 -2.167175293
7.55287838 6.409845352 -1.917311668
7.559183598 6.410657883 -1.563144922
7.536205292 6.386643887 -1.207781792
7.557191849 6.402169704 -0.862816453
7.573174 6.41116333 -0.5178131461
7.59373045 6.424023151 -0.1729166508
7.570717812 6.429524899 0.1726723015
7.571423531 6.425583839 0.5182318091
7.57399416 6.425485134 0.865256846
7.533572674 6.386678696 1.207538128
7.524858475 6.374777794 1.555323124
7.532619953 6.379095554 1.91044271
6.572223186 5.561833382 1.977766395
5.72414732 4.840704918 1.997099757
7.219974995 6.090559483 -2.519396544
7.242949963 6.105615139 -2.177073002
7.61123991 6.413802147 -1.926470518
7.623824596 6.419857025 -1.571905136
7.594904423 6.390974998 -1.213631511
7.614563942 6.405248165 -0.8668256998
7.627611637 6.411678791 -0.5200112462
7.628359318 6.407764912 -0.1731958836
7.594639301 6.404353142 0.1727072299
7.586172104 6.392677784 0.5177084208
7.600948334 6.402861118 0.8657798171
7.546710968 6.35267067 1.206075668
7.528926373 6.333210945 1.551568627
7.593911171 6.385612488 1.920364738
6.588614941 5.53634882 1.976866603
5.742487907 4.821937561 1.997617364
7.276733398 6.095093727 -2.53181982
7.295600891 6.10656023 -2.186520815
7.669718266 6.417433262 -1.935629487
7.694684029 6.433751106 -1.581917048
7.688762665 6.424248219 -1.225087285
7.668989658 6.405448914 -0.8704861999
7.680612564 6.410612583 -0.5221046805
7.71978426 6.438737392 -0.174766615
7.652213573 6.407329082 0.1735100299
7.648264885 6.399482727 0.5204299092
7.658400059 6.405691624 0.8697889447
7.611485958 6.361936569 1.212900281
7.597988129 6.346145153 1.561267614
7.655335426 6.391782761 1.930286884
6.601916313 5.508320808 1.975067019
5.753348351 4.796916485 1.995546937
7.302422047 6.073359966 -2.533372879
7.358835697 6.115934372 -2.199118376
7.731336594 6.423239231 -1.945551515
7.756610394 6.43966198 -1.590051651
7.796697617 6.468347073 -1.238736629
7.700502872 6.386272907 -0.8715320826
7.804439068 6.467874527 -0.5290130377
7.816549778 6.475610256 -0.1764769405
7.756027699 6.448336124 0.1753599793
7.755465031 6.44557333 0.5262915492
7.766544819 6.450205803 0.8795503974
7.728355885 6.413926601 1.228012085
7.701085567 6.389024734 1.578162551
7.719921112 6.400103569 1.94097209
6.627105236 5.490216732 1.976866603
5.760297775 4.77041626 1.992441058
7.334003448 6.056444645 -2.536996365
7.422656536 6.127476215 -2.212165356
7.788541317 6.424948215 -1.954328656
7.811449528 6.4415555 -1.596934795
7.854869843 6.472755909 -1.244586349
7.724285126 6.360622406 -0.8717063665
7.768787861 6.394994259 -0.5251401663
7.883891106 6.485127449 -0.1774891764
7.834420681 6.469691277 0.1766514629
7.841074467 6.470583916 0.5305830836
7.844351768 6.468687534 0.8858255744
7.809319973 6.43750906 1.237517953
7.781277657 6.409832954 1.590051651
7.783535957 6.409413338 1.951657295
6.645273685 5.468211651 1.976866603
5.776916027 4.750278473 1.992441058
7.357033253 6.034542561 -2.538031578
7.752967834 6.354773521 -2.304395199
7.794617653 6.386643887 -1.950512528
7.817076206 6.400480747 -1.593493223
7.854372978 6.426440716 -1.240930319
7.831700802 6.405608654 -0.8814677596
7.876119614 6.43735218 -0.5308971405
7.906903744 6.460211277 -0.1775240898
7.890977383 6.470196247 0.1774193645
7.896473408 6.472398281 0.5328859091
7.876551151 6.45147419 0.8870457411
7.856320858 6.430329323 1.241417766
7.837656021 6.412762642 1.597247601
7.833219051 6.404574871 1.958526492
6.655268669 5.437582493 1.974167228
5.795626163 4.733543396 1.99347651
7.3855443 6.014923096 -2.54061985
7.763418674 6.320418358 -2.301245928
7.792498112 6.339570999 -1.944406629
7.829061985 6.367046356 -1.591616035
7.857152939 6.385336876 -1.2380054
7.880365372 6.397353172 -0.5297457576
7.907662868 6.414935589 -0.1770354062
7.898434639 6.432630062 0.1771052331
7.889584064 6.420843601 0.5308971405
7.891293049 6.417656422 0.886174202
7.843715668 6.376689434 1.236055493
7.836993217 6.366683006 1.592554569
7.843747616 6.369897842 1.95585525
6.664185524 5.408112526 1.971467733
5.821118355 4.720583439 1.996582389
7.412961006 5.996470928 -2.543207884
7.7702775 6.281031132 -2.296746969
7.795155525 6.298886299 -1.939827085
7.838942051 6.329752445 -1.589113116
7.867036343 6.347896099 -1.236055493
7.877781391 6.352027893 -0.8816421628
7.888655186 6.358524323 -0.5288037062
7.898861408 6.362204075 -0.1763373166
7.903734684 6.391191006 0.1767212749
7.89641571 6.380709648 0.5298504233
7.893934727 6.37642765 0.8840824962
7.847393036 6.334308147 1.233130693
7.833030224 6.318206787 1.587235808
7.861351013 6.338779926 1.954710245
6.68605423 5.38726759 1.972367525
5.818000317 4.684483051 1.989853024
7.434887886 5.9692626 -2.543207884
7.778478146 6.242889404 -2.292697906
7.805936337 6.260447979 -1.936774254
7.831260204 6.276274204 -1.582855701
7.8767519 6.310469627 -1.234105587
7.86724472 6.298339367 -0.8779815435
7.899428368 6.319587708 -0.5279663205
7.905405998 6.32210207 -0.1759882718
7.910404682 6.351041794 0.1763722301
7.903057575 6.340614319 0.5288037062
7.895487785 6.330005646 0.8816421628
7.866353035 6.304399014 1.232643127
7.781028748 6.231551647 1.57221806
7.858472347 6.289072514 1.948222876
6.705758572 5.362720966 1.972367525
5.829789639 4.66052866 1.988300085
7.473807812 5.95772171 -2.549419641
7.795209408 6.209483147 -2.290898323
7.829278469 6.234382629 -1.937155843
7.843847275 6.241517067 -1.580978513
7.887396336 6.271675587 -1.232155681
7.890737534 6.272084713 -0.8781558871
7.902671814 6.277070522 -0.5267102718
7.922723293 6.290742874 -0.1758835465
7.896093845 6.292098522 0.1755345166
7.912646294 6.303030968 0.5279663205
7.901946068 6.289999962 0.879899025
7.869215965 6.259454727 1.229474545
7.753255844 6.165013313 1.562206388
7.852711201 6.239616394 1.941353679
6.730537891 5.344132423 1.974167228
5.841483593 4.636545658 1.986747146
7.533940315 5.9627738 -2.562878132
7.843267918 6.205360413 -2.298996449
7.907971859 6.252072811 -1.951275706
7.914097309 6.254664421 -1.590990305
7.948653221 6.277475357 -1.238492846
7.956377506 6.279060841 -0.8830366135
7.962643147 6.281756878 -0.529327035
7.971333027 6.28409338 -0.1764769405
7.926323414 6.273327827 0.1757439375
7.923635483 6.266697407 0.5272336006
7.908223629 6.250022411 0.8781558871
7.871236801 6.218559742 1.226549745
7.756124496 6.123220921 1.558451891
7.857946396 6.201380253 1.937537432
6.739043236 5.31454134 1.971467733
5.856112003 4.614935398 1.986229539
7.711627483 6.061918736 -2.61671257
7.872545719 6.183961868 -2.301245928
7.910133362 6.211262226 -1.946696281
7.938992023 6.229437828 -1.591616035
7.967394829 6.247239113 -1.2380054
8.000202179 6.268455505 -0.8854770064
8.000247002 6.266237736 -0.5303737521
8.023138046 6.279649734 -0.1771401316
8.009495735 6.293804646 0.1771052331
7.980019569 6.26613903 0.5295364261
7.916367054 6.213923931 0.8767613769
7.875712872 6.177571297 1.223868608
7.765016079 6.086359501 1.555948973
7.796094418 6.108529091 1.916930079
6.75141716 5.286178112 1.96966815
5.884358883 4.603987217 1.990370631
7.742931366 6.040745735 -2.619818449
7.912519455 6.170830727 -2.306644917
7.954527378 6.199121475 -1.952038884
7.982029438 6.216078281 -1.595683217
8.01108551 6.236459255 -1.241417766
8.026753426 6.244158745 -0.8859998584
8.04365921 6.252810001 -0.5317345262
8.046588898 6.252829552 -0.1771750301
8.023531914 6.259659767 0.1769306958
8.019172668 6.251750946 0.5306877494
7.920227051 6.170175552 0.8746696115
7.887833118 6.14272213 1.222406149
7.75658989 6.03617239 1.550004482
7.857176781 6.110041142 1.926470518
6.770744801 5.261398792 1.96966815
5.886664391 4.572751045 1.985711813
7.719680309 5.979372025 -2.6048069
7.958200455 6.159677505 -2.313393354
8.002513885 6.191743374 -1.958526492
8.017743111 6.199053764 -1.59849906
8.061076164 6.230309963 -1.245805144
8.059539795 6.224625111 -0.8872200847
8.090735435 6.244216442 -0.5334092379
8.092118263 6.243023872 -0.1776985973
8.070138931 6.248570919 0.177454263
8.064637184 6.242059708 0.5322579145
7.916501999 6.12298584 0.8718807101
7.894586086 6.101632118 1.219968677
7.766671181 6.000603676 1.547814369
7.876902103 6.081378937 1.926088929
6.791239738 5.241300106 1.970567822
5.896470547 4.547457218 1.983641267
7.770089626 5.97729969 -2.61515975
7.989396572 6.141568661 -2.316542625
8.024557114 6.166369438 -1.958908081
8.049221039 6.180855274 -1.600689173
8.099012375 6.216841221 -1.248486161
8.095942497 6.209995747 -0.8889632225
8.122495651 6.22585535 -0.5341419578
8.131819725 6.230755329 -0.178117469
8.106669426 6.23396349 0.1778033227
8.091623306 6.220151901 0.532676518
7.924125195 6.086988449 0.8704861999
7.884857655 6.052455425 1.215337753
7.828843117 6.00728178 1.556261778
7.876773357 6.039693356 1.921127915
6.817864418 5.225861549 1.973267317
5.911519051 4.527877331 1.983641267
5.307610989 4.055040359 -1.778138876
7.994232178 6.103214264 -2.312043667
8.034038544 6.131385326 -1.956236839
8.058680534 6.145741463 -1.59849906
8.090665817 6.165669441 -1.243855119
8.10647583 6.173246384 -0.8877430558
8.11607933 6.178321838 -0.5323625803
8.140788078 6.192644596 -0.1778382212
8.127296448 6.207048416 0.1778033227
8.086297989 6.171268463 0.5308971405
7.928424358 6.048593998 0.868743062
7.889099598 6.014238358 1.212900281
7.885904312 6.007450581 1.563457727
7.884262085 6.004025936 1.918075085
6.839165688 5.20439291 1.974167228
5.925750256 4.506046772 1.98312366
5.33629179 4.046066284 -1.782797694
5.36753273 4.068278313 -1.544960499
5.392769337 4.084443569 -1.306722879
5.425512314 4.106259346 -1.071002007
5.438335419 4.114476204 -0.8321805
8.146399498 6.152136803 -0.1774891764
8.142538071 6.173809052 0.1776636988
8.077545166 6.120085716 0.5289083719
7.937831879 6.009875298 0.8673486114
7.897384167 5.977077484 1.210950494
7.886345863 5.964395046 1.559390426
7.89994812 5.970354557 1.916548491
6.844200134 5.168719769 1.970117927
5.944525242 4.487663746 1.984158874
7.756628513 5.838674068 -2.589795351
8.066128731 6.060625076 -1.59130311
8.098068237 6.080203056 -1.238249183
5.456374168 4.095273495 -0.5931566358
5.472574234 4.104446888 -0.3563043475
8.152327538 6.134307861 0.1773844659
8.082360268 6.077236176 0.527756989
7.942836285 5.970157146 0.8656055331
7.906538963 5.938556194 1.209000587
7.887613773 5.920036793 1.555323124
7.903467655 5.92977953 1.912350655
6.937041283 5.200910568 1.991713524
5.945473671 4.454261303 1.978982449
7.804815769 5.832379818 -2.599112988
8.077735901 6.025343418 -1.589425921
8.101734161 6.038850307 -1.235568047
8.108369827 6.04158926 -0.8809449077
8.139743805 6.060554981 -0.5296410918
8.130853653 6.049519539 -0.1761977077
5.496277332 4.102772713 0.3572463989
7.93807745 5.923332214 0.862816453
7.914487362 5.901429653 1.207050562
7.874968052 5.86768055 1.548752904
7.903651237 5.886907578 1.907389641
5.951684475 4.426564217 1.975876808
5.460484505 4.046448231 -1.312828779
8.07807827 5.981833935 -1.58535862
8.114787102 6.004627228 -1.234349251
8.127803802 6.012069702 -0.8807705641
8.141576767 6.017856121 -0.5283849835
8.157298088 6.027281761 -0.1763373166
8.13874054 6.035549641 0.1761627942
8.101075172 6.005433559 0.5262915492
7.949100971 5.888469219 0.8617706299
7.919085503 5.861954212 1.204613209
7.899145126 5.845060349 1.549691558
7.892578602 5.835939407 1.899757266
5.966331959 4.406802177 1.975876808
5.250711441 3.866914272 -1.73569262
5.56662178 4.098073483 -1.585901618
8.078774452 5.94096756 -1.581604123
8.115461349 5.963576317 -1.23142457
8.134287834 5.973045826 -0.8792017102
8.142168999 5.976640701 -0.5271289349
8.167002678 5.990489483 -0.1760929823
8.150659561 6.002596378 0.1759882718
8.105902672 5.965277672 0.525244832
7.953555107 5.848883629 0.8600275517
7.917686939 5.820377827 1.201444626
7.908354282 5.809266567 1.547501326
7.899228573 5.800440788 1.896704316
7.002797127 5.138425827 1.995312691
5.984795094 4.388231277 1.976912022
5.291573524 3.870009661 -1.745010138
5.57460022 4.074016571 -1.584101915
8.096274376 5.910399437 -1.580978513
8.120186806 5.923518658 -1.228987098
8.134735107 5.931950569 -0.877110064
8.14360714 5.934072971 -0.5258728862
8.163617134 5.944286823 -0.1755694151
8.165102005 5.969393253 0.175848648
8.142806053 5.948726654 0.5262915492
7.963252068 5.81542778 0.8589816689
7.918715 5.778660774 1.198519707
7.904644489 5.764165401 1.542808414
7.909909725 5.765890598 1.894414663
7.11362648 5.181642056 2.021856785
6.000073433 4.367318153 1.976912022
5.355074406 3.887835026 -1.761574626
8.035273552 5.829409122 -2.281900167
8.071779251 5.853736877 -1.929905057
8.096063614 5.867031574 -1.576911211
8.123129845 5.88232851 -1.226305962
8.142481804 5.894170284 -0.8757154942
8.156182289 5.899755955 -0.5253495574
8.158385277 5.897013187 -0.1750109494
8.166469574 5.926757812 0.1754297912
8.165137291 5.921440601 0.526396215
7.964147568 5.773561001 0.8568899035
7.929191113 5.743998528 1.197057247
7.903916836 5.721478462 1.538741112
7.91408205 5.726737499 1.890598536
7.093771458 5.129373074 2.011059046
6.002755642 4.337294102 1.972770929
5.368614197 3.869117498 -1.761574626
8.049249649 5.796767712 -2.280100584
8.071452141 5.810612202 -1.924944043
8.09885025 5.826051235 -1.57346952
8.130717278 5.844670296 -1.224356055
8.140350342 5.849439621 -0.8732751608
8.160504341 5.85959816 -0.5243027806
8.169173241 5.861502171 -0.1748015136
8.164392471 5.881853104 0.1749411225
8.169548988 5.881232262 0.5253495574
7.958375454 5.727106094 0.854100883
7.936301231 5.707012177 1.19510746
7.907795429 5.682332039 1.535612464
7.918079853 5.687621117 1.886782289
7.111629486 5.104584694 2.011059046
6.01472044 4.314060688 1.971735597
5.38208437 3.850357533 -1.761574626
8.096633911 5.781672955 -1.569089413
8.141375542 5.809332371 -1.222893596
8.144500732 5.809417725 -0.8715320826
8.161390305 5.817168236 -0.5230467319
8.170036316 5.819031239 -0.1743826568
8.168610573 5.841684818 0.1745920777
8.180274963 5.845717907 0.5247215033
7.968593121 5.692340851 0.8530550599
7.933552742 5.66312933 1.191695094
7.921151161 5.650104046 1.534360886
7.915504932 5.643992424 1.881439567
6.018725872 4.285197258 1.968112111
5.37029171 3.813649178 -1.753292322
8.038665771 5.704343319 -2.265703678
5.655432224 4.011685848 -1.339542031
8.103872299 5.744237423 -1.566586494
8.13892746 5.764812946 -1.21948123
8.151719093 5.771743298 -0.8701375127
8.165343285 5.777105808 -0.5220000148
8.184389114 5.788444042 -0.1742779315
8.175909042 5.803873062 0.1743128449
8.178442001 5.803530216 0.5233607888
7.981914997 5.659879208 0.8523578048
7.930596352 5.619336128 1.188282728
7.928561211 5.615810394 1.532170892
7.931952 5.614060879 1.880676389
7.016629219 4.962541103 1.974167228
6.043944359 4.273023129 1.971735597
5.34251833 3.765939713 -1.739833713
8.041609764 5.666428089 -2.26120472
5.354773998 3.770383358 -1.264744997
8.113185883 5.710508347 -1.564709306
8.14176178 5.726373672 -1.217043996
8.16040802 5.735231876 -0.868917346
8.163209915 5.73507309 -0.5206393003
8.196364403 5.75409317 -0.174103424
8.188570976 5.772121429 0.174173221
8.179058075 5.761143208 0.5221046805
7.988587856 5.622809887 0.8509633541
7.939447403 5.586150646 1.186820269
7.933571815 5.577877522 1.529355049
7.937676907 5.57869339 1.877623558
7.08567524 4.976202965 1.98901403
6.058824062 4.251897812 1.971735597
5.33598423 3.73491025 -1.733622074
7.058485508 4.936901093 -1.978666186
5.309322357 3.712108374 -1.251006722
8.15518856 5.693374634 -1.216068983
8.165673256 5.696450233 -0.8673486114
8.181539536 5.705402374 -0.5205346346
8.190150261 5.70715332 -0.1735449284
8.195560455 5.734333515 0.1738939881
8.186020851 5.723403931 0.5212673545
7.984326363 5.580310822 0.8485229611
7.952389717 5.553853989 1.185845375
7.912494183 5.521888733 1.52153337
7.947442055 5.544209957 1.875333786
6.060946941 4.22189045 1.967594504
5.355985165 3.719733953 -1.73569262
7.07087326 4.908900738 -1.977316499
7.122946739 4.937681675 -1.366037369
8.161960602 5.655825615 -1.214119077
8.154383659 5.646363258 -0.8640366793
8.197469711 5.671965599 -0.5202205777
8.200153351 5.6717062 -0.1733354926
8.1925354 5.689718723 0.1734053195
8.196106911 5.687960148 0.5206393003
7.985076904 5.537385941 0.8464311957
7.957043648 5.515883923 1.183651686
7.921976566 5.48748827 1.519656062
7.948337555 5.501637459 1.870754361
6.072470188 4.198508739 1.966559172
7.917013645 5.45750618 -2.564948797
8.061358452 5.552858353 -2.249957085
5.759403229 3.965734482 -1.350990534
8.163004875 5.612378597 -1.211194158
8.167474747 5.613352776 -0.8633394837
8.194168091 5.627488136 -0.5187551975
8.219902992 5.643045425 -0.1733354926
8.193572998 5.646039486 0.1729864627
8.212619781 5.657051086 0.5204299092
7.997793674 5.504958153 0.8457339406
7.960849762 5.475435257 1.181214333
7.949223995 5.465395927 1.521220446
7.938364029 5.453849792 1.863885164
7.067563534 4.85195303 1.969218254
6.083901882 4.175101757 1.965523839
7.95196104 5.440743923 -2.570125103
8.063644409 5.515091419 -2.245458126
8.133207321 5.558503151 -1.906626463
8.13503933 5.557672977 -1.55375886
8.165177345 5.574083328 -1.208756685
8.177143097 5.578073978 -0.862293601
8.227978706 5.606441498 -0.1730911732
8.208950996 5.616577148 0.1729166508
8.200989723 5.606934071 0.5184412003
8.008735657 5.471385479 0.8448623419
7.956012249 5.433334827 1.177801967
7.947043896 5.423137188 1.517153144
7.943430901 5.418646336 1.860832334
7.054628849 4.808733463 1.96111989
6.104826927 4.158187866 1.967594504
7.969958305 5.414345741 -2.570125103
8.074783325 5.481440067 -2.243208647
8.114230156 5.506148815 -1.897849321
8.136404037 5.517048836 -1.550317287
8.161577225 5.529960155 -1.205344439
8.185699463 5.544220448 -0.8612477183
10.90191746 7.3783741 -0.6876956224
8.197375298 5.562569618 0.5169757605
8.008698463 5.432496548 0.8429449797
7.966715336 5.399958611 1.176583171
7.952839851 5.386503696 1.514650226
7.952544212 5.384279251 1.858542562
7.063299656 4.778620243 1.958870411
6.120905876 4.137933254 1.968112111
7.992012501 5.388654232 -2.571160555
8.074475288 5.440151691 -2.237809896
8.104088783 5.458052635 -1.890980124
8.142502785 5.47978878 -1.547814369
8.152826309 5.482607841 -1.201200962
8.188468933 5.504496098 -0.8595045805
8.196969032 5.506062508 -0.5153010488
8.195527077 5.500937939 -0.1715902686
11.73518085 7.909526348 0.2463214695
8.205144882 5.52611351 0.5162430406
8.011083603 5.393382549 0.8412018418
7.973987579 5.364357948 1.174877048
7.950283051 5.344381809 1.510582924
7.961514473 5.349915028 1.856252789
7.122003555 4.782178879 1.970567822
6.128892899 4.112240791 1.966041565
8.007563591 5.358573437 -2.570125103
8.080452919 5.403273106 -2.23421073
8.145151138 5.440366745 -1.544685602
8.159406662 5.447823524 -1.19949472
8.184426308 5.460404873 -0.8570641875
8.211154938 5.474090576 -0.5149870515
8.207068443 5.469291687 -0.1714506447
8.197507858 5.48361063 0.1714506447
8.21346283 5.49221468 0.5156149864
8.006669998 5.349886894 0.8387615085
7.984408855 5.330981731 1.17365849
7.95152998 5.307023525 1.507454157
7.960539341 5.309020996 1.851673365
7.113499165 4.742321968 1.963819385
6.132850647 4.085466385 1.962935805
8.028506279 5.33412981 -2.571160555
8.082092285 5.365666866 -2.229711533
8.116516113 5.386479378 -1.885255933
8.138454437 5.396947861 -1.539992571
8.199167252 5.43103075 -0.8567156196
8.219270706 5.440215111 -0.5143589973
8.218484879 5.437638283 -0.1713110358
8.203988075 5.448649883 0.1712063104
8.226639748 5.461630821 0.5153010488
8.014407158 5.31669569 0.8377156258
7.978877544 5.289121628 1.170246005
7.969086647 5.280623436 1.507454157
7.958456993 5.269588947 1.84709394
7.114562988 4.709024906 1.959770322
6.154420376 4.070436001 1.965523839
7.834899426 5.168126106 -2.503349781
7.88018322 5.194055557 -2.168974638
7.936879635 5.227447033 -1.839079976
7.989000797 5.255780697 -1.169027448
8.008303642 5.264474869 -0.8347523808
8.052911758 5.289780617 -0.5027403831
8.058560371 5.291472912 -0.1675762087
8.217001915 5.418114185 0.1711015999
8.225642204 5.419692993 0.5140449405
8.025337219 5.285707951 0.8370184302
7.974817276 5.24844408 1.167077422
7.975914001 5.245182037 1.505264163
7.966959476 5.235305309 1.844804168
7.117924213 4.675607681 1.956171155
6.1702075 4.049986839 1.966041565
7.845705032 5.134087563 -2.500761747
7.887753963 5.157666683 -2.165825367
7.932975292 5.183289528 -1.833737373
7.15384531 4.672431469 -1.346639633
7.976624012 5.205852509 -1.164396405
8.014191628 5.226382256 -0.833357811
8.018703461 5.22533083 -0.4993908703
8.047739983 5.242257118 -0.1669479311
8.041007996 5.259886265 0.167017743
8.038146019 5.254008293 0.5010656118
8.027976036 5.245361328 0.8352752924
7.984026909 5.212670326 1.165615082
7.973580837 5.20187664 1.501196861
7.979515076 5.20178318 1.843277812
7.118689537 4.63884306 1.951672077
6.194722652 4.033671379 1.969147444
7.848264694 5.094779968 -2.495585203
7.900064468 5.124482155 -2.164025784
7.94113493 5.149159431 -1.831447601
7.162632465 4.640810966 -1.34507525
8.018442154 5.18538332 -0.4982394278
8.028270721 5.187761307 -0.1661451161
8.041779518 5.218407154 0.1666337848
8.028859138 5.206041336 0.4992862046
8.027083397 5.202899933 0.833183527
7.993083477 5.176895618 1.164152622
7.959424973 5.151153564 1.494939446
7.987735271 5.167497635 1.840988159
7.138916016 4.614838123 1.95257175
6.20622015 4.008841038 1.968112111
7.844890118 5.053750515 -2.488855839
7.90970993 5.091601849 -2.161776304
7.937599182 5.107595444 -1.826486588
7.162171841 4.605098248 -1.341946602
7.586126804 4.873949051 -1.101999283
7.577730179 4.866686344 -0.7842019796
8.031452179 5.154123783 -0.4979254901
8.046497345 5.181640625 0.166354537
8.041945457 5.174739361 0.4989721477
8.025089264 5.161912441 0.8310917616
8.004424095 5.14467144 1.163177609
7.962397099 5.113732815 1.492123723
7.992506027 5.131100655 1.837935209
7.15826273 4.591992855 1.95347178
6.207164288 3.978814363 1.963971138
7.784356594 4.976387978 -2.464009285
7.865027905 5.024098396 -2.144680023
7.153223038 4.564133167 -1.337253451
7.597227097 4.845561028 -1.101267934
7.592993259 4.839132786 -0.7840276957
8.024124146 5.109966755 -0.4963553548
8.022911072 5.107221603 -0.1653073877
8.039258957 5.13737154 0.1658309698
8.047278404 5.140518188 0.4982394278
8.032979965 5.127437592 0.8300458789
8.007271767 5.107090473 1.160984039
7.972646713 5.083054066 1.490872145
7.980566025 5.084180832 1.831066012
7.180022717 4.572421551 1.955271244
6.230104446 3.96442914 1.967076778
7.810601234 4.956759453 -2.467115164
7.876708984 4.994856834 -2.143330336
7.161645412 4.536157131 -1.336002111
7.583064079 4.801228523 -1.096880794
7.607314587 4.81286335 -0.7838533521
8.014015198 5.066251755 -0.4946806133
8.036421776 5.078454018 -0.1652375907
8.035989761 5.097827435 0.1654121131
8.040667534 5.098827839 0.4967740476
8.031428337 5.089039326 0.8281285167
7.995650768 5.062458515 1.156840444
7.97276926 5.046021938 1.487743378
7.99074316 5.053492069 1.829539537
7.181969643 4.540254116 1.951672077
6.249749184 3.947876453 1.969147444
7.866224289 4.955546379 -2.479538441
7.919615269 4.985320568 -2.150528669
5.503056526 3.462776423 -1.255586028
7.169960022 4.50817585 -1.334750533
7.591371536 4.769450188 -1.095661998
7.618172646 4.78442955 -0.7833305001
8.027386665 5.037526608 -0.4944712818
8.040548325 5.041870117 -0.1649583578
8.047772408 5.067955971 0.1653073877
8.041514397 5.060091019 0.4957273602
8.055005074 5.066622257 0.8288257122
8.005672455 5.031688213 1.155865431
7.993681908 5.020259857 1.488369226
7.997481823 5.020700455 1.827249765
7.184568882 4.506870747 1.94807291
6.266764164 3.928089857 1.970182657
7.86709404 4.917815208 -2.474362135
7.930356979 4.953517914 -2.148729324
5.515109539 3.44354701 -1.255586028
7.178946018 4.478942871 -1.333498955
7.609660149 4.743971348 -1.095905781
7.658498764 4.772562027 -0.7857708335
8.038141251 5.005249977 -0.4940525889
8.032629967 4.997928143 -0.1644347906
8.063719749 5.038771152 0.1652724892
8.048962593 5.025644302 0.4950993359
8.050670624 5.024757862 0.8265596628
8.018134117 5.000562668 1.15513432
7.984332085 4.975612164 1.483363271
8.008292198 4.988603592 1.82572341
7.196947098 4.479706287 1.94717288
6.268955708 3.899046659 1.966559172
7.864513397 4.878102303 -2.468150377
7.932693481 4.916564465 -2.144680023
5.502063751 3.408763885 -1.249861836
7.174383163 4.441377163 -1.329744697
8.06235981 4.981362343 -0.4944712818
8.056834221 4.974058151 -0.1645743996
8.060863495 4.9979496 0.1648536325
8.063061714 4.995411873 0.4948899448
8.044445992 4.981940746 0.8241193295
8.022037506 4.964185238 1.153184414
7.993249893 4.942518234 1.481799006
8.005619049 4.948230267 1.821143985
7.215855598 4.456606388 1.94807291
6.279240608 3.875109434 1.965523839
7.868328571 4.842525482 -2.464009285
7.926568508 4.874550343 -2.138381481
5.525634766 3.396738052 -1.252533197
7.169645309 4.403898239 -1.3259902
8.004649162 4.912945747 -1.148065925
8.031279564 4.927360535 -0.8206331134
8.043942451 4.931265831 -0.4922731817
8.050271034 4.931285858 -0.1640857309
8.05441761 4.95511055 0.1643649638
8.068535805 4.959919453 0.4941572547
8.051603317 4.947569847 0.8230734468
8.020705223 4.924732208 1.150503159
8.003720284 4.910452366 1.480547547
7.999408722 4.905890942 1.815801382
7.23469305 4.433425903 1.948972583
6.29931879 3.857203722 1.967594504
7.886833191 4.816034317 -2.464526892
7.921908855 4.833658218 -2.132532597
5.539134502 3.378449917 -1.252914786
7.178225994 4.374733925 -1.324738741
8.045487404 4.899426937 -1.151478171
7.942914009 4.835067749 -0.8098258376
8.040631294 4.89070034 -0.491017133
8.067437172 4.903152943 -0.1640857309
8.058012009 4.918627262 0.1640857309
8.049993515 4.909882545 0.4919591546
8.062022209 4.915284157 0.8223762512
8.01411438 4.88224411 1.147090912
8.008999825 4.875295639 1.478357434
8.009777069 4.873853683 1.814274788
7.236802578 4.400047302 1.945373416
6.3061409 3.831177711 1.965523839
5.441725254 3.296926975 -1.693246245
5.547535419 3.357059956 -1.252151489
7.188383579 4.346582413 -1.323800206
8.008167267 4.838468075 -1.143678546
8.031373978 4.850571156 -0.8171468377
8.049099922 4.857448578 -0.4904937446
8.063954353 4.862569332 -0.1636668742
8.061445236 4.882188797 0.1638064981
8.053415298 4.873478889 0.491121769
8.068898201 4.880930424 0.8213303685
8.027710915 4.852184296 1.146603465
8.010751724 4.838116169 1.475541472
8.023381233 4.843833447 1.81351161
7.245443821 4.370730877 1.943573713
6.317819118 3.808148861 1.965006351
5.430020809 3.263976336 -1.685999393
5.568213463 3.344401836 -1.489622593
5.55585289 3.335654974 -1.251388311
7.188262939 4.312322617 -1.320984244
8.016495705 4.805379868 -1.142459869
7.90298748 4.735459328 -0.8023303747
8.064294815 4.828294754 -0.4903890789
8.058569908 4.821046829 -0.163213104
8.078439713 4.854016781 0.1638064981
8.060101509 4.839170456 0.4904937446
8.068803787 4.842479706 0.8195872307
8.036087036 4.819029808 1.145384669
8.010647774 4.799969196 1.472412944
8.026765823 4.807728767 1.810458779
7.260657787 4.345411301 1.943573713
6.317810535 3.778138876 1.960865259
5.33519268 3.181674004 -1.652870536
5.613335609 3.344894171 -1.498620629
5.592763901 3.331310034 -1.257112503
7.193088055 4.281140804 -1.319107056
8.036632538 4.779398441 -1.142947316
7.902339935 4.697668552 -0.8005872965
8.063926697 4.789916992 -0.4893423319
8.065032005 4.786761761 -0.1630036682
8.071285248 4.811454773 0.1633178294
8.06321907 4.802827835 0.4896563888
8.068538666 4.804093838 0.8178441525
8.037506104 4.781812668 1.143191099
8.006975174 4.759870529 1.468658447
8.026621819 4.769649029 1.806642413
7.280806065 4.323030472 1.94492352
6.316008091 3.747189283 1.956206441
5.32298708 3.149263144 -1.645623565
5.601492405 3.311394215 -1.492321849
7.184175968 4.241943359 -1.31472683
8.041298866 4.744253159 -1.141241074
7.911826134 4.666004658 -0.7998900414
8.063391685 4.751598358 -0.4882956445
8.076521873 4.755538464 -0.1628989726
8.063936234 4.768998623 0.1628291607
8.071336746 4.769573689 0.4891330004
8.071537018 4.767791271 0.8164496422
8.042181015 4.746665955 1.141484857
8.013333321 4.725868225 1.466781259
8.026309013 4.731633663 1.802826405
7.294173241 4.296597958 1.944473743
6.329048634 3.725121021 1.956206441
5.42391634 3.183467388 -1.673576117
5.574353218 3.269148111 -1.481974125
8.007359505 4.69413662 -1.795957208
7.192120552 4.212848663 -1.31347549
8.033826828 4.702114582 -1.137828827
7.924625397 4.636348724 -0.7995414138
8.06268692 4.713340759 -0.4872488976
8.086164474 4.723284245 -0.1627593488
8.073635101 4.736771107 0.1626895368
8.06208992 4.726221085 0.4875629544
8.084692955 4.737570763 0.816100955
8.033003807 4.703520775 1.137828827
8.026369095 4.695874691 1.466155529
8.037691116 4.70061636 1.801681399
7.302395821 4.267179012 1.942674041
6.348687172 3.706900597 1.958276987
5.441673279 3.168404102 -1.675646544
5.621105194 3.270247936 -1.491422176
7.160668373 4.160919189 -1.305028081
8.036457062 4.666070461 -1.135878921
7.930422783 4.602655411 -0.7984955311
8.072178841 4.68116188 -0.4868302345
8.084485054 4.686412811 -0.162410304
8.083206177 4.704537868 0.1625499129
8.062182426 4.690418243 0.4866208732
8.087400436 4.701312065 0.8147065043
8.045942307 4.673455238 1.13734138
8.021398544 4.657327652 1.462401032
8.043863297 4.666616917 1.799391747
7.313876152 4.239706516 1.941774249
6.357601643 3.683891296 1.957241774
5.449354649 3.147455931 -1.67461133
7.085442066 4.085838795 -1.288758874
8.051885605 4.639396667 -1.135878921
7.936082363 4.56897831 -0.7974496484
8.072076797 4.645403385 -0.4858881533
8.069590569 4.640218735 -0.1617820114
8.086640358 4.670708179 0.1623055786
8.075045586 4.660253048 0.4864115417
8.09513092 4.668078423 0.8138349056
8.05279541 4.641793251 1.136122584
8.018776894 4.618455887 1.45895946
8.045683861 4.632078171 1.796338797
7.331272602 4.217374325 1.942674041
6.363721371 3.6578269 1.955171108
5.483228207 3.142816067 -1.681858301
8.000555038 4.581965446 -2.118585587
7.298779488 4.178358078 -1.626518726
7.07908392 4.049313068 -1.285004377
7.933887959 4.532758713 -0.7957066298
8.074368477 4.609274864 -0.4850507975
8.085738182 4.612024307 -0.1617820114
8.087280273 4.63350296 0.1619914472
8.089530945 4.63104248 0.4863068759
8.089816093 4.629331589 0.8117432594
8.063780785 4.610697269 1.135391474
8.024558067 4.584559917 1.457082391
8.0515728 4.598125458 1.794049025
7.347640991 4.192725182 1.943123817
6.364704609 3.628891468 1.951547742
5.584852219 3.17521739 -1.709810734
5.756146431 3.26994729 -1.518416286
7.333806038 4.164490223 -1.631098151
7.069123268 4.010928154 -1.28062427
7.944462299 4.502087116 -0.795183599
8.083455086 4.57712698 -0.4846321046
8.086125374 4.574907303 -0.16146788
8.079065323 4.591413975 0.1615027785
8.090014458 4.593902111 0.4853647947
8.093795776 4.594181061 0.8105230331
8.064284325 4.573709011 1.133197784
8.033638954 4.552622795 1.455830812
8.04365921 4.556447029 1.788706422
7.367320061 4.169929504 1.944473743
6.382376671 3.609506607 1.953100562
7.334612846 4.131158829 -1.628045321
7.027994156 3.95522356 -1.270612478
7.953181744 4.470420837 -0.7944863439
8.085453033 4.541056156 -0.483794719
8.096811295 4.543723106 -0.1613631546
8.091560364 4.561219215 0.1614329666
8.095561028 4.559756279 0.4847368002
8.106311798 4.563943386 0.8101744056
8.059437752 4.533854008 1.130272865
8.058092117 4.529389858 1.457395196
8.049244881 4.522573471 1.786416769
7.3818326 4.144185066 1.944473743
6.394937992 3.587204218 1.953100562
5.590022564 3.126719713 -1.704634309
7.006202698 3.914030552 -1.551721692
7.014158726 3.915263414 -1.265606403
7.97025013 4.445295334 -1.115404844
7.965256691 4.440692902 -0.7941377759
8.080318451 4.501139641 -0.4825386703
8.096898079 4.506677628 -0.1610490084
8.103938103 4.531000137 0.1613631546
8.09399128 4.521726131 0.4836900532
8.111756325 4.529793262 0.8091285229
8.066549301 4.500855446 1.129054308
8.047971725 4.486807346 1.452702045
8.058124542 4.490623951 1.784890413
7.389441967 4.114601612 1.942674041
6.409109592 3.565797567 1.953618169
5.604281425 3.109063864 -1.705669641
7.975123405 4.420681477 -2.095191002
7.007801533 3.882891655 -1.54905045
7.036425114 3.895537853 -1.267170787
7.9544487 4.400156498 -1.111017466
7.961530685 4.402255058 -0.7922202945
8.094230652 4.471946239 -0.4824340045
8.096824646 4.469686985 -0.1607348621
8.109212875 4.496863365 0.1611537188
8.102737427 4.489575386 0.4832713604
8.118802071 4.496624947 0.8082569242
8.076998711 4.469788551 1.128322959
8.054943085 4.453906536 1.4511379
8.066878319 4.458667278 1.783363819
7.41058445 4.092549324 1.944473743
6.414749622 3.539674997 1.951547742
7.2162714 3.970459938 -2.195355177
7.273271561 3.998519897 -1.906231999
7.370589733 4.050341129 -1.626518726
7.04131937 3.866203547 -1.265606403
