# .PCD v0.7 - Point Cloud Data file format
VERSION 0.7
FIELDS x y z
SIZE 4 4 4
TYPE F F F
COUNT 1 1 1
WIDTH 1261
HEIGHT 1
VIEWPOINT 0 0 0 1 0 0 0
POINTS 1261
DATA ascii
5.310959816 -2.375707388 -0.5053036213
5.311981678 -2.378389835 -0.302816987
5.268678188 -2.360105038 -0.1000702977
5.18917942 -2.312541962 0.0984646827
5.005214691 -2.232653141 0.2850227654
5.128869534 -2.289958239 0.4876981676
5.086398602 -2.272060633 0.6788688302
5.064699173 -2.264488697 0.872017324
5.0440588 -2.257373095 1.065921903
4.999463558 -2.239510298 1.254773617
4.995203972 -2.238648891 1.455132723
2.648873806 -1.191562533 -0.7666741014
2.996111631 -1.349020958 -0.7486336827
3.456149578 -1.556881785 -0.7285715342
4.085133553 -1.841933846 -0.7030680776
3.874410868 -1.748549342 -0.5167825818
5.396635056 -2.437808037 -0.5143678188
5.374628067 -2.428996563 -0.3068991899
5.321939468 -2.407422066 -0.1012570709
5.233551025 -2.355345488 0.09947691858
5.046165466 -2.273131609 0.2878488898
5.188053131 -2.338136911 0.4941476882
5.146798134 -2.321705818 0.6881309152
5.117578506 -2.310675144 0.8826549053
5.102347851 -2.304870129 1.080041766
5.051988602 -2.284245491 1.270070314
5.03448534 -2.278448582 1.469109058
2.637452841 -1.198067188 -0.7646034956
3.002029181 -1.364308596 -0.7513331175
3.448633194 -1.568725944 -0.7281899452
5.051542282 -2.30105567 -0.6764314771
5.433413982 -2.477294683 -0.5187256336
5.402029037 -2.465263128 -0.3089926243
5.368075371 -2.450900078 -0.1023042127
5.301764965 -2.408335447 0.1009429246
5.107289314 -2.322145224 0.291826427
5.24473238 -2.386846304 0.5004229546
5.200088024 -2.36762476 0.6964179873
5.18857193 -2.364568472 0.8964211345
5.159955025 -2.353702545 1.094161749
5.123354435 -2.339167833 1.290315866
5.077460766 -2.319285393 1.484120607
2.633676052 -1.206346989 -0.7646034956
2.990402699 -1.371007562 -0.7495334744
3.44547224 -1.580370903 -0.7285715342
3.839122295 -1.762552738 -0.6623951197
4.989769936 -2.29292798 -0.6691192389
5.429224491 -2.496016264 -0.5190742612
5.432359695 -2.499755144 -0.3111907542
5.439835548 -2.505496502 -0.1038400233
5.351922989 -2.452561855 0.1020598784
5.1685462 -2.370711088 0.2958039641
5.296965122 -2.430733681 0.50617522
5.275187969 -2.422969818 0.7076299787
5.220187664 -2.399914265 0.9033042789
5.220313549 -2.40107584 1.108663201
5.172625542 -2.381330013 1.304712772
5.146941185 -2.371683359 1.506896615
2.636463404 -1.218775511 -0.7666741014
2.989135981 -1.383074522 -0.7504333258
3.457750797 -1.600635529 -0.7323877215
5.024956703 -2.330375671 -0.6749690175
5.357222557 -2.485603571 -0.5129733682
5.351142883 -2.485053301 -0.3070038855
5.503591537 -2.558185577 -0.1052362099
5.412298679 -2.503125906 0.1033862606
5.239988327 -2.425655127 0.3004095256
5.358956814 -2.481863022 0.5129733682
5.311723232 -2.462239981 0.7137234807
5.301373482 -2.459691048 0.9189476967
5.265322685 -2.444081306 1.120111704
5.234973907 -2.432215452 1.322708845
5.189430714 -2.413258314 1.521908164
2.630442381 -1.227154374 -0.766156435
2.984290123 -1.39350009 -0.7504333258
3.473487616 -1.622667074 -0.736967206
4.046823502 -1.892226577 -0.7008780241
4.955661774 -2.319292545 -0.6666818857
5.348513603 -2.504288673 -0.5129733682
5.322542191 -2.494393587 -0.3058524728
5.567044735 -2.611349583 -0.106632404
5.483258247 -2.559215784 0.1049220785
5.285775661 -2.469291687 0.3035497069
5.449534416 -2.546951532 0.5225604773
5.358836651 -2.50684166 0.7212793827
5.378626347 -2.518388033 0.933965385
5.331429482 -2.497424126 1.136139631
5.289971352 -2.480255604 1.338905334
5.247431278 -2.462545156 1.541578293
2.633134127 -1.239620209 -0.7682270408
2.993510246 -1.410553932 -0.7540324926
3.457147121 -1.629758835 -0.734677434
4.068777561 -1.919828296 -0.7058839202
4.997795582 -2.360312939 -0.6735065579
5.336136341 -2.521240711 -0.5126247406
5.313802719 -2.512957811 -0.3058524728
5.637423515 -2.668410063 -0.108168222
5.539418221 -2.609014273 0.1061786413
5.338547707 -2.516683578 0.3071085513
5.52891016 -2.607603312 0.5311017036
5.429038525 -2.562817812 0.7320038676
5.441244602 -2.570902824 0.946480155
5.413201809 -2.558808804 1.155602217
5.360550404 -2.536210299 1.359150887
5.341815948 -2.529628992 1.572118998
2.620065928 -1.244659185 -0.7656388283
2.985048294 -1.419320941 -0.7531327009
3.444345713 -1.638443351 -0.7331510186
4.069185257 -1.937415838 -0.7071353793
5.014614582 -2.389699936 -0.6769189239
5.312916279 -2.53299284 -0.5112302303
5.301393032 -2.529770613 -0.3056431413
5.718296528 -2.731163502 -0.1099134609
5.627806664 -2.674686909 0.1080635041
5.409088612 -2.573053122 0.311714083
5.571946621 -2.651715994 0.5361567736
5.531174183 -2.63468051 0.7471156716
5.482204914 -2.614877939 1.172393322
5.446630001 -2.600243092 1.383445621
5.395704269 -2.578244209 1.590753913
2.626157761 -1.25880754 -0.7687446475
2.966019869 -1.422988534 -0.7495334744
3.431525946 -1.647058249 -0.7316244841
4.062397957 -1.951608062 -0.7071353793
5.016976357 -2.412350893 -0.6783813238
5.296859741 -2.548067808 -0.5105329752
5.292530537 -2.54826045 -0.3056431413
5.807806492 -2.798854828 -0.1118332297
5.697771549 -2.732360363 0.1095993146
5.490104198 -2.635131359 0.3169476986
5.566248417 -2.672874689 0.5365054011
5.561305046 -2.672890186 0.7524778843
5.524631023 -2.657637596 0.9643136859
5.563264847 -2.67741847 1.191855907
5.477160454 -2.640690327 1.617671132
2.618269444 -1.266284704 -0.7677093744
2.9750669 -1.440125823 -0.7531327009
3.423988342 -1.6581707 -0.7312428951
4.050228119 -1.963191867 -0.706196785
5.058532715 -2.454109907 -0.685205996
5.284348011 -2.564801931 -0.5101843476
5.278213978 -2.564101458 -0.3053291142
5.859146595 -2.848840714 -0.1130199879
5.774602413 -2.794039011 0.111274749
5.552774429 -2.689100266 0.3211345673
5.54254055 -2.685338259 0.5351108909
5.54122448 -2.687089443 0.7510154843
5.550862312 -2.694156647 0.9705710411
5.527394295 -2.683958292 1.186131597
5.52474308 -2.685054541 1.40819025
5.504390717 -2.677538872 1.62854147
2.606888533 -1.27202785 -0.7656388283
2.961266518 -1.446226001 -0.7508832216
3.435819149 -1.678731084 -0.7350590825
4.048674107 -1.979921222 -0.7071353793
5.074897289 -2.483970404 -0.6886184216
5.287888527 -2.589365721 -0.5114045143
5.254883289 -2.575478077 -0.3044917285
5.845575333 -2.867514133 -0.112950176
5.829506397 -2.845759392 0.1125313193
5.59718895 -2.73477006 0.3242747486
5.574302673 -2.724793196 0.5391200781
5.528244495 -2.704670906 0.7505280375
5.520134926 -2.70309186 0.9668166041
5.514465809 -2.701508522 1.185368419
5.529334068 -2.711186647 1.411789417
5.503682613 -2.700992346 1.631129742
2.633630514 -1.296477795 -0.7749563456
2.961444378 -1.459137917 -0.7522329092
3.428177595 -1.689846277 -0.734677434
4.048823833 -1.997537613 -0.7083868384
5.027038097 -2.48233366 -0.6832561493
5.280604362 -2.6086905 -0.5115788579
5.253023148 -2.597346544 -0.3049104214
5.821192741 -2.880806208 -0.1126709431
5.828506947 -2.870508432 0.1127058417
5.807956219 -2.862906694 0.3371493816
5.629086494 -2.7759583 0.5453952551
5.659395695 -2.793361187 0.7697833776
5.586821079 -2.759965658 0.9802699685
5.491889477 -2.716646433 1.404590964
5.495951653 -2.721044302 1.631647348
2.606595755 -1.294492483 -0.7682270408
2.97029376 -1.476405501 -0.7558321357
3.409952402 -1.695683241 -0.7320061326
4.052437782 -2.01693964 -0.7102640867
4.997019768 -2.489244699 -0.6803312302
5.276815891 -2.629773378 -0.5121017694
5.25107336 -2.619233131 -0.3053291142
5.802156448 -2.896642208 -0.1124964207
5.822032928 -2.892615557 0.1127756536
5.794351101 -2.881384373 0.3369400501
5.631849289 -2.801802397 0.5466154218
5.784661293 -2.880344868 0.788307488
5.775167942 -2.878133774 1.01531136
5.767803669 -2.875720978 1.244519114
5.651511192 -2.820203066 1.448231578
2.603788614 -1.304448485 -0.7687446475
2.961637735 -1.485017776 -0.754932344
3.418051481 -1.714618206 -0.7350590825
4.036545277 -2.02664113 -0.7086997032
5.024215698 -2.523622036 -0.685205996
5.276504517 -2.652651548 -0.5129733682
5.243682861 -2.638444424 -0.30543378
5.792519093 -2.91586709 -0.1124964207
5.794023514 -2.903960943 0.1124266088
5.791905403 -2.904164314 0.3373587132
5.622035027 -2.821444273 0.5466154218
5.700068951 -2.863097429 0.7780704498
5.777946949 -2.903477907 1.017501473
5.778777599 -2.906422138 1.249098539
5.772687435 -2.904621601 1.481974125
5.732663155 -2.886991024 1.708257794
2.609794617 -1.318302035 -0.7718504667
2.953218699 -1.493072152 -0.7540324926
3.421106339 -1.730374217 -0.736967206
4.019228458 -2.034662485 -0.7068225741
4.969776154 -2.51695013 -0.6788688302
5.399186134 -2.736793995 -0.5258724093
5.288338661 -2.68292737 -0.3085739315
5.779251099 -2.933249712 -0.1124266088
5.777222633 -2.919550657 0.1122869924
5.776896 -2.920651436 0.3370447159
5.768464088 -2.9214468 0.7887949944
5.759476662 -2.918158293 1.01593709
5.73759079 -2.90958643 1.242229462
5.768237591 -2.926393986 1.483323812
5.733393192 -2.911233187 1.711363673
2.601965666 -1.325195789 -0.7708151937
2.937834263 -1.497547269 -0.7513331175
3.4223454 -1.745276809 -0.7384936213
4.019496918 -2.051571608 -0.7080740333
4.936210632 -2.521639585 -0.6754564643
5.630859852 -2.878976583 -0.5495787859
5.357651711 -2.740469217 -0.3131795228
5.772536755 -2.955227613 -0.1124964207
5.76394558 -2.936877251 0.1122171804
5.754210949 -2.93444705 0.336311996
5.741630077 -2.929294348 0.5602117777
5.733993053 -2.927921057 0.785382688
5.745737076 -2.936447144 1.01531136
5.724414349 -2.926809549 1.241466284
5.728495598 -2.931419134 1.475675583
5.726635456 -2.932990313 1.712399006
2.614273548 -1.34355402 -0.775991559
2.930855751 -1.50690186 -0.7508832216
3.398468733 -1.748825669 -0.734677434
4.015462875 -2.068099022 -0.7086997032
4.969729424 -2.560676336 -0.6813062429
5.783688545 -2.982628107 -0.5656154156
5.613790512 -2.897493362 -0.3288802803
5.747971535 -2.968019724 -0.1122171804
5.751880646 -2.956064939 0.1121822745
5.72972393 -2.947206736 0.3354746103
5.750340462 -2.960350037 0.5621291399
5.737856388 -2.955189943 0.7873325348
5.731940269 -2.954674959 1.014685631
5.713648319 -2.947770834 1.241466284
5.712518692 -2.949713469 1.474325895
5.711213112 -2.950302124 1.710846066
2.583840847 -1.339335799 -0.7682270408
2.939151764 -1.524813294 -0.7544824481
3.392343521 -1.760678053 -0.734677434
4.009972095 -2.083013773 -0.7090126276
4.946220398 -2.571548462 -0.679356277
5.760869026 -2.996362925 -0.5643951893
5.755999088 -2.996383429 -0.3378820717
5.729960442 -2.985371113 -0.1120775566
5.744557381 -2.978967667 0.112252079
5.72597456 -2.971868038 0.335893333
5.731131077 -2.975813866 0.5612576008
5.719940662 -2.97253871 0.7863576412
5.710557461 -2.970194817 1.012808323
5.706807137 -2.969510078 1.242229462
5.697001934 -2.966935396 1.472976089
5.69008255 -2.965857267 1.707740188
2.579149723 -1.348346949 -0.7682270408
2.954530954 -1.545904875 -0.759881258
3.403570414 -1.78161335 -0.7384936213
4.01492548 -2.103415489 -0.7112026811
4.937213898 -2.588798285 -0.679356277
5.822713375 -3.054400682 -0.5715420246
5.79501915 -3.042453051 -0.3408128917
5.73543644 -3.013725758 -0.1123917028
5.719948292 -2.991587639 0.1119728461
5.715565681 -2.991837025 0.335893333
5.695998192 -2.982861042 0.5588172674
5.702496529 -2.988801003 0.785382688
5.694906712 -2.987357616 1.011869788
5.685976505 -2.983938456 1.239939809
5.686610699 -2.986803293 1.472976089
5.669435501 -2.980307817 1.704634309
2.581262827 -1.360945463 -0.7702975273
2.926711321 -1.544385552 -0.7540324926
3.38344121 -1.786150813 -0.7354406714
4.014544487 -2.121108294 -0.7124541402
4.970263004 -2.628287792 -0.685205996
5.820821762 -3.079365492 -0.5724135637
5.803780079 -3.072943211 -0.3419642746
5.802627087 -3.074926376 -0.1139275134
5.705933094 -3.009670019 0.1119030342
5.698021889 -3.00804019 0.3354746103
5.690837383 -3.005517244 0.5593402386
5.685009003 -3.004977465 0.7844076753
5.686190128 -3.008141756 1.012182593
5.661643982 -2.996421099 1.23688674
5.672706127 -3.004811049 1.472076416
5.660704136 -3.00098443 1.705151916
2.586730957 -1.375389338 -0.7734034061
2.919582367 -1.553676844 -0.7535826564
3.397981644 -1.809021473 -0.7400200963
4.007116318 -2.135108948 -0.7124541402
4.961058617 -2.645621061 -0.685205996
5.804763317 -3.096851587 -0.5718905926
5.785970688 -3.089420557 -0.3415456116
5.788331032 -3.093277693 -0.1138577014
5.773073196 -3.07088995 0.1134388521
5.740377426 -3.056068897 0.3386147618
5.687345028 -3.029109955 0.5600374341
5.669229507 -3.02200222 0.7836764455
5.672169209 -3.026112318 1.011556864
5.65114975 -3.016165733 1.23688674
5.657026768 -3.021839619 1.470726609
5.645083427 -3.01799345 1.703599095
2.587022066 -1.387148857 -0.7749563456
2.924443722 -1.569387436 -0.7562820315
3.384727001 -1.817157149 -0.7384936213
4.011819363 -2.155628443 -0.7146442533
4.951793194 -2.662922382 -0.685205996
5.832519054 -3.137862206 -0.5757254958
5.801529884 -3.123801708 -0.3431156874
5.770998955 -3.108662128 -0.113718085
5.769367695 -3.094804049 0.1135784686
5.751329422 -3.086421013 0.3398708403
5.757478237 -3.092309713 0.5680558085
5.733830929 -3.082188129 0.794157207
5.712556839 -3.072037697 1.020630121
5.649231434 -3.040525913 1.238794923
5.641296387 -3.038795471 1.469376922
5.643547535 -3.041278839 1.706187248
2.578765154 -1.394333124 -0.7739210129
2.919223309 -1.579076648 -0.7562820315
3.388722658 -1.834569097 -0.7407833338
3.995964527 -2.164216518 -0.7130799294
4.942935467 -2.679328442 -0.685205996
5.846048355 -3.171503544 -0.5781658292
5.835023403 -3.166840553 -0.3457324803
5.795256615 -3.147877455 -0.114416182
5.764349937 -3.116772413 0.113683179
5.738764286 -3.105527639 0.3397661746
5.73964119 -3.108592749 0.5673585534
5.735796452 -3.107805252 0.7958634496
5.712217331 -3.09760952 1.02250731
5.720223904 -3.103243113 1.256730914
5.701404572 -3.095610142 1.48782289
5.617620945 -3.052658319 1.70152843
2.56903863 -1.400103807 -0.7723681331
2.922247648 -1.593922853 -0.7585315704
3.3757267 -1.842034698 -0.7392568588
3.998787403 -2.183832407 -0.7149570584
4.888264179 -2.671812534 -0.6788688302
5.845987797 -3.196607351 -0.5792117119
5.841454029 -3.196777105 -0.3467791975
5.831587315 -3.194023609 -0.115358606
5.792060852 -3.15793395 0.114451088
5.764707088 -3.145631075 0.3419642746
5.739793777 -3.133336782 0.5684043765
5.728396893 -3.129711628 0.7963508964
5.706569195 -3.120372772 1.023445845
5.705912113 -3.121307373 1.255967736
5.699110985 -3.120171785 1.490072489
5.595070839 -3.065750837 1.697905064
2.572600842 -1.413714528 -0.7749563456
2.904713154 -1.597539902 -0.7553822398
3.379596472 -1.859485507 -0.7415465713
3.970375776 -2.186343431 -0.7112026811
4.924109936 -2.713771105 -0.685205996
5.834794044 -3.216994047 -0.5792117119
5.826762199 -3.215218782 -0.3465698659
5.818652153 -3.213393688 -0.1153237075
5.810792446 -3.194509745 0.1150444672
5.793938637 -3.187879086 0.344371736
5.763730049 -3.172568083 0.5718905926
5.750473499 -3.167887211 0.8009819388
5.718130589 -3.152672291 1.027513146
5.708734512 -3.148791313 1.259020686
5.705245495 -3.149464369 1.494571447
5.579262733 -3.082459927 1.696352124
2.569340229 -1.42362237 -0.7754738927
2.905936241 -1.611449718 -0.7571818829
3.379952431 -1.875080705 -0.7430730462
3.976536036 -2.20786047 -0.7137055993
4.886844158 -2.715515852 -0.6813062429
5.821787834 -3.236373901 -0.5790373683
5.808522224 -3.231654406 -0.3461511433
5.803905964 -3.231739521 -0.115253903
5.804852962 -3.217682362 0.1151491851
5.793254852 -3.213897467 0.3449997604
5.806625366 -3.222640276 0.5772942901
5.768880844 -3.204327345 0.8051254749
5.767519951 -3.206206083 1.038463593
5.711434364 -3.176332474 1.262073517
5.67718935 -3.159882545 1.490072489
5.570156574 -3.102856636 1.69686985
2.566041946 -1.433524609 -0.775991559
2.890087605 -1.615877509 -0.7544824481
3.366532564 -1.883033991 -0.7415465713
3.996383667 -2.237166166 -0.718711555
4.905044556 -2.748081684 -0.685205996
5.812193394 -3.257649899 -0.5792117119
5.800689697 -3.25386405 -0.3463605046
5.789102077 -3.250020981 -0.115184091
5.793585777 -3.237925291 0.1151491851
5.768055916 -3.22630024 0.3441624045
5.774476051 -3.231214523 0.5752025247
5.7715168 -3.232204914 0.8070754409
5.763185501 -3.230181932 1.039715052
5.760247231 -3.229856491 1.275430202
5.657627583 -3.174912214 1.48782289
5.562660217 -3.124173164 1.697905064
2.552355051 -1.438178182 -0.7734034061
2.890935421 -1.630288363 -0.7562820315
3.345929146 -1.88764298 -0.7384936213
4.008799076 -2.263453484 -0.722465992
4.894938946 -2.766040802 -0.685205996
5.79154253 -3.27402854 -0.5783401728
5.788724899 -3.275103092 -0.3463605046
5.767280102 -3.264298916 -0.1149746552
5.779937267 -3.2581563 0.1151142716
5.75675869 -3.246415138 0.3441624045
5.759124279 -3.250398874 0.5748539567
5.763088226 -3.255289078 0.8075628281
5.750155449 -3.249308109 1.039402246
5.748370171 -3.250947237 1.275430202
5.647648335 -3.196587086 1.488272905
5.543316364 -3.138812304 1.695316911
2.548999071 -1.448032856 -0.7739210129
2.885513544 -1.639865756 -0.7562820315
3.363211393 -1.912899852 -0.7438362837
3.953197718 -2.249380589 -0.7137055993
4.885739803 -2.782257795 -0.685205996
5.766230583 -3.286332607 -0.5769456625
5.770892143 -3.290323973 -0.3459418118
5.75237751 -3.282428503 -0.1149048507
5.755191326 -3.269403458 0.1148350388
5.750600815 -3.26945138 0.3444764316
5.735621452 -3.263584852 0.5736337304
5.759162426 -3.278310299 0.8085377812
5.733629227 -3.266426563 1.038463593
5.723912716 -3.262214661 1.272377372
5.633631706 -3.213366508 1.487372994
5.518903732 -3.150480747 1.691175699
2.547536135 -1.458397388 -0.7749563456
2.891608 -1.656709671 -0.7594313622
3.350035906 -1.920136809 -0.7423098087
3.97959137 -2.282824516 -0.7199630141
4.89665699 -2.811155558 -0.6881309152
5.752996922 -3.305447817 -0.5767713189
5.74898243 -3.3044765 -0.3453137875
5.740884304 -3.302488089 -0.1149048507
5.738538265 -3.286491632 0.1147303283
5.742618084 -3.291490793 0.3446857631
5.724767685 -3.28258729 0.5736337304
5.730466366 -3.288513184 0.8061004281
5.717052937 -3.283468962 1.037525058
5.709086418 -3.28021884 1.271614075
5.625759602 -3.234955311 1.488272905
5.507872581 -3.169725895 1.691175699
2.548866034 -1.471588492 -0.7770268321
2.870619774 -1.658021212 -0.7553822398
3.359972954 -1.942227602 -0.7461259961
3.967778206 -2.295416594 -0.7193372846
4.866197109 -2.816298962 -0.685205996
5.736250401 -3.32251358 -0.5762484074
5.729920864 -3.321518421 -0.3448950946
5.73278141 -3.324513912 -0.1149746552
5.725298882 -3.305502892 0.1146954224
5.715529919 -3.302523136 0.3437437117
5.712697983 -3.303547144 0.5736337304
5.708643436 -3.302532196 0.8046380281
5.708975792 -3.305385113 1.038150787
5.685134411 -3.294231415 1.268942714
5.598693371 -3.246754408 1.484223723
5.498445988 -3.189902306 1.691693425
2.542043924 -1.479504943 -0.7765091658
2.881362677 -1.678339839 -0.759881258
3.336210012 -1.944060087 -0.7423098087
3.946089983 -2.301291704 -0.7168343067
4.890629768 -2.853274822 -0.6900808215
5.729780197 -3.345530272 -0.5767713189
5.714842319 -3.339484215 -0.3446857631
5.703877926 -3.334412813 -0.1146256104
5.716601372 -3.328476906 0.1147652268
5.698789597 -3.319438219 0.3434296846
5.702852726 -3.324471474 0.573808074
5.699929237 -3.325433731 0.8051254749
5.680343151 -3.315335751 1.03502214
5.68546772 -3.320988178 1.271614075
5.577800751 -3.259403467 1.481524229
5.488945007 -3.21005106 1.692211032
2.545455933 -1.492812872 -0.7790973783
2.872419834 -1.685912728 -0.7589814663
3.319587231 -1.949148059 -0.7400200963
3.96568656 -2.33037734 -0.7218402028
4.846914291 -2.849356174 -0.685205996
5.711785316 -3.360471249 -0.5760741234
5.707179546 -3.360443592 -0.3448950946
5.682450771 -3.347219706 -0.114416182
5.707257271 -3.348428011 0.1148001403
5.684305668 -3.336296082 0.3432203531
5.684925556 -3.339328289 0.5731108189
5.68887043 -3.344316959 0.8051254749
5.653992653 -3.325141668 1.032206297
5.672731876 -3.33882761 1.271232486
5.568640232 -3.278870583 1.481974125
5.464954853 -3.220389605 1.68806982
2.528849363 -1.494366169 -0.7754738927
2.866813421 -1.69542861 -0.7589814663
3.330002308 -1.970142365 -0.7438362837
3.95113802 -2.339489698 -0.7205887437
4.836938858 -2.866257668 -0.685205996
5.69375515 -3.375329971 -0.5753768682
5.694286823 -3.378331661 -0.3447904289
5.681049347 -3.373160362 -0.1146256104
5.6857934 -3.361229658 0.1145907044
5.669187069 -3.354083538 0.3430109918
5.658389091 -3.349027872 0.5715420246
5.67774868 -3.363163471 0.8051254749
5.662742615 -3.356945276 1.035960674
5.64980793 -3.350610971 1.268561125
5.558836937 -3.299283981 1.48242414
5.450358868 -3.237473011 1.687034726
2.53191638 -1.508127213 -0.7780621052
2.864225626 -1.707421184 -0.759881258
3.326477051 -1.983765364 -0.7445995212
3.942947626 -2.353267431 -0.7205887437
4.860989571 -2.903483391 -0.6900808215
5.681938171 -3.395184278 -0.5753768682
5.670460224 -3.391012669 -0.344057709
5.655513763 -3.384755373 -0.1143463776
5.667155266 -3.376961708 0.114451088
5.654014111 -3.371806622 0.3428016603
5.651797295 -3.371821642 0.5720649362
5.65745306 -3.377874613 0.8039067984
5.642511368 -3.371625185 1.034396291
5.627966881 -3.364267349 1.266271472
5.550631046 -3.320668221 1.483323812
5.434051991 -3.253501415 1.685481787
2.524980307 -1.515962005 -0.7775444984
2.854907513 -1.715401411 -0.7589814663
3.325913906 -1.999991059 -0.7461259961
3.934709311 -2.367016792 -0.7205887437
4.816811085 -2.89995575 -0.685205996
5.664336205 -3.412902117 -0.5748539567
5.654572487 -3.409710407 -0.3438483775
5.650513172 -3.408607244 -0.114485994
5.650189877 -3.393634558 0.1143463776
5.637074471 -3.388435364 0.342487663
5.643407822 -3.393583059 0.5724135637
5.626918316 -3.386342525 0.8012256622
5.634092331 -3.393338919 1.03502214
5.605509758 -3.378791571 1.2639817
5.52398634 -3.330966949 1.479274869
5.427624702 -3.275444508 1.687034726
2.516101837 -1.52320528 -0.7765091658
2.855268002 -1.729892731 -0.7607811093
3.320240259 -2.013185501 -0.7465076447
3.915873051 -2.375275135 -0.718711555
4.840088367 -2.938193321 -0.6900808215
5.653491974 -3.434674263 -0.5750282407
5.638624668 -3.428337097 -0.343639046
5.634564877 -3.427216053 -0.114416182
5.642845154 -3.417428493 0.114451088
5.617785454 -3.404932737 0.3420689702
5.625820637 -3.411144972 0.5718905926
5.617862701 -3.409002781 0.8017131686
5.599667549 -3.400636673 1.030954838
5.599799633 -3.403392792 1.265508175
5.510076046 -3.35017848 1.478824854
5.41723299 -3.296319962 1.687552214
2.51709795 -1.536443114 -0.7785797715
2.852234364 -1.742377996 -0.7616809011
3.298115492 -2.015549421 -0.7430730462
3.944215298 -2.412286043 -0.7255946994
4.839962006 -2.961286306 -0.6915432215
5.641468048 -3.454387903 -0.5750282407
5.633434296 -3.452172995 -0.344057709
5.615747929 -3.442682743 -0.1142765582
5.638814926 -3.443298578 0.1146256104
5.616092205 -3.43076849 0.3426969945
5.609880924 -3.429663658 0.5715420246
5.607023716 -3.430606365 0.801956892
5.594501972 -3.424287319 1.032206297
5.592906952 -3.425995111 1.266653061
5.496685982 -3.368373394 1.478374958
5.400753498 -3.312179327 1.685999393
2.510343313 -1.543769717 -0.7780621052
2.846440554 -1.751826763 -0.7616809011
3.294757366 -2.028533936 -0.7438362837
3.939557314 -2.427424908 -0.7262203693
5.618112564 -3.465754509 -0.573808074
5.615158081 -3.466638088 -0.343639046
5.604300976 -3.461286545 -0.1142765582
5.60352087 -3.447309017 0.1141369417
5.596179485 -3.444139004 0.342173636
5.584905148 -3.439888716 0.5701475143
5.593926907 -3.448139429 0.8017131686
5.578071594 -3.439709902 1.031267643
5.569820404 -3.437305927 1.2639817
5.480512142 -3.383511305 1.47702527
5.379878998 -3.323978424 1.682893515
2.521632433 -1.562259912 -0.7832384706
2.8373034 -1.7592026 -0.7607811093
3.312679291 -2.055549383 -0.7495605946
3.904633284 -2.423806667 -0.7212145329
4.883769035 -3.033968449 -0.7008053064
5.600904465 -3.482187986 -0.5732851028
5.597935677 -3.483052492 -0.3433250189
5.592184544 -3.480828285 -0.1142765582
5.583559513 -3.460604429 0.1139624193
5.584123135 -3.463652611 0.342173636
5.573467255 -3.458390236 0.5701475143
5.574029446 -3.461434126 0.8004944324
5.566030979 -3.459160089 1.031267643
5.559455395 -3.457764387 1.264363289
5.478595257 -3.408798695 1.479724646
5.364964008 -3.340694904 1.681858301
2.509335756 -1.567398071 -0.781167984
2.837446213 -1.773721814 -0.7625806928
3.308451891 -2.069759607 -0.7503237724
3.912468433 -2.448581219 -0.7243432403
4.849063396 -3.037095785 -0.6973930001
5.591480255 -3.504809618 -0.5736337304
5.573288441 -3.496116877 -0.3425923288
5.586163998 -3.505552769 -0.114416182
5.577621937 -3.485284805 0.1141020432
5.566310883 -3.480919361 0.3418596089
5.562443733 -3.479851484 0.5703218579
5.554574966 -3.477627516 0.7995194793
5.556663513 -3.481635332 1.031893373
5.540091515 -3.473945379 1.262836814
5.459461689 -3.424713373 1.477925062
5.354320049 -3.361363411 1.682375908
2.513381958 -1.582761288 -0.7842737436
2.827628851 -1.782031536 -0.7616809011
3.281278133 -2.06873107 -0.7457444072
3.93688035 -2.483986378 -0.7306005955
4.82111454 -3.044250011 -0.6949555874
5.582581043 -3.526434183 -0.573982358
5.567803383 -3.519818783 -0.3430109918
5.55975914 -3.517451048 -0.1141369417
5.563117981 -3.504638433 0.1140671298
5.541688919 -3.493840933 0.3411269188
5.551337242 -3.5012784 0.5704961419
5.54682827 -3.50114131 0.8002507091
5.532174587 -3.494593143 1.029703379
5.53456974 -3.497457743 1.264363289
5.43369627 -3.436367273 1.474325895
5.345228672 -3.383031368 1.683411241
2.494793415 -1.583243847 -0.7801327109
2.823035955 -1.792935729 -0.7621307373
3.293921709 -2.092806339 -0.7503237724
3.921517611 -2.493473768 -0.7293490767
4.827206612 -3.071717262 -0.6973930001
5.555110931 -3.536269903 -0.5724135637
5.55211401 -3.537087202 -0.3428016603
5.533957958 -3.528236151 -0.1138577014
5.554227352 -3.52617979 0.1141369417
5.532830238 -3.515305996 0.3413362503
5.52899313 -3.514221907 0.5694502592
5.532897949 -3.519416809 0.8000069857
5.516610146 -3.51176095 1.02907753
5.528951645 -3.520973921 1.265889764
5.424954891 -3.457408667 1.475225687
5.325243473 -3.396475315 1.680822968
2.489251614 -1.591942668 -0.7801327109
2.821684599 -1.805930614 -0.7634804845
3.278329372 -2.098998547 -0.7484157085
3.909463644 -2.505015612 -0.7287233472
4.793059826 -3.073546648 -0.6939805746
5.537701607 -3.552412033 -0.5718905926
5.546456337 -3.560761929 -0.3432203531
5.521608353 -3.547531366 -0.1138577014
5.53009367 -3.538002491 0.1138926148
5.523890018 -3.536752224 0.3415456116
5.509981155 -3.529202461 0.5687530041
5.518907547 -3.537637234 0.7997632027
5.507642746 -3.533129692 1.029703379
5.503409386 -3.531769514 1.262836814
5.409573555 -3.474217653 1.474325895
5.300353527 -3.40668726 1.676681876
2.490175009 -1.604808092 -0.7822031975
2.815363407 -1.815768957 -0.7634804845
3.27428174 -2.112557888 -0.749178946
3.920609474 -2.531505585 -0.7324778438
4.889008522 -3.159211397 -0.709579885
5.526940823 -3.572802544 -0.5720649362
5.523931503 -3.573591232 -0.3425923288
5.509191513 -3.566784143 -0.1138577014
5.516028881 -3.556200504 0.1138577014
5.509832382 -3.554929018 0.3414409459
5.497628212 -3.548414469 0.5687530041
5.504858017 -3.555802822 0.7995194793
5.496935368 -3.553406 1.030016184
5.481155872 -3.544562101 1.260547161
5.403957367 -3.497314692 1.476125479
5.298158646 -3.431469202 1.679787755
2.491038322 -1.617699265 -0.7842737436
2.792668343 -1.814966321 -0.7589814663
3.286638975 -2.136815786 -0.7537583113
3.891880035 -2.532247782 -0.7287233472
4.877951145 -3.176257849 -0.709579885
5.522783279 -3.597510576 -0.5729364753
5.491345882 -3.579763174 -0.3413362503
5.503407001 -3.590363741 -0.1139973253
5.500228405 -3.573254824 0.1137878969
5.489017487 -3.568697214 0.3409175575
5.486878395 -3.568669319 0.5689272881
5.477438927 -3.565250874 0.7973257899
5.472911835 -3.565024614 1.027826071
5.470394611 -3.564744711 1.26092875
5.378657818 -3.507641315 1.472526193
5.291001797 -3.453109503 1.681340575
2.485376358 -1.626384616 -0.7842737436
2.799357891 -1.833244324 -0.7625806928
3.269307137 -2.141820192 -0.7514686584
3.873105288 -2.539319038 -0.7268461585
4.866833687 -3.193265915 -0.709579885
5.510191917 -3.616766453 -0.5729364753
5.492171764 -3.607682228 -0.342173636
5.477472782 -3.600764275 -0.113718085
5.484375477 -3.590241671 0.113718085
5.466503143 -3.581268787 0.3402895331
5.47938776 -3.591076374 0.5694502592
5.471600533 -3.588703871 0.7983008027
5.465388298 -3.587358475 1.028764725
5.464482307 -3.588129044 1.262455225
5.361495495 -3.523183584 1.471176505
5.270845413 -3.466250181 1.678752422
2.482909918 -1.637177467 -0.7853090763
2.799447536 -1.847298026 -0.7643802762
3.256895542 -2.149974346 -0.7503237724
3.903773785 -2.578955412 -0.7343549728
4.855658054 -3.210234642 -0.709579885
5.482577324 -3.626087189 -0.571367681
5.476213932 -3.624626875 -0.3419642746
5.46216774 -3.616700649 -0.1136482805
5.475148678 -3.611566544 0.1137878969
5.461265564 -3.603776932 0.340708226
5.455181122 -3.602495909 0.5682300925
5.459040642 -3.607781887 0.7983008027
5.445223808 -3.600015879 1.027200341
5.453561783 -3.608264923 1.262836814
5.350790024 -3.542953253 1.471626401
5.25932169 -3.483709812 1.678752422
2.467525482 -1.639419913 -0.7822031975
2.803044319 -1.863043547 -0.767079711
3.262448072 -2.170028448 -0.7533767223
3.875465631 -2.57875514 -0.7306005955
4.778894901 -3.182308435 -0.6998303533
5.464912415 -3.641888142 -0.5708447695
5.46914959 -3.646090746 -0.3422783017
5.449509144 -3.635745287 -0.1136482805
5.456479549 -3.625276089 0.1136482805
5.441999912 -3.618394375 0.3402895331
5.434278965 -3.615997314 0.5673585534
5.44704628 -3.625864744 0.7983008027
5.434267521 -3.620096445 1.027513146
5.430130005 -3.618708611 1.260165572
5.339011192 -3.560678005 1.471626401
5.234274864 -3.493467569 1.67461133
2.465286255 -1.649742484 -0.7832384706
2.790047407 -1.868479013 -0.7652801275
3.243816376 -2.173185825 -0.7507053614
3.899255514 -2.614268064 -0.7368579507
4.790835381 -3.214454889 -0.7032427192
5.451150894 -3.658879995 -0.5706704259
5.44644165 -3.65847683 -0.3416502476
5.440742493 -3.656027079 -0.113718085
5.437144756 -3.639851093 0.1135086566
5.433290005 -3.638643503 0.3404988647
5.4222579 -3.633998156 0.5673585534
5.419518948 -3.634904385 0.796107173
5.423873901 -3.639197826 1.027826071
5.404425621 -3.628885984 1.257112503
5.331402302 -3.582553387 1.472976089
5.227470875 -3.514039278 1.67616415
2.462716103 -1.660497546 -0.7842737436
2.780604601 -1.875541449 -0.7643802762
3.257365227 -2.198775291 -0.7556664944
3.874194145 -2.616129637 -0.7337293029
4.822912693 -3.259222746 -0.709579885
5.446598053 -3.683466434 -0.5715420246
5.426008701 -3.670922041 -0.3411269188
5.431259155 -3.677238703 -0.1137878969
5.423387051 -3.656743288 0.1134737507
5.413933277 -3.653118849 0.3400802016
5.417796135 -3.658478498 0.5682300925
5.409080029 -3.653967619 0.7963508964
5.409501076 -3.657001972 1.027513146
5.398868084 -3.651187181 1.258639097
5.313037395 -3.595844507 1.471176505
5.213573456 -3.531182051 1.675646544
2.460101366 -1.67125535 -0.7853090763
2.773711681 -1.885720253 -0.7643802762
3.246423244 -2.207923889 -0.7549031973
3.871111393 -2.634757042 -0.734980762
4.81093502 -3.276877403 -0.709579885
5.435353756 -3.703577995 -0.5717163086
5.409216881 -3.688534737 -0.3409175575
5.404531002 -3.688102722 -0.1135086566
5.418217182 -3.682216406 0.1136482805
5.393901348 -3.668444633 0.3396615088
5.40005064 -3.674005032 0.5677071214
5.385806084 -3.667064905 0.7948884368
5.376471996 -3.663456917 1.023758769
5.38869381 -3.673161745 1.259402275
5.293382645 -3.61090064 1.469376922
5.20378685 -3.552445412 1.676681876
2.451063871 -1.677649975 -0.7842737436
2.783190012 -1.906403661 -0.768879354
3.23545742 -2.217022896 -0.7541399598
3.868407488 -2.652722359 -0.7362322211
4.799467087 -3.293650866 -0.709579885
5.407609463 -3.712379217 -0.5701475143
5.406186104 -3.714179277 -0.3415456116
5.385033131 -3.702414274 -0.1133690327
5.402031422 -3.698847532 0.1135784686
5.381063461 -3.687250137 0.3396615088
5.375689507 -3.684947014 0.5664869547
5.379520416 -3.690334797 0.7958634496
5.353879929 -3.67549324 1.02188158
5.375838757 -3.691949606 1.259402275
5.279140472 -3.628252745 1.468927026
5.188171387 -3.568398714 1.675646544
2.445192575 -1.686195731 -0.7842737436
2.776518583 -1.916106939 -0.768879354
3.226083279 -2.22718811 -0.7537583113
3.846122503 -2.657227039 -0.7337293029
4.787940979 -3.310384512 -0.709579885
5.38970232 -3.727833271 -0.5696246028
5.401399612 -3.738711596 -0.3420689702
5.372076511 -3.721189499 -0.1133690327
5.380856514 -3.712004185 0.1134039387
5.368159771 -3.706011534 0.3396615088
5.356235981 -3.699160814 0.5657896996
5.366606712 -3.709089518 0.7958634496
7.626876354 -5.275193691 1.462088227
5.343545437 -3.697287321 1.25482285
5.268044949 -3.647767544 1.469376922
5.161393166 -3.576583624 1.670987844
2.448811054 -1.701334476 -0.7873796225
2.769813061 -1.92578721 -0.768879354
3.229571104 -2.246282816 -0.7564296722
3.836823702 -2.670636177 -0.7337293029
4.786128998 -3.333885193 -0.7110423446
5.379926205 -3.748901844 -0.5699731708
5.371932507 -3.746118546 -0.3410222232
5.362333775 -3.742207289 -0.1134388521
5.362940788 -3.72734046 0.1132992283
5.365027905 -3.731569767 0.3402895331
5.343291283 -3.717834473 0.5657896996
5.337336063 -3.71645689 0.7934260368
7.606795788 -5.300654411 1.461775422
5.324164867 -3.711426258 1.253296375
5.256877899 -3.667248964 1.469826818
5.156796932 -3.600107908 1.673576117
2.449188471 -1.714303017 -0.7894501686
2.766266108 -1.937679887 -0.7697791457
3.22653389 -2.260922432 -0.7575744987
3.83071208 -2.686280966 -0.7343549728
4.732215405 -3.32092309 -0.7047051191
5.366807461 -3.76765871 -0.5699731708
5.355555534 -3.762551546 -0.3408128917
5.354146004 -3.764353037 -0.1135435626
5.34662056 -3.743744135 0.1132294163
5.34215641 -3.743397951 0.3396615088
5.335175514 -3.739894629 0.5663126707
5.319455624 -3.731645107 0.7926948071
7.586629391 -5.326039791 1.461462498
5.314389706 -3.732244968 1.254059672
5.240856647 -3.683335543 1.468927026
5.147358894 -3.620309591 1.67461133
2.443189383 -1.722841859 -0.7894501686
2.765854359 -1.951818347 -0.7715787292
3.223433971 -2.275568008 -0.7587193847
3.827765942 -2.704195738 -0.7356064916
4.753012657 -3.360341072 -0.709579885
5.356876373 -3.788670778 -0.5703218579
5.340759277 -3.780068874 -0.340708226
5.336078167 -3.779551744 -0.1134388521
5.341689587 -3.768147945 0.1134039387
5.312740326 -3.750503778 0.3386147618
5.326970577 -3.761942863 0.5668355823
5.3112607 -3.753627539 0.7934260368
7.56476593 -5.350208759 1.460836649
5.301329613 -3.750773191 1.254059672
5.221605301 -3.697102547 1.467127442
5.134690285 -3.638255119 1.67461133
2.430860758 -1.726884365 -0.7873796225
2.755847931 -1.959203005 -0.7706789374
3.225070477 -2.293632984 -0.7610090971
3.824740648 -2.722122192 -0.7368579507
4.723467827 -3.364243984 -0.7068988085
5.337128162 -3.802721977 -0.5696246028
5.340541363 -3.807964563 -0.3415456116
5.317968845 -3.794671059 -0.1133341342
5.330134869 -3.78792882 0.1134388521
5.312637329 -3.778286219 0.3394521475
5.304065704 -3.773584843 0.5657896996
5.311062336 -3.781355381 0.7953759432
5.280874252 -3.762640715 1.020317197
5.28820467 -3.769255161 1.254059672
5.208668232 -3.715306997 1.467127442
5.120387077 -3.655034065 1.674093723
2.427960157 -1.737607837 -0.7884148359
2.755329132 -1.973349571 -0.7724785209
3.207468987 -2.29801631 -0.7587193847
3.808794022 -2.730852604 -0.7356064916
4.721372604 -3.387654781 -0.7083612084
5.314110756 -3.814357758 -0.5685787201
5.322349548 -3.823087931 -0.3412315845
5.299819469 -3.809709072 -0.1132294163
5.307123661 -3.799527168 0.1132294163
5.289674282 -3.789828539 0.3388241231
5.292480946 -3.793236971 0.5659640431
5.289764881 -3.794085979 0.794157207
5.274127483 -3.785658598 1.021568775
5.275015354 -3.787691355 1.254059672
5.197249889 -3.734603167 1.467577338
5.095050335 -3.663862467 1.669952631
2.423447132 -1.747202158 -0.7889325023
2.745263577 -1.980674982 -0.7715787292
3.210571527 -2.317240953 -0.761390686
3.799238205 -2.744131327 -0.7356064916
4.725606441 -3.415743351 -0.7107985616
5.307221413 -3.837553978 -0.5692759752
5.294409752 -3.831105471 -0.3402895331
5.292967319 -3.832877159 -0.1133690327
5.288962841 -3.814520359 0.1131247059
5.287750244 -3.816451788 0.3395568132
5.275977135 -3.809355497 0.5656154156
5.276488304 -3.812527657 0.794157207
5.283290863 -3.820250273 1.025948882
5.261761665 -3.80608201 1.254059672
5.188918591 -3.756150246 1.468927026
5.086923122 -3.685025215 1.67150557
2.425148964 -1.761327267 -0.7915207148
2.722569466 -1.978788376 -0.767079711
3.213578463 -2.336515427 -0.7640619874
3.802414656 -2.766674042 -0.7381094098
5.199894905 -3.78627038 -0.7846514583
5.258363724 -3.830248833 -0.565441072
5.277776718 -3.84720993 -0.3400802016
5.276324749 -3.848973274 -0.1132992283
5.278851509 -3.835309982 0.1131945178
5.255011082 -3.820792198 0.3383007646
5.264258862 -3.828920603 0.5657896996
5.261543274 -3.829754829 0.7939134836
5.26353693 -3.834017277 1.024697423
5.242097855 -3.819801092 1.252533197
5.167901993 -3.768498898 1.466677547
5.074028969 -3.702759504 1.67150557
2.425222397 -1.774344444 -0.7935912609
2.73451376 -2.002094269 -0.7724785209
3.18322897 -2.331478119 -0.7587193847
3.783174753 -2.772922993 -0.7362322211
5.15783453 -3.783264875 -0.7802641392
5.199984074 -3.815577745 -0.5605604053
5.198310852 -3.817142487 -0.3357886374
5.227406502 -3.841316223 -0.1125313193
5.260590553 -3.850170374 0.1130897999
5.246475697 -3.842652798 0.3386147618
5.260504246 -3.854338408 0.5668355823
5.251345158 -3.850445509 0.79440099
5.246935844 -3.850029707 1.024071693
5.23980999 -3.846207857 1.255204439
5.151575089 -3.784207821 1.465777636
5.064186096 -3.722736597 1.672540784
2.415903807 -1.780506968 -0.7925559878
2.724371672 -2.009314299 -0.7715787292
3.171911716 -2.340244532 -0.7579562068
5.095644951 -3.762327194 -0.9965391159
4.719913483 -3.487455606 -0.7154296041
5.133760929 -3.794624567 -0.5548081398
5.165686607 -3.821011782 -0.3345325887
5.144853592 -3.808380604 -0.1110304147
5.226194859 -3.853082657 0.1126360372
5.234637737 -3.862128973 0.3387194574
5.237400055 -3.865578651 0.5657896996
5.247453213 -3.87582922 0.7958634496
5.228699684 -3.864798784 1.023133039
5.22950983 -3.866809607 1.255967736
5.138333797 -3.802167416 1.465777636
5.043397903 -3.734643459 1.669952631
2.40036726 -1.782019973 -0.7894501686
2.739241362 -2.03508234 -0.7778773904
3.174753428 -2.359499693 -0.7606275082
5.082480907 -3.780091286 -0.9965391159
4.717266083 -3.511021137 -0.7168920636
5.069344997 -3.774445534 -0.5492301583
5.078645229 -3.784126759 -0.3297176659
5.103336334 -3.803909779 -0.1104021221
5.151707649 -3.825995684 0.111309655
5.162482262 -3.83539629 0.3348466158
5.166314125 -3.841042519 0.5595145226
5.221150398 -3.884642601 0.7939134836
5.207931995 -3.876219511 1.021568775
5.209681988 -3.880349159 1.254441261
5.12659359 -3.821245193 1.466227651
5.02169323 -3.744418383 1.666846752
2.394132137 -1.790388227 -0.7894501686
2.719994307 -2.034815788 -0.7742781639
3.171212673 -2.374097109 -0.7617723942
5.069917202 -3.796924591 -0.9965391159
4.702419758 -3.524263382 -0.7164045572
5.059326649 -3.794509172 -0.5495787859
5.062873363 -3.798550606 -0.3295083344
5.061243534 -3.800088406 -0.1097738445
5.108564854 -3.820304632 0.1106464565
5.126676083 -3.836638689 0.333381176
5.120980263 -3.835166216 0.5560283065
5.144691944 -3.854326487 0.7841639519
5.151695251 -3.86238122 1.013121247
5.157521248 -3.868155241 1.244900823
5.117010593 -3.840564013 1.467127442
5.011682034 -3.764245033 1.667882085
2.397441387 -1.805289865 -0.7925559878
2.709762573 -2.041952372 -0.7733783722
3.172728539 -2.391690731 -0.7640619874
5.034554958 -3.797944069 -0.992159009
4.715438366 -3.559793472 -0.7203043699
5.049229622 -3.814548254 -0.5499273539
5.038429737 -3.807770252 -0.3287756145
5.036783218 -3.809289455 -0.1095295101
5.032906532 -3.791190147 0.1092851758
5.030318737 -3.791993618 0.3279382288
5.073236942 -3.825735331 0.5521934032
5.096346855 -3.84595418 0.7788016796
5.108231068 -3.857721567 1.007176757
5.087594032 -3.843531132 1.231162548
5.095800877 -3.852526188 1.464877963
5.00775528 -3.788709402 1.670987844
2.39696455 -1.818735719 -0.794626534
2.699513435 -2.049042225 -0.7724785209
3.157688141 -2.398553133 -0.7625355721
5.058343887 -3.845060825 -0.9996678829
4.68086195 -3.559410095 -0.7168920636
5.035883904 -3.832149982 -0.5499273539
5.024439335 -3.826211691 -0.3287756145
5.01868391 -3.823212147 -0.1094247922
5.01804924 -3.807526112 0.1092502698
5.004326344 -3.799867153 0.327100873
5.016349316 -3.811757326 0.5474870205
5.027579308 -3.821675301 0.770270884
5.053857327 -3.844434261 0.9990421534
5.0734725 -3.862152338 1.231162548
5.069245338 -3.861729622 1.461278677
4.997572422 -3.808508396 1.672023177
2.384461641 -1.822399139 -0.7925559878
2.710560322 -2.073129654 -0.7778773904
3.15865159 -2.41671896 -0.7648252845
3.755641699 -2.875561714 -0.7424895763
4.686693668 -3.591030598 -0.7198169231
5.01773262 -3.846068859 -0.5494044423
5.014222622 -3.846157551 -0.328984946
4.999878407 -3.837928295 -0.1093200818
5.012003422 -3.831965446 0.1094247922
4.990365505 -3.818183422 0.327100873
4.995101929 -3.823189974 0.5466154218
5.00408268 -3.832834482 0.7688084245
4.983292103 -3.8196702 0.9877789021
4.982061863 -3.820107937 1.212081671
5.018629074 -3.850929737 1.450481057
4.971322536 -3.817388058 1.667882085
2.368901253 -1.823640823 -0.7894501686
2.707938433 -2.086146355 -0.779227078
3.148641586 -2.426531553 -0.7644436955
3.739324093 -2.883828163 -0.7412381172
4.397545815 -3.393908024 -0.6769189239
4.996391296 -3.857472897 -0.5485329032
5.007088661 -3.868521929 -0.3294036686
4.991196632 -3.859027147 -0.1094247922
4.989090443 -3.842116833 0.1092153639
4.983335018 -3.840456247 0.3275195658
4.978570461 -3.838169575 0.5462668538
4.99224472 -3.851490259 0.7690521479
4.971491337 -3.838248968 0.9880917072
4.971804142 -3.83987546 1.212844849
4.971234798 -3.842206717 1.44058311
4.951854706 -3.829989195 1.665811419
2.374733925 -1.841369033 -0.7935912609
2.700639963 -2.095586061 -0.779227078
3.157211304 -2.450749874 -0.7686414719
3.754194975 -2.916252375 -0.7462440133
4.286935329 -3.332484007 -0.6615633965
4.977792263 -3.873710394 -0.3283569515
4.977695942 -3.87642622 -0.1094247922
4.969328403 -3.854606152 0.1090757474
4.971476555 -3.859053135 0.3276242316
4.928948879 -3.827419281 0.5422576666
4.959959984 -3.854276419 0.7661272287
4.962741375 -3.859217167 0.9890303612
4.945973873 -3.847563028 1.209792018
4.957792759 -3.859536171 1.44058311
4.938455105 -3.847251415 1.665811419
2.372859955 -1.853214264 -0.7951441407
2.690237522 -2.102600098 -0.7783272266
3.150183916 -2.462964773 -0.7690230608
3.743992567 -2.929339409 -0.7462440133
4.27215004 -3.344979763 -0.6610758901
4.268209457 -3.343096018 -0.4706156254
4.275734901 -3.35139966 -0.2825106084
4.957418442 -3.873159885 0.1091106459
4.948535442 -3.869002104 0.3269962072
4.910850048 -3.840919018 0.541734755
4.930844307 -3.859331846 0.7636898756
4.95079565 -3.877735138 0.9893431664
4.932513237 -3.864804506 1.209792018
4.930489063 -3.865997076 1.436534166
4.931075573 -3.869237185 1.667882085
2.364858389 -1.8602916 -0.794626534
2.682881832 -2.111978054 -0.7783272266
3.129228354 -2.464228868 -0.7659701109
3.733744621 -2.942390203 -0.7462440133
4.66415453 -3.678242922 -0.7242042422
4.334724426 -3.419675827 -0.4793311954
4.264010429 -3.366304159 -0.2825106084
4.260696888 -3.364895344 -0.09406667948
4.929400444 -3.880448818 0.3265775144
4.906803608 -3.865435362 0.5427806377
4.92513752 -3.882665157 0.7649086118
4.933255672 -3.890461445 0.988404572
4.922074318 -3.884430647 1.210555196
4.913905144 -3.880768299 1.435634255
4.918217182 -3.885567665 1.667882085
2.355321407 -1.866135716 -0.7935912609
2.685026884 -2.128125906 -0.7810266614
3.123683691 -2.477576971 -0.766733408
3.739441156 -2.967034101 -0.7493727207
4.655040741 -3.696158648 -0.7246917486
4.559867859 -3.623185873 -0.5058265924
4.88448 -3.882507563 -0.3247980773
4.237970352 -3.371033907 -0.09382234514
4.252271175 -3.369100332 0.09399686009
4.917390823 -3.898873091 0.3266821802
4.91500473 -3.903972149 0.9874659777
4.912240028 -3.9031744 1.211318374
4.902534008 -3.898254633 1.436084151
4.904623985 -3.902712107 1.667882085
2.35063076 -1.875140667 -0.7941089272
2.677581787 -2.137485266 -0.7810266614
3.116984844 -2.489146948 -0.7671149969
3.713630199 -2.967736721 -0.7462440133
4.654512882 -3.722303629 -0.7266415954
4.547827244 -3.638287306 -0.5058265924
4.886489391 -3.912016392 -0.3258447945
4.852665424 -3.886327982 -0.1078191772
4.23266983 -3.377686501 0.09382234514
4.91067791 -3.920142174 0.327100873
4.850801945 -3.87511754 0.5394687057
4.841225624 -3.870236397 0.7558902502
4.905117512 -3.922716856 0.9880917072
4.901651859 -3.92275095 1.212081671
4.891939163 -3.917780638 1.436983943
4.885623932 -3.914123297 1.665811419
2.351600885 -1.889384151 -0.7966970801
2.6644032 -2.141469717 -0.779227078
3.108277082 -2.500012159 -0.7671149969
3.703768253 -2.980035305 -0.7462440133
4.635958672 -3.732738256 -0.7256666422
4.531997204 -3.651639938 -0.5054779649
4.91236496 -3.95953393 -0.3284616172
4.909111023 -3.959738731 -0.1093898863
4.223004818 -3.392956257 0.09385724366
4.898519993 -3.938511133 0.3272055387
4.860530376 -3.91076088 0.542083323
4.833004475 -3.890003204 0.75662148
4.886779308 -3.93609786 0.9871531129
4.873328209 -3.926666021 1.208265424
4.891056538 -3.943766594 1.44058311
4.874938488 -3.933579206 1.666846752
2.344660044 -1.897990584 -0.7966970801
2.65616107 -2.151684284 -0.779227078
3.114345789 -2.523748159 -0.7709311843
3.683092594 -2.986769676 -0.7443668246
4.637006283 -3.763020515 -0.7281040549
4.524770737 -3.673249245 -0.50617522
4.904876709 -3.984663486 -0.328984946
4.906283855 -3.988651037 -0.1096691266
4.213053226 -3.411663532 0.0939270556
4.87715435 -3.952261686 0.3267868459
4.849259853 -3.931058645 0.5424319506
4.824198246 -3.913534164 0.7575964332
4.8731637 -3.956077814 0.9874659777
4.858215332 -3.945349455 1.208265424
4.859241962 -3.948998928 1.435634255
4.859798908 -3.9522686 1.666846752
2.344009876 -1.911046624 -0.7987676859
2.645613909 -2.158478975 -0.7783272266
3.096391678 -2.527155638 -0.7686414719
3.721602917 -3.039593935 -0.7543786168
4.629990578 -3.784208536 -0.7290790081
4.515005589 -3.691543341 -0.506523788
4.881662846 -3.994172335 -0.3283569515
4.879952908 -3.99561739 -0.1093898863
4.201118946 -3.426348925 0.0939270556
4.857139587 -3.964210272 0.3263681829
4.833964825 -3.946702003 0.5422576666
4.81358242 -3.932861805 0.7580838799
4.859324455 -3.973064184 0.9874659777
4.853531837 -3.969741106 1.210555196
4.837887764 -3.959765434 1.433384776
4.839994907 -3.964312315 1.664776206
2.334338665 -1.916765094 -0.7977323532
2.653119802 -2.180072784 -0.7828262448
3.089067936 -2.539195538 -0.7690230608
3.70181632 -3.045036554 -0.7525013685
4.579969883 -3.770068645 -0.7232292891
4.492864132 -3.69968152 -0.5054779649
4.870773792 -4.013728142 -0.328566283
4.861348152 -4.008810997 -0.1092851758
4.192223549 -3.443530798 0.09399686009
4.855615616 -3.991286993 0.3272055387
4.823236465 -3.966082096 0.5426062942
4.830482006 -3.974867582 0.7629587054
4.83780241 -3.983723402 0.9859016538
4.842676163 -3.989155531 1.211318374
4.824036121 -3.97662878 1.433384776
4.83208847 -3.986099958 1.666846752
2.326144934 -1.923670769 -0.7972147465
2.648496389 -2.191805601 -0.7837260962
3.065063 -2.537443161 -0.7652068734
3.682037354 -3.050378323 -0.7506241798
4.643192768 -3.849380016 -0.7354161739
4.476854801 -3.712798357 -0.5051293373
4.859807014 -4.033257008 -0.3287756145
4.848863125 -4.027033329 -0.1093200818
4.174015045 -3.453045368 0.09385724366
4.78481102 -3.962561131 0.5398172736
4.847146511 -4.017037868 0.7678334713
4.829948425 -4.005630016 0.9871531129
4.825699329 -4.003528118 1.210555196
4.832616329 -4.012115479 1.440133333
4.809229374 -3.995535851 1.663740873
2.314962626 -1.928069711 -0.7956618071
2.637835741 -2.198541403 -0.7828262448
3.09388423 -2.57955718 -0.7747473717
3.659233093 -3.053088665 -0.7481212616
4.621257782 -3.857123852 -0.733953774
4.466926098 -3.730957508 -0.5054779649
4.844166756 -4.048915386 -0.3286709487
4.838550568 -4.045655727 -0.1093898863
4.158863068 -3.465034246 0.09378743172
4.472393036 -3.727579117 0.3029216528
4.738818645 -3.952440262 0.5361567736
4.810234547 -4.014853001 0.764177382
4.822704315 -4.026689529 0.988404572
4.802656174 -4.012795925 1.208265424
4.807323456 -4.018120766 1.436534166
4.792989731 -4.008982658 1.662705541
