# .PCD v0.7 - Point Cloud Data file format
VERSION 0.7
FIELDS x y z
SIZE 4 4 4
TYPE F F F
COUNT 1 1 1
WIDTH 1441
HEIGHT 1
VIEWPOINT 0 0 0 1 0 0 0
POINTS 1441
DATA ascii
-0.12276721 -0.9670794 1.2014701
-0.12253618 -0.96835017 1.3919201
1.3708482 2.6842809 -0.28794977
1.3730501 2.6891155 -0.24234244
-0.10358429 -0.81929946 -0.95515668
-0.11058068 -0.83750486 -0.77823544
1.3260961 2.5752978 -0.12937225
1.3482611 2.6276677 -0.077689528
1.3533481 2.6394424 -0.032880887
0.14321756 -0.27194953 0.24964449
0.13370085 -0.29603767 0.40593353
-0.12422466 -0.91632438 0.64164114
-0.12806654 -0.92943192 0.82484132
-0.13621783 -0.95064569 1.0127193
-0.13711452 -0.95686412 1.2008129
-0.14357471 -0.97423196 1.395714
1.3874555 2.733814 -0.27370727
1.3715634 2.6960735 -0.24091502
-0.12590766 -0.8290751 -0.95844251
-0.13300061 -0.84735465 -0.78090209
1.3560557 2.657403 -0.11823324
1.350513 2.6440067 -0.076173395
1.3494172 2.6410987 -0.032824591
0.12964845 -0.26625466 0.24983864
0.12701321 -0.27377272 0.40463337
-0.14838791 -0.92986417 0.64445758
-0.1506896 -0.93921423 0.82780957
-0.15505743 -0.95123982 1.0144398
-0.16122913 -0.96998692 1.2059007
-0.16018534 -0.96932578 1.3964511
1.3891599 2.7477608 -0.26997745
1.3647426 2.690505 -0.2426922
-0.14217138 -0.82218146 -0.95820916
-0.14850688 -0.84077692 -0.78067958
1.355886 2.6682525 -0.11691612
1.3589386 2.6750507 -0.073197111
1.3374246 2.6245003 -0.033892229
0.10991669 -0.27308202 0.25071931
0.1111052 -0.27352309 0.40532678
-0.17033362 -0.93781042 0.64656913
-0.16573811 -0.92852879 0.82743806
-0.17322016 -0.947788 1.0154258
-0.18324542 -0.97546101 1.2092344
-0.1806376 -0.97112823 1.3992397
1.3798296 2.7370574 -0.27359778
1.3652257 2.7030034 -0.23988645
-0.16624308 -0.83108211 -0.96146876
1.3640715 2.6991041 -0.15503648
1.3413976 2.6464002 -0.1201262
1.3515598 2.669548 -0.073865339
1.3393686 2.6410508 -0.032928124
-0.18932223 -0.93399501 0.64729136
-0.19090629 -0.93924046 0.83073789
-0.19453716 -0.94932699 1.0175459
-0.20692754 -0.98227072 1.2130237
-0.20424461 -0.97781873 1.4035712
1.3595486 2.7003322 -0.19776897
1.3536129 2.6864216 -0.15754189
1.3134452 2.5936399 -0.12761275
1.3451338 2.6658206 -0.074353531
1.3336381 2.639184 -0.033093486
1.2149358 2.3663034 0.00428438
-0.20830774 -0.93010545 0.64801425
-0.21063924 -0.93930984 0.83219755
-0.2150588 -0.9511373 1.0196551
-0.22288465 -0.97322226 1.212823
-0.22402072 -0.97766542 1.4058527
0.10980725 -0.11552644 -1.1231585
1.3534379 2.6965773 -0.19888271
-0.2108953 -0.84821057 -0.78509247
1.3149641 2.6081331 -0.12579355
1.3485202 2.6839044 -0.072659537
1.327291 2.6354232 -0.033373866
1.2358885 2.4269805 0.0057195611
-0.22722769 -0.93050718 0.64918584
-0.22956657 -0.93966269 0.83364612
-0.23871684 -0.96222973 1.0236233
-0.24108768 -0.97164011 1.2143794
-0.24762368 -0.98843527 1.4111834
0.099860668 -0.10272026 -1.1208684
-0.21655202 -0.81769323 -0.96234423
-0.23362947 -0.85760665 -0.78775167
1.3099079 2.6081948 -0.1259833
1.3534446 2.7056792 -0.070600323
1.3225355 2.6353412 -0.033428989
1.2342606 2.436445 0.0059605939
-0.25418711 -0.94900584 0.65271902
-0.24536347 -0.93053174 0.83358157
-0.2624712 -0.97321773 1.0275933
-0.26171207 -0.97318769 1.2168335
-0.2635901 -0.9792583 1.410916
0.085440874 -0.096319199 -1.1206591
-0.24002385 -0.82443476 -0.96520919
-0.252424 -0.85356522 -0.78814268
1.3072853 2.6137061 -0.12541904
1.3503535 2.7092376 -0.070361659
1.3140864 2.6281772 -0.03392677
1.2179561 2.4130669 0.005436359
0.0010688305 -0.32770443 0.41420189
-0.27404952 -0.9488616 0.65390539
-0.27639031 -0.9556582 0.83931834
-0.28160715 -0.96898913 1.0285964
-0.28637719 -0.98140526 1.2210706
-0.28501606 -0.98239827 1.4142208
0.065338612 -0.1042285 -1.1246583
-0.26275992 -0.83143353 -0.96808434
-0.26713538 -0.84262872 -0.78726411
1.3053036 2.6211236 -0.12460081
1.3481033 2.7146177 -0.069941357
1.3132074 2.6373327 -0.033417318
-0.0089845657 -0.30821037 0.25585151
-0.015038252 -0.32484174 0.41474631
-0.29314065 -0.94463873 0.65463239
-0.2954917 -0.95140243 0.84018397
-0.29910088 -0.96327043 1.029214
-0.30949426 -0.98810506 1.2248552
-0.31049252 -0.99212575 1.4195805
0.06125617 -0.076963186 -1.1181605
-0.28720546 -0.84189677 -0.97173536
-0.2916615 -0.85318375 -0.79022759
1.3052309 2.632051 -0.12328403
1.3500292 2.7290549 -0.068613008
1.3107243 2.642848 -0.033132639
-0.020088434 -0.29440808 0.25567296
-0.03444314 -0.32917595 0.41595891
-0.31139731 -0.94071794 0.65534782
-0.32192326 -0.96544957 0.8440932
-0.32144833 -0.96822381 1.0320779
-0.32785416 -0.98404193 1.2259853
-0.33363318 -0.99859118 1.4239094
0.037879467 -0.091748714 -1.124257
-0.30433702 -0.83622074 -0.97188538
-0.31297588 -0.85645723 -0.79190874
1.3129237 2.659081 -0.11971231
1.3478734 2.7344251 -0.068193793
1.3040879 2.6393013 -0.033408046
1.2045459 2.4145427 0.058298998
-0.32005191 -0.91286707 0.28935468
-0.33035278 -0.93678117 0.47278097
-0.337924 -0.95478344 0.65842843
-0.33941746 -0.96178246 0.84493667
-0.34630847 -0.97843862 1.0360665
-0.34456277 -0.97852111 1.226661
-0.35921931 -1.0123758 1.4302694
0.031402111 -0.071765661 -1.1198691
-0.32229996 -0.83441591 -0.97282434
-0.33602118 -0.86538625 -0.79456055
1.305703 2.6536741 -0.12065909
1.347621 2.743319 -0.067414701
1.3001571 2.6411209 -0.033350296
1.203232 2.4239564 0.058256984
-0.34496331 -0.92557716 0.29065654
-0.35782409 -0.95483255 0.47535154
-0.35790777 -0.9564898 0.65984339
-0.35691094 -0.9580524 0.84578073
-0.36878085 -0.98535967 1.0392957
-0.36779451 -0.98711133 1.2308799
-0.37682533 -1.0084817 1.4315257
0.011877537 -0.079717159 -1.1238749
-0.34779263 -0.84851909 -0.97726005
1.3033019 2.6591716 -0.12009728
1.3489295 2.7558956 -0.066270709
1.2928357 2.6357236 -0.033739608
1.2062023 2.4424238 0.058075666
-0.36574841 -0.92692304 0.2913878
-0.3744905 -0.94927096 0.47575158
-0.37792706 -0.9581151 0.66125941
-0.37941027 -0.9628253 0.84816641
-0.38634825 -0.98149848 1.0402792
-0.38783193 -0.98636436 1.232898
-0.39690065 -1.0076368 1.4338162
0.0058302879 -0.055564642 -1.1184193
-0.37083125 -0.85287142 -0.97972673
-0.3789258 -0.87146211 -0.7979157
1.3017833 2.6664643 -0.11928505
1.3477591 2.7630513 -0.065671705
1.2936122 2.6486022 -0.033005178
1.173261 2.3849826 0.059065066
-0.38911939 -0.93360448 0.29241297
-0.39705157 -0.95188332 0.4770129
-0.3988142 -0.95926762 0.66268885
-0.40365291 -0.97107697 0.85116553
-0.40725756 -0.98033762 1.0420371
-0.41702271 -1.0027916 1.23936
-0.41782045 -1.0084603 1.4366187
-0.01107955 -0.056101322 -1.1203159
-0.39396214 -0.85927629 -0.98259228
1.3026792 2.6792176 -0.11771853
1.3440521 2.7648122 -0.065616846
1.2964032 2.6649642 -0.032051709
-0.4091363 -0.93296218 0.29304907
-0.42310309 -0.96379209 0.47910002
-0.41801596 -0.95455146 0.66342133
-0.42374229 -0.97028971 0.85263658
-0.42987823 -0.98481274 1.0449082
-0.43382239 -0.99479985 1.2396086
-0.44456887 -1.0214272 1.4429982
-0.039791822 -0.080887318 -1.1295513
-0.47565746 -0.9848454 -1.2053049
-0.4146018 -0.86027908 -0.98429137
-0.42549539 -0.88645077 -0.80287582
1.3040574 2.6917586 -0.11615898
1.339485 2.7647927 -0.065743037
1.2882178 2.6578169 -0.032552131
1.276335 2.6328807 0.010683868
-0.4265852 -0.92683458 0.29339272
-0.44323587 -0.96299648 0.48001733
-0.44155383 -0.96309829 0.66578811
-0.44641447 -0.97476721 0.85502672
-0.45426226 -0.99490857 1.0488929
-0.45480466 -0.99771023 1.2425045
-0.46726322 -1.0255435 1.4468255
-0.037521601 -0.043417215 -1.1199236
-0.43359447 -0.85982847 -0.98561305
-0.44714475 -0.889153 -0.80454832
1.3044475 2.7025888 -0.11484797
1.3446913 2.7843993 -0.063880429
1.2885158 2.6687641 -0.0319345
1.2863826 2.6635618 0.011409042
-0.46255589 -0.96252275 0.48092321
-0.46341538 -0.9657712 0.66745806
-0.46401215 -0.97065234 0.85587525
-0.47787213 -1.000948 1.052142
-0.47667074 -1.0001252 1.2454138
-0.48497248 -1.0212626 1.4480863
-0.042518377 -0.019528866 -1.1144814
-0.45603013 -0.8641839 -0.98808604
-0.46714497 -0.89039302 -0.80591226
1.300724 2.7044039 -0.11479244
1.341059 2.786171 -0.063826263
1.2750007 2.6509185 -0.033101808
1.2770442 2.6547709 0.011220152
1.242926 2.5777936 0.056482714
-0.47637463 -0.94710922 0.29583257
-0.48273253 -0.96156597 0.4818424
-0.4897089 -0.97946978 0.67053944
-0.49282861 -0.98738599 0.8604117
-0.50156832 -1.0090597 1.0557553
-0.50456834 -1.0168877 1.2518589
-0.50436735 -1.0182426 1.4498712
-0.061117172 -0.023307323 -1.1174245
-0.49481702 -0.89757252 -1.188128
-0.48026729 -0.87195492 -0.99133396
-0.4791708 -0.87128568 -0.80373788
1.2913244 2.6957588 -0.11623254
1.3436255 2.8004475 -0.062506117
1.268039 2.6476686 -0.033371147
1.2709824 2.6532998 0.011201353
1.2754688 2.6553824 0.055362556
-0.50089979 -0.95287228 0.29687813
-0.50732851 -0.9694674 0.48360115
-0.5090344 -0.97439599 0.67127645
-0.52175975 -1.0017872 0.86465728
-0.51750469 -0.99683714 1.0552694
-0.52913547 -1.0221775 1.2556713
-0.52972269 -1.0251422 1.4547374
-0.081493616 -0.03045392 -1.1214141
-0.51132536 -0.88939857 -1.1878808
-0.50107121 -0.87259698 -0.99302787
-0.50353098 -0.87904119 -0.80636525
1.2998147 2.7225575 -0.11267129
1.3355944 2.7933156 -0.06335628
1.2612518 2.6443515 -0.033642918
1.2785084 2.6717284 0.055196535
-0.5193305 -0.94820166 0.29732391
-0.53200889 -0.97725463 0.48536178
-0.52751637 -0.96966243 0.67200154
-0.5359323 -0.988132 0.86398983
-0.53777695 -0.99554229 1.0570217
-0.55033064 -1.0225308 1.2581419
-0.55345964 -1.0306101 1.4590811
-0.094975471 -0.023726225 -1.1212115
-0.53307533 -0.89159489 -1.19037
-0.51925516 -0.86789751 -0.99355692
-0.5297513 -0.89021039 -0.80962926
1.3031194 2.7386556 -0.11061294
1.3355821 2.802232 -0.06257952
1.2436429 2.6196718 -0.035246454
1.1352319 2.4037175 0.0054600094
1.2700064 2.6647971 0.055399332
-0.54408216 -0.95816541 0.29854387
-0.5549891 -0.9813633 0.48678857
-0.55843925 -0.98971963 0.67605036
-0.56246305 -1.0013714 0.8679074
-0.56421971 -1.0064638 1.0614024
-0.5680685 -1.0158176 1.2588392
-0.57641459 -1.0363979 1.4634138
-0.1154511 -0.030706882 -1.1251986
-0.53105021 -0.84900737 -1.1810137
-0.53921628 -0.86662459 -0.99486119
-0.55704594 -0.90519071 -0.81354147
1.3004162 2.7422431 -0.11030869
1.3374321 2.8146868 -0.06144233
1.238742 2.6199117 -0.035297185
1.160177 2.4650469 0.0068936893
-0.2085681 -0.25146699 0.10217093
1.2722938 2.6785641 0.098655447
-0.57443094 -0.97825503 0.48754478
-0.57884574 -0.99054408 0.67747766
-0.57303619 -0.98053479 0.8660143
-0.58992457 -1.0176871 1.0657728
-0.59372568 -1.0268815 1.2639616
-0.60028362 -1.0416546 1.4677612
-0.11943054 -0.0070393085 -1.1197695
-0.5473876 -0.84070778 -1.1807672
-0.56375718 -0.87615943 -0.99850309
-0.57356763 -0.89678645 -0.81329203
1.295729 2.7424028 -0.11050146
1.3431745 2.8341157 -0.059586957
1.2345369 2.6220551 -0.03523365
1.1590824 2.4745846 0.0071297251
-0.20734191 -0.2139616 0.10189812
-0.58737421 -0.96088409 0.30012897
-0.59213996 -0.97372079 0.48812106
-0.60282683 -0.99616647 0.67963123
-0.60679984 -1.0054789 0.87209451
-0.61212301 -1.019604 1.0682802
-0.62032771 -1.0373957 1.2690988
-0.62071443 -1.0399091 1.4700632
-0.13282895 -0.00017929077 -1.1195667
-0.57445455 -0.85309577 -1.1859906
-0.58740473 -0.88167596 -1.0013554
-0.59550977 -0.89884353 -0.81495577
1.2928613 2.7461061 -0.11019444
1.3369693 2.8305855 -0.060075734
1.2303398 2.6242132 -0.035170071
1.1497788 2.4681282 0.0069961422
-0.61501312 -0.97365284 0.30156386
-0.61796594 -0.98287296 0.49005607
-0.62233949 -0.99284673 0.68059844
-0.62542415 -1.0003541 0.87296283
-0.62809062 -1.0091891 1.0681601
-0.64525318 -1.0443096 1.2733504
-0.64380717 -1.0432425 1.4739016
-0.1497848 -0.00011324883 -1.1214573
-0.57997441 -0.82393813 -1.1802734
-0.60930443 -0.883605 -1.0034308
-0.61840868 -0.90255547 -0.81693685
1.3010368 2.7709224 -0.10689126
1.3334985 2.8323839 -0.060023036
1.2298449 2.6334682 -0.034663782
1.1462073 2.4722342 0.0071053402
-0.63090396 -0.96543884 0.30180499
-0.64021897 -0.98482513 0.49131998
-0.63912201 -0.98415828 0.68085313
-0.6550107 -1.0184133 0.87780857
-0.65213633 -1.0144255 1.0714211
-0.66040254 -1.0320561 1.2727195
-0.66876912 -1.0520675 1.4792641
-0.15955663 0.013681412 -1.1191607
-0.6099453 -0.84345388 -1.1873292
-0.62941623 -0.88196874 -1.0047302
-0.64053679 -0.90659761 -0.81892914
1.2975403 2.7727485 -0.10683803
1.3328168 2.8394823 -0.059429694
1.2175283 2.6196272 -0.035598788
1.1424192 2.4764733 0.0072180154
-0.6513021 -0.9638164 0.30245385
-0.66897368 -0.9990449 0.49376383
-0.66330695 -0.9916935 0.68323576
-0.67187381 -1.0096049 0.87806529
-0.67722297 -1.0234787 1.0754224
-0.68637586 -1.0426776 1.2778491
-0.6946671 -1.060333 1.4846412
-0.17221808 0.020330429 -1.1189678
-0.63174915 -0.84519601 -1.1898137
-0.65056562 -0.88414979 -1.0068159
-0.66262102 -0.9083643 -0.82058871
1.2985195 2.7834463 -0.10553444
1.3370179 2.8552806 -0.057938974
1.1946067 2.5865626 -0.037744127
-0.67730904 -0.97271252 0.30369657
-0.68958592 -0.9994607 0.49484977
-0.68933582 -1.0004337 0.68587089
-0.69238925 -1.0077322 0.87955058
-0.70415688 -1.0337083 1.0798143
-0.70603418 -1.0389218 1.2794403
-0.71165824 -1.0513628 1.4849007
-0.1800456 0.037580252 -1.1156253
-0.67292213 -0.88288426 -1.201862
-0.67165208 -0.88407373 -1.0085005
-0.68288422 -0.90655351 -0.82160991
1.2958198 2.7871275 -0.10522938
1.3439703 2.8763978 -0.055907067
-0.70153069 -0.9779582 0.3047435
-0.70919991 -0.99582505 0.49561244
-0.71359372 -1.005543 0.68803209
-0.71940947 -1.017993 0.88318682
-0.72382903 -1.0299261 1.081201
-0.73117876 -1.0454249 1.2836978
-0.73223925 -1.0491672 1.4872087
-0.18961477 0.051443338 -1.1133301
-0.68937778 -0.87408996 -1.2016097
-0.69929957 -0.89599276 -1.0128942
-0.70128727 -0.90118456 -0.82199335
1.2884241 2.7820835 -0.10617106
1.3321459 2.8623948 -0.05747553
-0.7277081 -0.98661304 0.30599013
-0.73446584 -1.0026519 0.49738789
-0.73604155 -1.0070405 0.68971866
-0.74000239 -1.0159283 0.88467455
-0.74443126 -1.0277977 1.0829644
-0.75272179 -1.0449326 1.2861798
-0.7601285 -1.0605247 1.4936148
-0.2083559 0.048380136 -1.1162651
-0.70580268 -0.86523795 -1.2013574
-0.72799945 -0.90949893 -1.0176722
-0.72912741 -0.91308546 -0.82555956
1.295221 2.8032212 -0.10337356
1.3306904 2.8677096 -0.057064213
-0.68287015 -0.83426762 -0.25286537
1.1389407 2.514607 0.0081525063
-0.38553834 -0.31234074 0.10587466
-0.74732828 -0.9828434 0.3065452
-0.76075864 -1.0111129 0.49933395
-0.75475836 -1.0014501 0.69045383
-0.77187538 -1.0346467 0.88985151
-0.77251196 -1.0394154 1.0877379
-0.77429152 -1.0443499 1.2886628
-0.78262401 -1.0615368 1.4969499
-0.2271421 0.045401812 -1.1191992
-0.72219658 -0.85632944 -1.2011048
-0.74548554 -0.90222549 -1.0178041
-0.75137949 -0.91446471 -0.82721388
1.2983389 2.8173404 -0.10157463
1.3273492 2.8695297 -0.057012688
-0.70680809 -0.8394115 -0.25349542
1.1862845 2.6117806 0.010401211
-0.76312828 -0.97197986 0.30670422
-0.78427982 -1.0142 0.50077552
-0.78296447 -1.0132265 0.69357258
-0.79163003 -1.0306365 0.89103484
-0.7950747 -1.0405405 1.0902565
-0.79402685 -1.0402479 1.2902577
-0.81069613 -1.0726428 1.5033602
-0.23848677 0.056014061 -1.1179496
-0.73855805 -0.84736371 -1.200852
-0.76580667 -0.90003586 -1.0190964
-0.77749777 -0.92265749 -0.83013952
1.2928983 2.8158 -0.1020183
1.3317277 2.8853059 -0.055524047
-0.78590131 -0.94405413 -0.26039416
1.1878579 2.6246085 0.01070812
-0.7875452 -0.97681856 0.30775681
-0.80305886 -1.0084469 0.50137395
-0.8112824 -1.0248656 0.69669354
-0.80948615 -1.0230825 0.89160365
-0.8242867 -1.0536244 1.0954103
-0.82220364 -1.051455 1.2958553
-0.83051634 -1.0683525 1.5051609
-0.25166512 0.063289642 -1.1177455
-0.75488925 -0.83834052 -1.2005991
-0.78997087 -0.90461612 -1.0219349
-0.7960062 -0.91693115 -0.83051872
1.2942107 2.8264148 -0.10071897
1.3332994 2.8958206 -0.054575495
-0.8210187 -0.96796942 -0.26222444
1.1807504 2.6216917 0.010652614
1.1040567 2.4765687 0.0597388
-0.81589937 -0.98853421 0.30920866
-0.82279515 -1.004365 0.50214201
-0.83394432 -1.0259416 0.69838625
-0.83689117 -1.0327532 0.89524937
-0.84316683 -1.0476534 1.0964265
-0.85143209 -1.0642323 1.3019
-0.85220957 -1.0673673 1.5079876
-0.27240181 0.057156563 -1.121722
-0.77119017 -0.82925963 -1.2003459
-0.81804991 -0.9159236 -1.0263184
-0.82128596 -0.92317939 -0.83312303
1.2858582 2.8197138 -0.10190905
1.3329854 2.9028406 -0.053986754
-0.8426342 -0.96732664 -0.26251352
1.1755736 2.6222961 0.010677824
1.1052085 2.489661 0.059633624
-0.84339309 -0.99836636 0.31056345
-0.85030603 -1.0141249 0.50426364
-0.85471034 -1.0234504 0.69960302
-0.86439562 -1.0422916 0.89889723
-0.86490798 -1.0467577 1.0985729
-0.88363075 -1.0819736 1.3092819
-0.87110543 -1.061224 1.5092773
-0.28175998 0.071264267 -1.119427
-0.78745794 -0.82012272 -1.2000926
-0.84042621 -0.91685581 -1.0283799
-0.84469223 -0.92587399 -0.8350898
1.2940991 2.8424017 -0.098869249
1.3336966 2.9115839 -0.053219192
1.1696172 2.6210635 0.01066003
1.0926989 2.4783373 0.059944451
-0.86132431 -0.99287558 0.31101128
-0.87400913 -1.016803 0.50571078
-0.87549043 -1.0208728 0.7008208
-0.88824344 -1.047009 0.90161061
-0.88956189 -1.0509062 1.1018497
-0.89879107 -1.0689497 1.308658
-0.90144539 -1.0774024 1.5172195
-0.29680538 0.075339794 -1.1202669
-0.80288267 -0.81138992 -1.1998518
-0.8589437 -0.91087675 -1.0288943
-0.87124038 -0.93579316 -0.83833921
1.2957647 2.8528645 -0.097574987
1.3285315 2.9099345 -0.053527899
1.1495538 2.5956666 0.010087774
1.0862635 2.4773831 0.060073838
-0.88205886 -0.99031615 0.311672
-0.9016974 -1.0263081 0.50783664
-0.89740157 -1.0221446 0.70250374
-0.9110527 -1.047699 0.90372312
-0.91536522 -1.0588429 1.1058685
-0.91784906 -1.0648484 1.3102459
-0.92801857 -1.0845311 1.522614
-0.30539966 0.089131832 -1.1179826
-0.81908679 -0.80214286 -1.1995982
-0.87956548 -0.91039896 -1.0305802
-0.89378452 -0.93655729 -0.83998501
1.2923703 2.8548055 -0.097521834
1.3354394 2.9289317 -0.051688701
-0.65070844 -0.52056026 -0.23523633
-0.7062614 -0.61829424 -0.063663594
1.0785841 2.4748573 0.060237303
-0.90975523 -0.99980617 0.313032
-0.92369103 -1.0275152 0.50910443
-0.92413783 -1.0297339 0.70515662
-0.9358604 -1.0517218 0.90645283
-0.94112825 -1.0644662 1.1095258
-0.94742656 -1.0771194 1.3162988
-0.94988346 -1.0831394 1.5254461
-0.32428885 0.08662796 -1.1209111
-0.83525968 -0.79283881 -1.1993444
-0.90400195 -0.91444874 -1.0334111
-0.91140723 -0.92868567 -0.84004152
1.2879863 2.855042 -0.097717114
1.3343122 2.9341807 -0.05128143
-0.6819098 -0.53944445 -0.23674926
-0.71172166 -0.59204841 -0.063023329
1.0318949 2.4048185 0.061574209
-0.93555427 -1.0057003 0.31419453
-0.94358158 -1.0229616 0.50987828
-0.95195389 -1.0389152 0.70805043
-0.96073079 -1.055629 0.90918428
-0.96402597 -1.0648627 1.1120545
-0.97615218 -1.0875516 1.3219092
-0.96887779 -1.0766282 1.5267402
-0.32563639 0.11418533 -1.1144396
-0.8513999 -0.7834785 -1.1990905
-0.92651439 -0.91499925 -1.0354677
-0.93400002 -0.92926788 -0.84168512
1.2847687 2.8569114 -0.097666472
1.3332155 2.9394267 -0.050874524
-0.69511914 -0.52713776 -0.23629072
-0.7667315 -0.65257406 -0.064376287
-0.96460032 -1.018872 0.31574538
-0.96748042 -1.0252194 0.5113312
-0.97288203 -1.035944 0.70927322
-0.98481083 -1.059917 0.91190398
-0.98301411 -1.0583639 1.1130763
-0.99141026 -1.076417 1.3217196
-0.99767637 -1.0889373 1.5336653
-0.3477881 0.1047647 -1.1194659
-0.8667028 -0.77453351 -1.1988491
-0.94224858 -0.90579963 -1.0352196
-0.95479441 -0.92853785 -0.84302324
1.2845826 2.8639193 -0.096870907
1.3323028 2.9445789 -0.050470382
-0.76126504 -0.60941625 -0.063352063
-0.98568678 -1.018115 0.31649855
-0.99461174 -1.0347443 0.51345104
-0.99398136 -1.0350962 0.71072274
-1.0089505 -1.0641005 0.91462529
-1.007092 -1.0624638 1.1163476
-1.0223663 -1.0921693 1.3286561
-1.0236619 -1.0961015 1.5390532
-0.35915804 0.1136961 -1.1187488
-0.88197613 -0.76553845 -1.1986076
-0.70004964 -0.46314168 -0.93575841
1.2966058 2.8913879 -0.093097299
1.3242953 2.9377401 -0.05131818
-0.79637337 -0.63511992 -0.063907593
1.1324899 2.6077571 0.058370866
-1.0047684 -1.0138316 0.31705248
-1.0248747 -1.0492902 0.51608229
-1.0171223 -1.0375824 0.71265167
-1.0291348 -1.061367 0.91611463
-1.0362146 -1.0749187 1.1215062
-1.0356491 -1.0775266 1.3275769
-1.0497255 -1.1031461 1.5444431
-0.37248039 0.11935067 -1.1190751
1.2873905 2.8830132 -0.094536901
1.3264699 2.9480355 -0.050377954
-0.81115103 -0.62631917 -0.063673042
1.1253901 2.6049931 0.058526084
-1.0299788 -1.0197747 0.31820834
-1.0430446 -1.0431352 0.51667786
-1.0464001 -1.0502095 0.71601784
-1.0533688 -1.0653493 0.91883862
-1.0594325 -1.0771003 1.1244041
-1.0677698 -1.0947094 1.334963
-1.0709357 -1.101759 1.5472683
1.2805293 2.8801847 -0.095220789
1.3241334 2.9517596 -0.050145801
-0.82822561 -0.61606717 -0.063401289
1.1227705 2.6112199 0.05853935
-1.0536878 -1.0172296 0.3190051
-1.0627215 -1.0336759 0.51714438
-1.0752845 -1.0560493 0.71870899
-1.0802186 -1.0676847 0.92160505
-1.082232 -1.0725834 1.126212
-1.0924561 -1.0912616 1.3375045
-1.0947413 -1.0987353 1.5501351
1.2825565 2.890554 -0.093931183
1.3169425 2.9467964 -0.050811224
-0.84371233 -0.60669136 -0.063154124
1.1249603 2.6239104 0.058419622
-1.0839987 -1.0292704 0.32057941
-1.0930517 -1.0456262 0.51962507
-1.09554 -1.053092 0.71992445
-1.1033804 -1.067539 0.92372859
-1.1065428 -1.0762432 1.1294897
-1.1177673 -1.0964513 1.3417754
-1.121846 -1.104918 1.5555438
1.2855222 2.9026892 -0.092392035
1.3140304 2.9485707 -0.050764646
-0.85916758 -0.59726024 -0.062906809
1.1218138 2.6281619 0.058455814
-1.1040339 -1.0241008 0.32115129
-1.1164274 -1.0477319 0.52107382
-1.1145933 -1.0461431 0.72067535
-1.1347947 -1.0807936 0.92832345
-1.1297221 -1.0759161 1.1320276
-1.1460283 -1.1043348 1.3469535
-1.1510358 -1.1142743 1.5619813
1.2885664 2.9147925 -0.090854004
1.317256 2.9606156 -0.049645655
-0.87459064 -0.58777499 -0.062659346
1.0611063 2.5387113 0.060187191
-1.124069 -1.0188503 0.32172391
-1.1427836 -1.0526099 0.52287811
-1.1460955 -1.0594273 0.72430295
-1.1539385 -1.0736766 0.92921507
-1.159095 -1.0855322 1.1368326
-1.1672494 -1.1004434 1.3490123
-1.1752782 -1.1152444 1.5658529
1.2646427 2.884625 -0.21066062
1.308642 2.9545245 -0.15565932
1.2962315 2.9343853 -0.12406547
1.2895885 2.9234951 -0.089812361
1.3163459 2.9658642 -0.049240682
-0.88920999 -0.57871556 -0.062424172
-0.93542194 -0.67519498 0.11876003
-1.1506174 -1.0259326 0.32298845
-1.1671147 -1.0539739 0.52434361
-1.1725049 -1.0641074 0.72673452
-1.1784499 -1.0770986 0.93194699
-1.1906345 -1.0983462 1.1423953
-1.193603 -1.1047566 1.3533022
-1.1956584 -1.1117067 1.5681708
1.2937591 2.9384472 -0.2336228
1.2864065 2.9261415 -0.1997228
1.2867999 2.926511 -0.16254729
1.2974782 2.9429145 -0.12275119
1.2876534 2.9270396 -0.08951661
1.3334721 2.9997895 -0.045807809
0.81351674 2.1705201 -0.066306897
-0.9258182 -0.60300493 -0.062951252
-0.918571 -0.61502719 0.11806976
-1.1780922 -1.0323634 0.32426861
-1.1872737 -1.0484624 0.52512878
-1.208051 -1.0865872 0.93593037
-1.2110627 -1.094861 1.144169
-1.2243145 -1.1177607 1.3598106
-1.2169061 -1.1075504 1.5705031
1.2970176 2.9500768 -0.23044772
1.2968203 2.9494998 -0.19377591
1.2890675 2.9366717 -0.16057265
1.2965105 2.948185 -0.12206829
1.2877026 2.9340396 -0.088723585
1.3232828 2.9897237 -0.047009882
-1.204031 -1.007658 -0.2705656
-0.98826933 -0.66766095 -0.064401895
-0.98727012 -0.68997502 0.11987502
-1.2056496 -1.0386591 0.32555088
-1.2108219 -1.0501542 0.52658302
-1.2141166 -1.0568147 0.72918946
-1.2198937 -1.0674777 0.93466103
-1.2386177 -1.100739 1.1482247
-1.2477202 -1.1168568 1.3627658
1.2877212 2.9422448 -0.23352519
1.2948089 2.9530747 -0.19327289
1.2838523 2.9353244 -0.16129279
1.2902615 2.9451275 -0.12296809
1.2845922 2.9360082 -0.088673174
1.3139434 2.9814904 -0.048030321
-1.2337666 -1.0171866 -0.27159211
-0.97815323 -0.6172483 -0.063222677
-0.99444652 -0.66652393 0.11988023
-1.2215292 -1.0262606 0.32572439
-1.2405932 -1.0596232 0.52890551
-1.2417338 -1.0628374 0.73186553
-1.2886887 -1.1385169 0.9500888
-1.2641532 -1.1031628 1.1515263
-1.2914288 -1.1496248 1.5911068
1.2877705 2.9490786 -0.2319119
1.2928154 2.9566526 -0.19277003
1.2871137 2.9472079 -0.15893163
1.2871885 2.9470859 -0.12291817
1.2943652 2.9580228 -0.085655577
1.3045404 2.9733121 -0.049049594
0.79623902 2.1814685 -0.066026807
-1.0303705 -0.66456246 -0.0642782
-1.0187132 -0.67004299 0.1203848
-1.2567039 -1.0441167 0.32771713
1.2931154 2.9640012 -0.2276942
1.2866009 2.9536967 -0.19408044
1.2915182 2.960705 -0.15618661
1.2884176 2.9556847 -0.12160311
1.2848647 2.9499736 -0.087089278
1.3091446 2.9869297 -0.047756869
-1.2859566 -1.0240569 -0.27288091
-1.0742629 -0.69813442 -0.065020271
-1.0884874 -0.74408007 0.12220955
-1.2887998 -1.0567462 0.32940972
1.1461326 2.7265027 0.28076929
1.0973921 2.6498671 0.39756975
1.2879919 2.9627135 -0.22868682
1.2835557 2.9556653 -0.19403073
1.2884986 2.9626579 -0.15613732
1.2853816 2.9576497 -0.12155353
1.2807252 2.9502904 -0.08728645
1.3083966 2.992162 -0.047353756
0.78478467 2.1888676 -0.065839864
-1.1044147 -0.73378706 0.12246952
-1.3145027 -1.0591533 0.33049759
1.1352334 2.7193651 0.14689907
1.1313086 2.7130136 0.19286627
1.148662 2.7395186 0.23350818
1.1401762 2.725683 0.28158829
1.1420102 2.7281969 0.3269223
1.1541661 2.7466583 0.36780444
1.284977 2.9646759 -0.22863749
1.2815888 2.9592717 -0.19352792
1.2854855 2.9646213 -0.15608799
1.2888643 2.9695246 -0.11960732
1.2765813 2.9506249 -0.087483399
1.307678 2.9973893 -0.046951007
0.77907729 2.1925969 -0.065746345
-1.3472781 -1.0453091 -0.072900929
-1.3248463 -1.036495 0.12863591
-1.3468153 -1.0714738 0.33219525
1.1520767 2.7535806 0.14371306
1.1437119 2.7404821 0.18932295
1.1535201 2.7552254 0.23109333
1.1449306 2.741343 0.27862409
1.1509676 2.7502899 0.32162476
1.1525269 2.7523499 0.36683699
1.2851727 2.9714754 -0.22702602
1.2828712 2.9677505 -0.19166626
1.2803109 2.9633236 -0.15680809
1.27933 2.9616115 -0.12145429
1.276969 2.9574955 -0.086695112
1.3003901 2.992646 -0.047613449
0.81968296 2.2662876 -0.061123669
-1.3700333 -1.0446856 -0.072864212
-1.3560879 -1.0470889 0.12932588
-1.3871758 -1.0975432 0.33469316
1.1439643 2.749373 0.14445873
1.1595707 2.7728262 0.18505523
1.1391317 2.7410395 0.2342483
1.1422384 2.7454662 0.27830756
1.1399274 2.741221 0.32481045
1.1341389 2.7320633 0.3740986
1.2780446 2.9669275 -0.22906187
1.2778599 2.9663932 -0.19252525
1.2774507 2.9652157 -0.15676102
1.2764657 2.9635079 -0.12140714
1.2718887 2.9560995 -0.087141335
1.2998412 2.9977894 -0.04721323
0.80786955 2.2597446 -0.061685015
-1.3983634 -1.0522854 -0.073016219
-1.38659 -1.0580883 0.13000438
1.1364872 2.746089 0.10121558
1.1338013 2.7417619 0.14554447
1.1385484 2.7486463 0.18896267
1.1475422 2.761539 0.2308998
1.1278331 2.7314544 0.28215182
1.1535485 2.7696149 0.31771982
1.1390538 2.7473583 0.37004122
1.274116 2.9672227 -0.22953536
1.2673945 2.9569798 -0.19564791
1.2767879 2.9703743 -0.15594484
1.2658932 2.9539418 -0.1235707
1.2644264 2.9515347 -0.088078067
1.2893226 2.9880452 -0.048408978
0.82495034 2.2963691 -0.059446249
-1.4298596 -1.0625 -0.073227808
1.1149807 2.7220151 0.10290379
1.1490185 2.7723296 0.14269187
1.1371912 2.7543254 0.18854
1.1471293 2.7689414 0.2300313
1.1394647 2.7567472 0.2769106
1.1552815 2.7801797 0.31554574
1.1342354 2.7482553 0.37061784
1.278706 2.9804199 -0.22584271
1.262174 2.955791 -0.19650318
1.2693976 2.9658799 -0.15743324
1.2661744 2.9608905 -0.12257317
1.2613771 2.9535847 -0.088027589
1.2964517 3.0048571 -0.046765868
0.81290269 2.2900338 -0.060003288
1.1066771 2.7179663 0.10337432
1.1486869 2.7797527 0.14223839
1.1312478 2.753535 0.18908335
1.1214142 2.7386134 0.2362915
1.0799159 2.6760991 0.29628739
1.2713943 2.9760377 -0.22787511
1.2624331 2.9626703 -0.19509487
1.2652893 2.966289 -0.15776783
1.2631564 2.9629333 -0.12252308
1.2505038 2.9441695 -0.089702688
1.286855 2.9969215 -0.04778095
0.86379659 2.3761706 -0.054541234
0.92584181 2.4668334 0.00732804
1.0848877 2.6941218 0.10506757
1.1260475 2.7541702 0.14521384
1.2596633 2.9653339 -0.23198779
1.2616286 2.9679327 -0.19413967
1.2556148 2.9586308 -0.16002358
1.2590265 2.9633594 -0.12278854
1.2508018 2.9511745 -0.088912241
1.2794526 2.9923265 -0.048440851
0.95711493 2.5228424 -0.045116156
0.94034886 2.4980946 0.0080461204
0.9378376 2.4876051 0.062956117
1.0606704 2.6671171 0.10696772
1.0886188 2.7073381 0.15042293
1.2500525 2.9578753 -0.23505862
1.2630746 2.9763911 -0.19227996
1.2503519 2.9574828 -0.16074143
1.2515185 2.9589329 -0.12400011
1.2522721 2.9597983 -0.087876037
1.2798042 2.9993389 -0.047859207
0.95370901 2.5276115 -0.04493304
0.94823611 2.5193715 0.0085359532
0.94791448 2.512218 0.062614664
1.0339905 2.6369777 0.10907543
1.0485961 2.6574717 0.15598114
1.2524029 2.9679883 -0.23240505
1.2467182 2.9592791 -0.19765852
1.2539136 2.9693384 -0.15838371
-1.5265439 -1.0124836 -0.89780033
1.2413008 2.9504972 -0.089549087
1.2826221 3.0095055 -0.046926934
0.94667268 2.5276308 -0.045067828
0.94940031 2.5307336 0.0087992437
0.93992031 2.5104508 0.062788211
1.0116436 2.6135764 0.11077851
1.0579469 2.6800792 0.1539914
1.2460699 2.9653385 -0.23391473
1.214376 2.9200783 -0.2093638
-1.0139771 -0.24689794 -0.92822522
-1.5434358 -1.0006986 -0.89751691
1.2302572 2.941262 -0.091220774
1.2694664 2.9968247 -0.048469562
0.94099832 2.5291603 -0.045098893
0.94833505 2.5387986 0.0089869704
0.95000136 2.5351102 0.062447134
0.9868356 2.5870428 0.11268912
1.0630848 2.6959307 0.15268344
-0.62632346 0.33218288 -1.1036264
-1.0240877 -0.23260355 -0.92684639
-1.5754311 -1.0120091 -0.90165973
1.2227385 2.9368432 -0.09215562
1.2621168 2.9922519 -0.049129825
0.9505477 2.5517468 -0.043742795
0.94291937 2.5401669 0.0090214973
0.9503336 2.5446489 0.06238883
1.0218072 2.6454663 0.10927977
1.0799792 2.7278948 0.14965117
-0.65701127 0.31366444 -1.1122673
-1.0409753 -0.22787261 -0.92777056
-1.6063905 -1.0215538 -0.90548497
1.224402 2.9453926 -0.091122113
1.2570431 2.9909635 -0.04943629
0.94864583 2.5579917 -0.043457784
0.93634284 2.5399282 0.0090191029
0.94378066 2.5443821 0.06252557
1.027984 2.6621649 0.15693815
-0.65965104 0.33450198 -1.1079127
-1.0509903 -0.21351147 -0.92639208
-1.6397564 -1.034153 -0.90993762
1.2237999 2.9506972 -0.090581059
1.2484696 2.984844 -0.050271701
0.94561148 2.5626121 -0.043279912
0.94140899 2.5559685 0.0093874689
0.9418633 2.5506554 0.062531821
1.0171944 2.6551723 0.15803602
-0.67133021 0.34524822 -1.1071759
-1.0876789 -0.23308849 -0.9334296
-1.6575739 -1.0213614 -0.90963537
1.2122962 2.941854 -0.092244387
1.2417412 2.9823205 -0.050745979
0.93630672 2.5594642 -0.043628246
0.9400568 2.5643327 0.0095808841
0.93252885 2.5475049 0.062742151
1.0291965 2.6808953 0.15569732
-0.66929197 0.37474656 -1.1002051
-1.1129799 -0.23659539 -0.9366281
1.2045354 2.9376707 -0.093174569
1.2423213 2.9892802 -0.050167229
0.93284845 2.5644379 -0.043442748
0.93566084 2.5675211 0.0096557308
0.93863642 2.5652952 0.062521622
1.0039748 2.6548734 0.15887047
-0.69623756 0.36330295 -1.106752
-1.0899584 -0.17565417 -0.92411661
1.1979129 2.9351306 -0.093858421
1.2405839 2.9930146 -0.049941309
0.93436086 2.5756986 -0.042835176
1.0069456 2.6675014 0.15790541
-0.70543575 0.37483358 -1.1055166
-1.0308185 -0.068102598 -0.90012282
1.1996831 2.943681 -0.092826046
1.2390101 2.9966438 -0.049718052
0.93259525 2.5819559 -0.042551491
-1.8248031 -1.1511521 -0.075076103
0.88011003 2.5040364 0.064061806
0.96772408 2.6221395 0.16314654
-0.72036123 0.37864637 -1.106878
-1.0367 -0.049114466 -0.89760178
1.1989784 2.9491405 -0.092282489
1.2207963 2.9779034 -0.051958401
0.92728329 2.583405 -0.042587109
-1.7717168 -1.0436466 -0.072621688
0.96374404 2.6250811 0.1632148
-0.73473239 0.38451481 -1.1077091
-1.0679152 -0.062588453 -0.90311635
1.1851976 2.9371312 -0.094437435
1.2262083 2.9912629 -0.050676506
0.89539528 2.5498848 -0.04495573
-1.8174775 -1.0693762 -0.07320445
-1.422039 -0.56375194 0.12807378
0.95956481 2.6281917 0.16328666
-0.7292707 0.41661835 -1.0997161
1.1797043 2.9362905 -0.094874367
1.21955 2.9887891 -0.051151086
0.88131821 2.5404773 -0.045728002
-1.8634617 -1.0948439 -0.073782481
0.95539677 2.6313167 0.16335854
-0.74178123 0.42605495 -1.0994998
-0.68141389 0.50288677 -0.9199295
1.0632856 2.7904758 -0.16262028
1.1729944 2.9338987 -0.095555954
1.2142189 2.9878261 -0.051451929
0.7895261 2.4296119 -0.053280503
-1.8927193 -1.0977681 -0.07384818
0.92699182 2.6028318 0.1668921
-0.64374495 0.5770483 -0.90077049
1.0476466 2.7775578 -0.16569883
1.1686757 2.9346929 -0.095746987
1.2112973 2.9900527 -0.051401231
0.76521742 2.4079638 -0.054890919
-1.9208286 -1.098959 -0.073875695
0.93722582 2.6250896 0.16488992
-0.56514788 0.70186257 -1.0114253
-0.67837334 0.55448413 -0.90960383
-1.170049 -0.083711386 -0.91749036
1.0417559 2.7770963 -0.16626641
1.1705761 2.9432411 -0.094716012
1.1987891 2.9795616 -0.052756902
0.78004742 2.4368663 -0.053115744
-1.9566789 -1.1117611 -0.07416898
-1.5804093 -0.64449549 0.13182297
0.90900016 2.5965147 0.16842079
-0.71557379 0.52903914 -0.91933566
-1.185432 -0.076803446 -0.91802955
1.0528355 2.7984862 -0.16243853
1.1626234 2.9393516 -0.095641539
1.1972091 2.9833 -0.052532613
0.75093567 2.4088845 -0.055150434
-1.9714386 -1.0952847 -0.07379654
-1.5413911 -0.56347847 0.13059501
0.89762747 2.5901904 0.16953076
-0.59595299 0.70615172 -1.0152029
-0.72709227 0.53798413 -0.91913426
-1.2063296 -0.075483799 -0.9200868
1.0492508 2.8012729 -0.16237584
1.1570835 2.9386315 -0.096076906
1.2004135 2.9934292 -0.051604759
0.73861027 2.4032953 -0.055697888
-1.9417608 -1.0220733 -0.072132684
-1.5542276 -0.54844999 0.13079461
0.89332712 2.5935321 0.16960597
-0.80330062 0.46615243 -1.1000457
-1.2369871 -0.086391687 -0.92520273
1.0456759 2.8040724 -0.16231313
1.1441518 2.9285903 -0.097979553
1.1813247 2.9754839 -0.053828791
0.76580226 2.4479623 -0.052866414
-1.94628 -0.99310446 -0.071478151
-1.576874 -0.5459733 0.13126558
0.89395452 2.6031623 0.16898769
-0.81201863 0.48039341 -1.0982738
-1.2403316 -0.061258554 -0.92150891
1.1496689 2.9419372 -0.096212849
1.1820791 2.9825046 -0.053251334
-1.9556172 -0.97042608 -0.070968248
-1.6193771 -0.56849861 0.13228266
0.86479306 2.5754094 0.17253578
-0.87085056 0.43090272 -1.1182816
1.1476734 2.9460597 -0.095911324
1.1704249 2.9739547 -0.054424442
0.75597072 2.4557595 -0.052693095
-1.9536033 -0.93368626 -0.070139147
-1.6416802 -0.56356716 0.13273692
0.83067787 2.5414393 0.17677827
-0.84629941 0.48546171 -1.1025254
-1.2514181 -0.019790411 -0.9160614
-2.0974226 -1.0712187 -0.95392698
1.1397746 2.9422128 -0.096837066
1.176208 2.9871919 -0.053147554
-1.9049711 -0.83939362 -0.067999505
-1.6774697 -0.57848406 0.13357614
0.81873441 2.5356846 0.17789935
-2.2343836 -1.2874663 1.7774191
-0.83910775 0.51686502 -1.0945568
0.93442059 2.6969452 -0.2884782
-1.4569228 -0.24791861 -0.78816664
1.1291852 2.935452 -0.098247781
1.1684088 2.9832444 -0.053797506
-1.8683248 -0.7610302 -0.066223882
-1.6928139 -0.5661366 0.13384822
0.80946589 2.5329173 0.17867006
-2.2315555 -1.2475245 1.7689438
-0.87393284 0.49784207 -1.1041937
-1.3136299 -0.042709351 -0.92667526
1.1235666 2.9349005 -0.098680809
1.161689 2.981003 -0.05426937
-1.8716614 -0.73253632 -0.065586068
-1.7131622 -0.55994248 0.13425815
0.82255256 2.5582197 0.17631614
-2.2674298 -1.2556906 1.7770158
-0.88310504 0.5103128 -1.1029505
-1.3333831 -0.039249182 -0.92834395
1.1191978 2.9359097 -0.098869391
1.1536791 2.9772596 -0.054915261
0.48335338 2.1625519 -0.073354557
-1.8659499 -0.69326615 -0.064703755
-1.7360435 -0.55675364 0.13473791
0.78029621 2.5155587 0.18161337
-2.2960823 -1.2546864 1.7819868
-0.89222479 0.52280736 -1.1017076
-1.3970387 -0.088567734 -0.94337565
1.1198967 2.9430497 -0.098081976
1.1494498 2.9781637 -0.055036835
0.53236055 2.2334547 -0.068740837
-1.8868046 -0.6864264 -0.064562
-2.2487395 -1.1474478 0.14855468
0.77573609 2.5193114 0.18169495
-2.3247769 -1.2535448 1.7869598
-0.89261031 0.54569554 -1.0968406
-0.76681328 0.69501472 -0.89482027
0.92387277 2.7152655 -0.23539267
1.1093371 2.9363344 -0.099492617
1.1528801 2.9882624 -0.054111648
0.51657116 2.2257988 -0.069479421
-1.9196808 -0.69550681 -0.064783834
-2.2890646 -1.1607924 0.14949077
0.75846744 2.5077457 0.18351801
-2.341542 -1.2396073 1.787261
-0.88981199 0.57102442 -1.0909505
1.1025574 2.9342375 -0.10017085
1.1385677 2.9768546 -0.055630717
0.51255739 2.2317595 -0.069279276
-1.916647 -0.66154218 -0.064025104
-2.3119848 -1.1547024 0.14996184
0.74389124 2.4991498 0.1849903
-2.3508384 -1.2167118 1.7844568
-0.91436577 0.56388712 -1.0964488
0.90628326 2.7100544 -0.28986382
1.0919077 2.9276304 -0.10157958
1.1409047 2.9853036 -0.05488297
0.52662885 2.2590756 -0.067614876
-1.9185948 -0.63375664 -0.063408278
-2.3387713 -1.1531055 0.15053859
0.73694074 2.4997854 0.18541811
-2.3674812 -1.2026882 1.7847576
-0.92394304 0.57450557 -1.0957354
-1.5692253 -0.1851027 -0.97828895
1.088932 2.9301496 -0.1015257
1.1239078 2.970979 -0.056748249
0.53827715 2.2832394 -0.066162266
-1.9333622 -0.62123466 -0.063140735
-2.3785224 -1.1666398 0.15146691
0.71453297 2.4822056 0.18793927
-2.3803382 -1.1841826 1.783505
-0.94091368 0.57879639 -1.0975884
1.0867903 2.9345844 -0.10121984
1.1168865 2.9691122 -0.057213593
0.50791883 2.2592607 -0.068043463
-1.9425964 -0.59756804 -0.062623128
-2.4201565 -1.1784737 0.15243028
0.71996748 2.4985142 0.18663228
-2.4120026 -1.1825361 1.7890313
-0.88648164 0.66445088 -1.0704825
1.0771892 2.9297469 -0.10238016
1.1165063 2.9746928 -0.056811266
0.50898874 2.2715116 -0.067422405
-1.918793 -0.53890657 -0.061305843
-2.4558413 -1.1847582 0.15324044
0.70496321 2.4903867 0.18811324
-2.4205966 -1.157295 1.785723
-0.83910429 0.74094987 -1.0464895
-1.5981967 -0.13035154 -1.1628869
0.96327782 2.8055327 -0.16956414
1.0688488 2.9264622 -0.10329623
1.1096146 2.9727516 -0.057278648
0.5061934 2.2792163 -0.067114957
-1.951068 -0.54533696 -0.061475541
-2.4863873 -1.1848066 0.15391211
0.66642523 2.4552264 0.19274059
-2.4341197 -1.1379027 1.7844853
-0.84350991 0.75757742 -1.0437064
-1.6120187 -0.11833072 -1.1626337
-1.5609373 -0.062722206 -0.95820528
0.95711249 2.8056617 -0.17012362
1.0591669 2.9217334 -0.10445472
1.107955 2.9768414 -0.057050399
0.51265061 2.297436 -0.06607905
-1.9794806 -0.54708123 -0.061539683
-2.5130432 -1.1801808 0.1544795
0.63548112 2.429333 0.19632407
-2.4589684 -1.1315947 1.7879103
-0.86575663 0.75394058 -1.0481628
-1.587062 -0.062469482 -1.1489024
-1.5615131 -0.036113739 -0.95414603
0.92477393 2.776216 -0.1769273
1.0599573 2.9289622 -0.10366748
1.0984023 2.9719703 -0.057864342
0.51261067 2.308104 -0.065565005
-2.0151258 -0.55835199 -0.061821517
-2.551595 -1.1889529 0.15536769
0.6043421 2.4036393 0.1999114
-2.6389275 -1.3006325 1.6030651
-2.4753268 -1.117214 1.7882112
-0.91505301 0.72012997 -1.0634729
-1.5880545 -0.038879871 -0.95770639
1.0583055 2.9330707 -0.10336971
1.0914545 2.970134 -0.058330182
0.53146505 2.3394232 -0.063601546
-2.035717 -0.55081272 -0.061676342
-2.5854094 -1.1937983 0.15613598
-2.659008 -1.2797544 0.63224894
-2.7061629 -1.3378015 1.1241357
-2.6677513 -1.2975869 1.3596652
-2.6661637 -1.2973516 1.606982
-2.4912205 -1.1005673 1.7880098
-0.99761462 0.64874315 -1.0922254
-1.6323264 -0.062581062 -0.966609
1.0485702 2.9284458 -0.1045267
1.0886209 2.9726558 -0.05827779
0.51429749 2.3306403 -0.064440258
-2.0523047 -0.53871155 -0.061428219
-2.6002383 -1.1752884 0.15638761
-2.6520576 -1.2379534 0.62940931
-2.665354 -1.2542906 0.86977953
-2.6690021 -1.2598195 1.1112946
-2.6946878 -1.2920067 1.3626713
-2.7124329 -1.3135464 1.6172259
-2.5070481 -1.0838714 1.7878078
-1.0009481 0.66726732 -1.0889192
-1.6537982 -0.059179544 -0.96864146
1.0401224 2.9253519 -0.10543995
1.0883155 2.9782798 -0.057875875
0.51176035 2.3382807 -0.06413611
-2.1023142 -0.56369185 -0.062029175
-2.6056471 -1.1463161 0.15638833
-2.6008999 -1.1423285 0.38795564
-2.6750011 -1.2281177 0.63043684
-2.6962724 -1.2532494 0.87255335
-2.705133 -1.264575 1.1160151
-2.729497 -1.2950776 1.3679734
-2.7497749 -1.3193133 1.6243185
-2.5279636 -1.0728838 1.7896799
-1.0145887 0.67434359 -1.0897473
-1.6937777 -0.07601738 -0.97600156
1.0289741 2.9193671 -0.10683787
1.0826831 2.9779949 -0.058167506
0.5173142 2.3547947 -0.063210495
-2.1713581 -0.60910964 -0.06309934
-2.6015253 -1.1069775 0.15613611
-2.6048188 -1.1119175 0.38722074
-2.7259526 -1.2492499 0.63514578
-2.731226 -1.2564771 0.87606317
-2.7479665 -1.2764733 1.1223073
-2.7551827 -1.2877584 1.3706001
-2.7767828 -1.3132966 1.6278075
-2.5514407 -1.0646808 1.7925894
-1.0308231 0.67862654 -1.0916084
-1.7074027 -0.063657522 -0.97574753
1.0271533 2.9237032 -0.10653627
1.0703176 2.9703858 -0.059324723
0.46637583 2.3093281 -0.066635422
-2.1706276 -0.57732821 -0.062405489
-2.5904589 -1.0603299 0.15570092
-2.5951438 -1.0667639 0.3854264
-2.7663913 -1.2582893 0.63845664
-2.7622521 -1.2551153 0.87884098
-2.7896109 -1.28667 1.128289
-2.7887876 -1.289046 1.3755239
-2.8142762 -1.318701 1.6349051
-2.5645328 -1.0449266 1.7913507
-1.0483738 0.68156362 -1.0939851
-1.7209857 -0.051249027 -0.97549355
1.0280423 2.9309616 -0.10574984
1.0686855 2.9745803 -0.059095833
0.46109021 2.3141689 -0.066536471
-2.1987429 -0.5786891 -0.062469356
-2.5980272 -1.0344675 0.15576662
-2.5951507 -1.0342991 0.38445905
-2.8069487 -1.267108 0.64177066
-2.7986841 -1.2594557 0.88260031
-2.8158309 -1.28142 1.1308033
-2.8317256 -1.3003037 1.3831294
-2.8439791 -1.3152735 1.6392992
-2.5858135 -1.0359018 1.7937266
-1.0462123 0.70581794 -1.0886154
-1.7024678 -0.0042538643 -0.96611172
1.016979 2.9249578 -0.1071488
1.0657189 2.9773142 -0.059040148
-2.4872181 -0.8594203 -0.068932317
-2.6059816 -1.0108607 0.15585127
-2.6093674 -1.0157993 0.38456461
-2.8327742 -1.2595868 0.64315665
-2.8477595 -1.2790256 0.88879544
-2.8549941 -1.2883105 1.1361626
-2.8752339 -1.3135948 1.3911042
-2.8912835 -1.3326073 1.6499939
-2.6105423 -1.0288506 1.797157
-1.0618519 0.70975971 -1.0904856
-1.7258995 -0.0039613247 -0.96891463
1.005708 2.9191649 -0.10854371
1.0600424 2.9771457 -0.059330266
0.72606146 2.6186681 -0.045484364
-2.5117297 -0.85302639 -0.068825677
-2.6092246 -0.98061371 0.15580551
-2.6099234 -0.98261929 0.38360941
-2.8631363 -1.2586136 0.64522964
-2.8817139 -1.2800279 0.89207083
-2.890233 -1.2906449 1.140582
-2.9064379 -1.3114166 1.3952701
-2.9290633 -1.3374083 1.6571
-2.6129699 -0.9975903 1.7917663
-1.0600363 0.734478 -1.085108
-1.7614738 -0.013740778 -0.97473174
0.99438673 2.9134395 -0.1099375
1.050261 2.9726508 -0.060138445
0.72301304 2.6242528 -0.045297768
-2.5389886 -0.84943223 -0.068784736
-2.6109481 -0.94894028 0.15572146
-2.6184826 -0.95825052 0.38328856
-2.9034781 -1.2645686 0.64839256
-2.908958 -1.2736015 0.89412236
-2.9336319 -1.3014565 1.14689
-2.942596 -1.3125498 1.4006039
-2.9625192 -1.3354619 1.6624204
-2.6376212 -0.99039102 1.7951969
-1.0788206 0.73620701 -1.0880002
-1.7748818 -0.0011439323 -0.97447795
0.99923831 2.9252291 -0.10842136
1.0376985 2.9653206 -0.061291106
0.73255527 2.6427026 -0.044187762
-2.6102443 -0.89219594 -0.069807902
-2.6215551 -0.92527127 0.15586962
-2.6214547 -0.92806172 0.38254169
-2.9539566 -1.2827444 0.65294856
-2.9452643 -1.2748828 0.89766377
-2.9758108 -1.3105876 1.1528869
-2.980619 -1.3171923 1.4066895
-3.0084639 -1.3483908 1.6722401
-2.6583128 -0.97885275 1.7970715
-1.0762697 0.76038337 -1.0826353
-1.7882453 0.01149869 -0.97422415
-1.7708473 0.027311802 -0.78239894
0.99625498 2.9280553 -0.10836468
1.0360742 2.969605 -0.061061487
0.75206017 2.6710005 -0.042362727
-2.6142728 -0.86356616 -0.06919647
-2.6262724 -0.89879847 0.15587568
-2.6187739 -0.89211226 0.38136756
-2.9950294 -1.2905042 0.65627742
-2.9866862 -1.2848628 0.90240073
-3.0004611 -1.3008382 1.1547989
-3.0191863 -1.32391 1.4131441
-3.034914 -1.3420992 1.6757255
-2.6829593 -0.97143912 1.8005041
-1.1078806 0.74778581 -1.090696
-1.8226688 0.00089931488 -0.98006094
-1.7841073 0.03994894 -0.78214628
0.98487437 2.9224482 -0.10975677
1.0317104 2.9710159 -0.061177127
0.74388814 2.6705182 -0.042594649
-2.5254114 -0.73827195 -0.066368714
-2.6399684 -0.88024282 0.15611574
-2.6352005 -0.87646794 0.3816804
-3.0229468 -1.2859173 0.65800804
-3.0332294 -1.2980807 0.90789443
-3.0414543 -1.308135 1.1604867
-3.057394 -1.3281469 1.4192352
-3.0783968 -1.3517604 1.6846482
-2.6942914 -0.94992208 1.7987446
-1.0990064 0.77942586 -1.0827429
-1.8052813 0.046802282 -0.97105849
0.97482389 2.9183378 -0.11090587
1.035656 2.9810414 -0.060258031
0.75215387 2.6875081 -0.041588802
-2.4690728 -0.6481781 -0.064347923
-2.6286449 -0.83570027 0.15569402
-2.6211271 -0.8290875 0.37965003
-3.0568085 -1.2837965 0.6603027
-3.0757971 -1.3067408 0.91265529
-3.0880284 -1.3209064 1.1674364
-3.0965872 -1.3313127 1.4253464
-3.1242568 -1.3617158 1.6940435
-2.7028561 -0.92559671 1.7959454
-1.1217997 0.7772541 -1.0871807
-2.1158953 -0.24559021 -1.0531934
-2.1117244 -0.24247789 -0.84940577
0.9675045 2.9171307 -0.11157047
1.0132532 2.9639025 -0.062614165
0.73147106 2.6741729 -0.042744875
-2.2239332 -0.36501098 -0.057893746
-2.6262174 -0.79913378 0.1555049
-2.6373339 -0.81343532 0.37996063
-3.0953684 -1.2880886 0.6632871
-3.1055837 -1.3000274 0.91498005
-3.1361215 -1.3348362 1.174705
-3.1363354 -1.3365438 1.4318267
-3.1616797 -1.366152 1.7011489
-2.7247205 -0.91516376 1.7983402
-1.1481693 0.77054524 -1.0931736
-2.1184015 -0.22123718 -1.0498972
-2.1113815 -0.21524048 -0.84603816
0.96588397 2.9214797 -0.11127092
1.0062152 2.9624143 -0.063075952
0.73464775 2.6850243 -0.042158537
-2.21822 -0.3314743 -0.057167161
-2.6247733 -0.76707435 0.1553559
-2.6248074 -0.76990199 0.37812173
-3.1400762 -1.3001795 0.66713893
-3.1391397 -1.3005955 0.91825497
-3.1655669 -1.3309698 1.1778669
-3.1793866 -1.3466611 1.4394433
-3.207335 -1.3787792 1.7109684
-2.7470918 -0.90682793 1.8012394
-1.1542389 0.78459144 -1.0914314
-2.1180277 -0.19412041 -1.0458434
0.96133643 2.9231579 -0.11145164
0.99915838 2.9609625 -0.06353724
0.71824825 2.6759324 -0.043008126
-2.2228787 -0.30727887 -0.056658339
-2.6315687 -0.74363804 0.15542676
-2.6380095 -0.75138688 0.37821665
-3.1835241 -1.310607 0.67081791
-3.1797004 -1.3080878 0.9227612
-3.2069957 -1.3373668 1.1835673
-3.2198119 -1.3537431 1.4462959
-3.2281408 -1.3638132 1.7122213
-2.7594709 -0.8865428 1.7999976
-1.1444169 0.81560159 -1.0834941
-1.8982643 0.057227612 -1.1733433
-2.1154492 -0.16357207 -1.041019
0.94839132 2.9164085 -0.11308113
0.99895287 2.9667668 -0.063134782
0.7395767 2.7054019 -0.041087277
-2.2485507 -0.30438876 -0.056640413
-2.6601336 -0.74075913 0.15606861
-2.6679821 -0.74988389 0.37959382
-3.2097969 -1.3014846 0.67222279
-3.2268376 -1.3201282 0.92827159
-3.2374327 -1.3322899 1.1867505
-3.262619 -1.3611171 1.4535528
-3.2830973 -1.383451 1.7247764
-2.777189 -0.87173104 1.8008345
-1.1357837 0.84514213 -1.0760752
-1.8893514 0.092321873 -1.1659263
-2.1210427 -0.14141679 -1.0384729
0.93819773 2.9125452 -0.1142265
0.99877757 2.9725614 -0.062732726
0.72578573 2.6994009 -0.041727595
-2.2671838 -0.29429913 -0.056458358
-2.698606 -0.74765921 0.1569726
-2.7148986 -0.76521754 0.38225654
-3.2571361 -1.3134322 0.67627805
-3.2741208 -1.3319013 0.93378592
-3.2887769 -1.3480783 1.1946626
-3.2917094 -1.3543251 1.4569741
-3.3258986 -1.3903227 1.7332669
-2.7853374 -0.84725618 1.798032
-1.1667953 0.83514762 -1.0836014
-1.9480351 0.057703495 -0.9873898
0.9307853 2.9115381 -0.11488838
0.98873335 2.9685206 -0.063534088
0.72186136 2.7033339 -0.041651115
-2.291472 -0.28976631 -0.056405552
-2.7258575 -0.743047 0.15758105
-2.7506697 -0.76899099 0.38406676
-3.30039 -1.320889 0.67980695
-3.3131227 -1.3349895 0.93782723
-3.3333077 -1.3565888 1.2010028
-3.3360815 -1.3626604 1.4646207
-3.3701873 -1.3983369 1.7422129
-2.8056576 -0.83507633 1.7999084
-1.7430975 0.28796816 -1.1099398
-1.7624897 0.26658964 -0.93329877
0.9346692 2.9217191 -0.11362007
0.98716468 2.9729323 -0.06330394
0.71368337 2.703074 -0.041880988
-2.3172011 -0.28651905 -0.056383859
-2.7701769 -0.75518966 0.15863988
-2.7794304 -0.76554203 0.38534373
-3.3395166 -1.323895 0.68280894
-3.3423438 -1.3280826 0.94014782
-3.3695488 -1.356503 1.2054545
-3.3722162 -1.3624506 1.4699662
-3.3828053 -1.3745241 1.7407584
-2.8204703 -0.81736708 1.7997049
-1.75685 0.29913116 -1.1101449
-1.7566644 0.29703736 -0.92812806
0.92867845 2.922142 -0.11404047
0.98704058 2.9787385 -0.062902324
0.54136693 2.5421529 -0.053842567
-2.3315306 -0.27194595 -0.056102708
-2.8032355 -0.75585651 0.15940244
-2.8096464 -0.76334763 0.3867296
-3.2197676 -1.1701159 0.6660006
-3.2895792 -1.2402391 0.92818302
-3.2834742 -1.2356191 1.182465
-3.3050003 -1.2600627 1.4468852
-3.3384578 -1.2945943 1.7207526
-2.8475878 -0.8118186 1.8041825
-1.1980417 0.86679173 -1.0829896
