# .PCD v0.7 - Point Cloud Data file format
VERSION 0.7
FIELDS x y z
SIZE 4 4 4
TYPE F F F
COUNT 1 1 1
WIDTH 1206
HEIGHT 1
VIEWPOINT 0 0 0 1 0 0 0
POINTS 1206
DATA ascii
-7.280993938 -1.876215458 1.453264236
-7.330354214 -1.886208653 1.737518549
-6.153031349 -1.580974817 1.690658092
-4.421800613 -1.130390167 -1.211325169
-2.286207914 -0.5831717253 -0.4503720701
-2.330650091 -0.5936424136 -0.3742427528
-2.420795679 -0.6157037616 -0.301561296
-2.533784389 -0.6439704895 -0.2250107378
-2.547744274 -0.6465717554 -0.1355512738
-2.5936234 -0.6572508812 -0.04600274563
-2.660168409 -0.6795521975 0.0472244136
-2.657263756 -0.6778216362 0.1415175647
-2.660757542 -0.6782189012 0.2365152985
-7.243597031 -1.84098649 1.177064657
-7.287498951 -1.850788355 1.453264236
-7.34444952 -1.862525344 1.739318132
-6.171621799 -1.562808037 1.694281578
-4.421972752 -1.114005446 -1.210289955
-2.301557541 -0.5785385966 -0.4530434012
-2.342288017 -0.5879071951 -0.3758071065
-2.415228367 -0.6053195 -0.3005863428
-2.532151461 -0.6341532469 -0.2246621251
-2.546110392 -0.6367053986 -0.1353419125
-2.590081215 -0.646740675 -0.04589803144
-2.666402578 -0.6712386608 0.04729422554
-2.657676697 -0.6680556536 0.1414128989
-2.670838356 -0.6708684564 0.2372125536
-7.253811359 -1.816648006 1.177690268
-7.290105343 -1.824387312 1.452500939
-7.349016666 -1.836402774 1.738868356
-6.178913593 -1.541722894 1.694799185
-4.41458416 -1.095770597 -1.207184196
-5.42129612 -1.343643904 -1.279518247
-2.303563118 -0.5705010295 -0.4530434012
-2.357749462 -0.5830474496 -0.3779972196
-2.413368225 -0.5963544846 -0.300098896
-2.542087078 -0.6272201538 -0.2253593504
-2.550256729 -0.6282910109 -0.1354465932
-2.580561399 -0.6352799535 -0.0456886068
-2.682315588 -0.6652967334 0.04753855988
-2.661815882 -0.6597191095 0.1415175647
-2.684767962 -0.6644130945 0.2382584065
-7.271302223 -1.79542625 1.179567575
-7.311678886 -1.802688479 1.455554008
-7.343712807 -1.809225202 1.736168861
-6.182116508 -1.520762682 1.694281578
-4.4106884 -1.079288483 -1.205113649
-5.414363384 -1.322884679 -1.276818871
-2.31688571 -0.5656527877 -0.4553331137
-2.376942158 -0.5794361234 -0.3808130324
-2.426904202 -0.5911668539 -0.301561296
-2.551896811 -0.6206701994 -0.2260566205
-2.56008935 -0.6217163801 -0.1358652711
-2.570994139 -0.6238895059 -0.0454791747
-2.676737309 -0.6544983387 0.04739893973
-2.675630093 -0.6537333727 0.1421456039
-2.683085203 -0.6545618773 0.2379097939
-7.258022785 -1.766631842 1.176438808
-7.325247288 -1.780286431 1.457080364
-7.309904099 -1.775206447 1.726720929
-6.181492805 -1.498887658 1.692728639
-4.387950897 -1.058314681 -1.197866559
-5.475557804 -1.318609953 -1.290315866
-2.337836504 -0.5625596642 -0.4591493011
-2.37500906 -0.5706282854 -0.3801873028
-2.436674356 -0.5845440626 -0.302536279
-2.548128605 -0.6108116508 -0.2255336791
-2.566021919 -0.6141531467 -0.1360746324
-2.573156118 -0.6149111986 -0.0454791747
-2.651676416 -0.6390590072 0.04691027477
-2.699256182 -0.6495289803 0.1432970017
-2.663932562 -0.6405371428 0.235992372
-7.125835896 -1.708133459 1.153912306
-7.296744347 -1.747753263 1.450211287
-7.297103405 -1.745146394 1.722221971
-6.192324638 -1.478647113 1.694281578
-4.425450802 -1.051026344 -1.207184196
-5.461165905 -1.294990897 -1.285816908
-2.35888958 -0.5589220524 -0.4629654586
-2.378909111 -0.5627886653 -0.3805001676
-2.454155445 -0.5796861053 -0.3044861853
-2.571575642 -0.6069470048 -0.2274511158
-2.564261913 -0.6042765975 -0.1358652711
-2.583073139 -0.6077573299 -0.04561879486
-2.661673307 -0.6316464543 0.0470498912
-2.732602119 -0.6474705338 0.1449717432
-2.681661844 -0.6349070668 0.2373868525
-7.295172691 -1.721817255 1.18050611
-7.337195873 -1.730383873 1.457080364
-7.382819176 -1.738423347 1.741117835
-6.189925671 -1.455255628 1.692211032
-4.406518459 -1.030295134 -1.200972438
-5.446676254 -1.271489739 -1.28131783
-2.379945517 -0.5551448464 -0.466781646
-2.388554573 -0.5562734604 -0.3817516267
-2.450363636 -0.5697665811 -0.3037549555
-2.569797277 -0.5970649719 -0.2271024883
-2.560519218 -0.5939673781 -0.1355512738
-2.585178614 -0.5987375379 -0.04561879486
-2.673598528 -0.6246262789 0.0472244136
-2.725120068 -0.6356601119 0.1444483697
-2.695504427 -0.6282559633 0.2384327203
-7.29536581 -1.695000291 1.179567575
-7.354664803 -1.707427025 1.459370136
-7.356568813 -1.705161214 1.733469486
-6.198732376 -1.434509397 1.693246245
-4.447741032 -1.023572326 -1.211325169
-5.424490929 -1.246361256 -1.275019169
-2.399089813 -0.5507875085 -0.4702161849
-2.388556242 -0.5474915504 -0.3814387619
-2.448467493 -0.5603240132 -0.3032674789
-2.593230247 -0.5929768682 -0.2290199101
-2.572312593 -0.5872484446 -0.1360746324
-2.579454422 -0.5879316926 -0.0454791747
-2.681609154 -0.6166335344 0.04732913151
-2.814920187 -0.6462545991 0.1491586268
-2.689913273 -0.6170604229 0.237735495
-7.307015419 -1.670847178 1.18050611
-7.375891685 -1.685242176 1.462423086
-7.417574406 -1.692041755 1.746516585
-6.196167469 -1.411146879 1.691175699
-4.428677559 -1.002920389 -1.205113649
-5.447816372 -1.231716156 -1.279518247
-2.431638002 -0.5493315458 -0.4763220847
-2.402014494 -0.5417582393 -0.3833159804
-2.463964462 -0.5548268557 -0.3049736619
-2.581779242 -0.5804086328 -0.2277997285
-2.597731113 -0.5835191011 -0.137330696
-2.58539319 -0.5797991753 -0.04554898292
-2.687645912 -0.6081524491 0.04739893973
-2.812547207 -0.6348668933 0.2485427856
-7.314730167 -1.645763993 1.180819035
-7.385560989 -1.660344601 1.463186264
-7.427238464 -1.666992545 1.747416496
-6.202940941 -1.389931917 1.691693425
-4.439866543 -0.9883606434 -1.207184196
-5.452083111 -1.212692022 -1.279518247
-2.462383509 -0.5467993617 -0.4820463359
-2.429055691 -0.5385089517 -0.3873832822
-2.494957924 -0.552662313 -0.3086297214
-2.511810064 -0.5554755926 -0.221350193
-2.60960412 -0.5761463046 -0.1378540546
-2.58740139 -0.5707709193 -0.04554898292
-2.68389678 -0.5974634886 0.04729422554
-2.814855099 -0.6245540977 0.2485427856
-7.316573143 -1.619366884 1.180193305
-7.387762547 -1.632418394 1.462423086
-7.429492474 -1.638917685 1.746516585
-6.196435452 -1.365777493 1.688587546
-4.435740948 -0.971203804 -1.205113649
-5.483144283 -1.198526859 -1.285816908
-2.464277267 -0.5382006168 -0.4820463359
-2.452150822 -0.534655571 -0.3908248544
-2.512388706 -0.5473302007 -0.3105796576
-2.529308796 -0.5500916839 -0.2227446884
-2.599888563 -0.5644908547 -0.1372260153
-2.597195148 -0.5634320974 -0.0456886068
-2.678254604 -0.5859130025 0.04715460539
-7.339553356 -1.597596765 1.183009148
-7.39725256 -1.607453942 1.463186264
-7.448217392 -1.617165685 1.749665976
-6.22004509 -1.348231792 1.693763971
-4.457822323 -0.9605581164 -1.210289955
-5.433743477 -1.168862224 -1.273219585
-2.504436731 -0.5382764935 -0.4896787107
-2.471292973 -0.5302506089 -0.3936406672
-2.49283886 -0.5344185233 -0.3078985214
-2.527222395 -0.5408670902 -0.2223960757
-2.611511946 -0.5579525828 -0.1377493739
-2.602960587 -0.5556512475 -0.04575841501
-2.682137489 -0.577449739 0.04718951136
-7.364126682 -1.57738626 1.186137795
-7.402542591 -1.58291471 1.463186264
-7.449728012 -1.591643095 1.748766184
-6.222592354 -1.327194691 1.693246245
-4.442084789 -0.9417633414 -1.205113649
-5.445215702 -1.152450562 -1.275019169
-2.505894899 -0.5289885402 -0.3989593983
-2.500516415 -0.5269421339 -0.3086297214
-2.532994509 -0.5328624249 -0.2227446884
-2.609438658 -0.5484689474 -0.1375400275
-2.60097003 -0.5457404256 -0.0456886068
-2.684037685 -0.568552196 0.04718951136
-7.369587421 -1.551672578 1.186137795
-7.423120499 -1.561591148 1.466239214
-7.447609901 -1.564028502 1.7469666
-6.246094704 -1.309427738 1.69842267
-4.419027805 -0.9199645519 -1.197866559
-5.456837654 -1.135023594 -1.276818871
-2.527159929 -0.5238102674 -0.4020881355
-2.519835234 -0.5218327641 -0.3108233809
-2.519229889 -0.5207910538 -0.221350193
-2.587959051 -0.5340566635 -0.1362839788
-2.604817629 -0.5370617509 -0.04572350904
-2.693836689 -0.5608098507 0.04732913151
-7.371089458 -1.525137782 1.185512066
-7.436484814 -1.535961866 1.467765689
-7.457108974 -1.537508011 1.747866392
-6.229813576 -1.28333056 1.692728639
-4.429783344 -0.9060810208 -1.199937224
-5.491510391 -1.121254325 -1.284017324
-2.552200556 -0.519715488 -0.4058425426
-2.525621653 -0.5133844018 -0.3113108575
-2.519080162 -0.5115975738 -0.2211758941
-2.58980751 -0.5250197053 -0.1362839788
-2.6243155 -0.5315385461 -0.04603765532
-2.680200577 -0.5477295518 0.0470498912
-7.387983799 -1.501759291 1.187389255
-7.441801071 -1.509994149 1.467765689
-7.477710247 -1.514563084 1.751465678
-6.234255314 -1.261576533 1.692728639
-4.451858997 -0.8944188356 -1.205113649
-5.476091862 -1.099202394 -1.279518247
-2.561657667 -0.5128000975 -0.4070940018
-2.548722982 -0.5092849135 -0.3139919639
-2.522804499 -0.503190279 -0.221350193
-2.575864077 -0.5133059621 -0.1354465932
-2.614387512 -0.5200339556 -0.04582822323
-2.662397146 -0.5348997116 0.04670084268
-7.402865887 -1.477896452 1.188953519
-7.454469204 -1.486843944 1.469292164
-7.465489864 -1.486334562 1.747416496
-6.240516186 -1.240183711 1.693246245
-4.454800606 -0.8796508908 -1.205113649
-5.430184841 -1.070282459 -1.267820835
-2.580876827 -0.5072838664 -0.4099098444
-2.587496042 -0.5076469183 -0.3186230063
-2.542143106 -0.4978269935 -0.2229190022
-2.5697999 -0.5027779937 -0.1350279152
-2.616186857 -0.510904789 -0.04582822323
-2.674057484 -0.5275381207 0.04687536508
-7.437057972 -1.457744241 1.193646669
-7.467320919 -1.462322831 1.470818639
-7.461070538 -1.458394885 1.745166898
-6.25428772 -1.220243692 1.695834517
-4.450407505 -0.8618479967 -1.203042984
-5.433887959 -1.051319599 -1.267820835
-2.630187273 -0.5064945817 -0.3237415254
-2.541908503 -0.4885746539 -0.2227446884
-2.57750988 -0.494484067 -0.1353419125
-2.610098362 -0.5002644062 -0.0456886068
-2.679808855 -0.5189609528 0.04694517702
-7.418822765 -1.427296519 1.189892173
-7.488053799 -1.437907338 1.473871589
-7.456795692 -1.429206491 1.742917418
-6.260406494 -1.198766351 1.696352124
-4.453388691 -0.8463088274 -1.203042984
-5.560688019 -1.053720474 -1.091871977
-2.553387642 -0.4815448523 -0.2236162424
-2.590996981 -0.487701118 -0.1359699517
-2.611828804 -0.4911503196 -0.0456886068
-2.685622454 -0.5098814964 0.04701498896
-7.58445549 -1.433096528 0.942594111
-7.433465004 -1.403224945 1.191456556
-7.49302721 -1.411758304 1.473871589
-7.450003624 -1.402307749 1.740218043
-6.255060196 -1.175122499 1.693763971
-4.456171036 -0.831535995 -1.203042984
-5.21672821 -0.9706324339 -1.023180723
-5.229345322 -0.9710903168 -0.8357245326
-5.22359705 -0.9690798521 -0.6471828222
-2.545175314 -0.4712610841 -0.2227446884
-2.598491907 -0.4801951051 -0.1362839788
-2.619342327 -0.4835754633 -0.04579331726
-2.67157197 -0.4980409145 0.04673574865
-7.589165688 -1.407939196 0.942594111
-7.436135292 -1.37820673 1.191143632
-7.50538969 -1.388332725 1.475398064
-7.462277889 -1.379011154 1.742017627
-6.249423027 -1.152621269 1.691175699
-4.451303005 -0.8153618574 -1.200972438
-5.212193489 -0.9519168139 -1.021654248
-5.228650093 -0.9530351758 -0.835098803
-2.554646254 -0.4637974501 -0.2234419435
-2.590244293 -0.4697933495 -0.1357606202
-2.640691757 -0.4779910147 -0.04614236578
-2.740087509 -0.5014178753 0.04792251065
-7.578168869 -1.379919648 0.9406442046
-7.466166973 -1.356832743 1.195210934
-7.49449873 -1.360630512 1.472345114
-7.417190552 -1.343921065 1.730320096
-6.261012554 -1.132176042 1.693246245
-4.446656227 -0.7976760268 -1.198901892
-5.234973431 -0.9362617731 -1.025470495
-5.241831303 -0.9356015325 -0.8366631866
-4.813975811 -0.8583666086 -0.5952664614
-2.560172796 -0.4555752873 -0.2237905711
-2.589982033 -0.459947139 -0.1356559396
-2.654157639 -0.4708661735 -0.04635179415
-7.598572731 -1.356250525 0.942594111
-7.480581284 -1.332494617 1.196775317
-7.518764973 -1.33658874 1.476161361
-7.399041653 -1.31264174 1.724921346
-6.282046318 -1.113348126 1.697905064
-4.441802502 -0.780811429 -1.196831346
-4.971551418 -0.8721455336 -1.155345321
-5.240143299 -0.9183213115 -1.025852084
-4.785800934 -0.835257113 -0.5913665891
-2.565672874 -0.4473201632 -0.2241391838
-2.603377819 -0.4529583454 -0.1362839788
-2.659806013 -0.4618191123 -0.04642160237
-7.615225792 -1.330439091 0.9440565705
-7.47568512 -1.303371429 1.195210934
-7.538857937 -1.313029885 1.479214191
-7.372859478 -1.281466722 1.717722893
-6.276567459 -1.088665009 1.695316911
-4.474962711 -0.7705480456 -1.205113649
-4.878535271 -0.8382851481 -1.132850051
-5.235577106 -0.8986967206 -1.024325609
-4.794558048 -0.8195486069 -0.5920978189
-2.582930326 -0.4410443306 -0.2255336791
-2.626601219 -0.447557807 -0.1374353617
-2.667316198 -0.45353809 -0.04652632028
-7.627649784 -1.305189729 0.9450315237
-7.497714043 -1.280260682 1.198026776
-7.558877945 -1.289348841 1.482267261
-7.383050919 -1.256703734 1.7190727
-6.286043167 -1.06771934 1.69686985
-4.88143158 -0.8212518692 -1.132850051
-5.254170895 -0.8830186129 -1.02737844
-4.813052654 -0.8054285049 -0.5940477848
-2.6458776 -0.4413439035 -0.1383774132
-2.700365543 -0.4499489963 -0.04708479717
-7.639990807 -1.279868007 0.9460064769
-7.501918316 -1.255390048 1.198026776
-7.551713467 -1.261015177 1.479977489
-7.381625652 -1.229964972 1.717722893
-6.281927109 -1.045599103 1.694799185
-4.266752243 -0.704061389 -1.147138
-5.266908169 -0.8662645221 -1.029286623
-4.803943157 -0.7875362635 -0.5925853252
-7.624603748 -1.251310587 0.9435690641
-7.521850109 -1.231751204 1.200529814
-7.555853844 -1.23596561 1.479977489
-7.376047134 -1.203909993 1.715473413
-6.283631802 -1.023354173 1.694281578
-4.272877693 -0.6905247569 -1.148173332
-4.886908531 -0.7880058885 -1.132850051
-5.289134026 -0.8519170284 -1.033102751
-4.373491764 -0.7013032436 -0.5387191176
-7.525044918 -1.208011866 0.9306509495
-7.510499477 -1.202988029 1.198026776
-7.542675018 -1.206789732 1.47654295
-7.376356125 -1.177540898 1.714573622
-6.292889118 -1.002326846 1.695834517
-4.321057796 -0.6828432679 -1.160596609
-5.284318447 -0.8322275281 -1.031576395
-4.287661076 -0.6721968651 -0.5277508497
-7.499799728 -1.17711997 0.9269948006
-7.463911057 -1.168817997 1.189892173
-7.389728546 -1.155879974 1.445631862
-7.355391026 -1.147878885 1.708724856
-6.307802677 -0.9821375608 1.698940396
-4.479970455 -0.6919347048 -1.203042984
-5.283309937 -0.8131791949 -1.030813098
-4.323338985 -0.6623362303 -0.5318943858
-7.366513252 -1.129866838 0.9099331498
-7.36055088 -1.126322865 1.172684431
-7.411184311 -1.132747293 1.449066401
-7.280367851 -1.110152483 1.690278888
-6.297822952 -0.9580792189 1.695316911
-4.472807884 -0.6748514175 -1.200454831
-5.297765255 -0.7964832187 -1.033102751
-4.296823978 -0.64446491 -0.6814801693
-4.349183559 -0.6507669687 -0.5348192453
-7.380228043 -1.10561645 0.9111517668
-7.37811327 -1.102666497 1.174874544
-7.411209583 -1.106290698 1.448303223
-7.093377113 -1.056316018 1.645738602
-6.293485641 -0.9349526763 1.693246245
-4.482780933 -0.6603614092 -1.202525377
-5.308282852 -0.7791272402 -1.034629226
-4.349865913 -0.6369028687 -0.6896147728
-7.372257233 -1.078125834 0.9096894264
-7.387781143 -1.077760816 1.175813198
-7.391713142 -1.077018738 1.443723798
-7.100878716 -1.032109499 1.646638393
-6.306270123 -0.9143659472 1.695834517
-4.473585606 -0.6430601478 -1.199419498
-4.321213722 -0.619617939 -0.9978795052
-5.326517582 -0.7628195882 -1.037682295
-4.34032917 -0.6200399399 -0.6877375245
-7.338636875 -1.047057748 0.9050583839
-7.373897076 -1.049462438 1.172997355
-7.379878044 -1.048997879 1.440670848
-7.07163763 -1.002667427 1.638990045
-6.322813511 -0.8942409754 1.699458003
-4.494824409 -0.6309068203 -1.204595923
-4.323244572 -0.6052846909 -0.9978795052
-5.329018116 -0.7451517582 -1.037682295
-4.314971447 -0.6018231511 -0.683357358
-7.346000671 -1.023263693 0.9055457711
-7.381249428 -1.025547385 1.173622966
-7.400817394 -1.026949644 1.444105387
-7.063341618 -0.9776081443 1.636290669
-6.316175461 -0.8719477057 1.69686985
-4.479773521 -0.6128563881 -1.199937224
-4.325331211 -0.5901899934 -0.9978795052
-5.413288116 -0.7376789451 -1.053710103
-4.371852398 -0.5942063332 -0.692117691
-7.365264893 -0.9997510314 0.9074957371
-7.388699532 -1.000305653 1.174248815
-7.427703857 -1.004264355 1.448684812
-7.078298569 -0.9545089602 1.638990045
-6.313436985 -0.849122107 1.695316911
-4.466565609 -0.5951737761 -1.195796013
-4.327365398 -0.5750880241 -0.9978795052
-4.867004395 -0.6459394097 -0.9460937977
-4.362150192 -0.5773867965 -0.6902404428
-4.162274361 -0.5487133265 -0.3635883629
-7.386421204 -0.9763763547 0.9096894264
-7.401938915 -0.9757988453 1.175813198
-7.431164265 -0.978330493 1.448684812
-7.089315891 -0.9308097959 1.640789628
-6.312531471 -0.8265785575 1.694281578
-4.48585844 -0.5818151832 -1.200454831
-4.32934618 -0.5599800944 -0.9978795052
-4.321037292 -0.5566042662 -0.683357358
-4.223936558 -0.5425978303 -0.5177575946
-4.207641125 -0.5397570133 -0.3674232364
-7.407504082 -0.952866137 0.9118829966
-7.409218311 -0.9504560232 1.176438808
-7.41506052 -0.9498919249 1.444868565
-7.104120255 -0.9075375199 1.643489122
-6.323043346 -0.8055151105 1.696352124
-4.480195522 -0.5651858449 -1.198384285
-4.331274509 -0.5448633432 -0.9978795052
-5.366173744 -0.6740996838 -1.043024898
-4.420956612 -0.5537939668 -0.6990007758
-4.253382206 -0.5312957764 -0.5211699009
-4.207521915 -0.5248205662 -0.3672488928
-7.385178089 -0.923799932 0.9087144136
-7.400568485 -0.9244151115 1.17456162
-7.377418995 -0.9189066887 1.43685472
-7.09177351 -0.8808139563 1.639889836
-6.327597141 -0.7847802043 1.69686985
-4.480223179 -0.5493093729 -1.197866559
-4.333057404 -0.530498147 -0.9978795052
-5.376288891 -0.6563168168 -1.044551373
-4.310296535 -0.5238943696 -0.5279945731
-4.221195698 -0.5115684867 -0.3682947755
-4.360277653 -0.5276517272 -0.2279765755
-7.350760937 -0.8947472572 0.9040834308
-7.323349953 -0.8888167739 1.161733985
-7.306363583 -0.8854612708 1.422353148
-7.094655514 -0.8572916389 1.639889836
-6.343723774 -0.7643054724 1.700493217
-4.472429276 -0.5333055258 -1.195278406
-4.311661243 -0.5126078129 -0.9924806356
-5.370637417 -0.6375588775 -1.043024898
-4.290413857 -0.5062863231 -0.525313437
-4.210996628 -0.496168673 -0.3672488928
-4.481109619 -0.5264095068 -0.2342568934
-7.280898571 -0.8604640961 0.8950650096
-7.23616457 -0.8526147604 1.147342086
-7.248966217 -0.8528405428 1.410523057
-7.111152649 -0.8341103792 1.643039107
-6.334840298 -0.7408105135 1.697387457
-4.476181984 -0.5179125071 -1.195796013
-4.367630005 -0.5038077235 -1.005077958
-5.394284725 -0.6212787628 -1.047222614
-4.26454401 -0.488145262 -0.5219011307
-4.216662407 -0.4819189012 -0.3675975502
-4.488873005 -0.5114424229 -0.2345709056
-7.208915234 -0.8264519572 0.8858029842
-7.18414402 -0.8210698962 1.138581634
-7.183627605 -0.81974262 1.397166371
-7.117893696 -0.8097231388 1.643939018
-6.337388039 -0.7186931372 1.697387457
-4.476043224 -0.5020691156 -1.195278406
-4.377108574 -0.4894248247 -1.006877542
-5.382762432 -0.6009204984 -1.044551373
-4.238599777 -0.4701919556 -0.5184887648
-4.222279549 -0.467636615 -0.3679461777
-4.406733513 -0.4849509001 -0.07668407261
-4.501931667 -0.5025863647 0.2351989448
-7.156513214 -0.7951433063 0.878978312
-7.131991863 -0.7899004221 1.12982142
-7.112294674 -0.7864607573 1.382664919
-7.120676517 -0.7848735452 1.643939018
-6.353300095 -0.6980438828 1.701010823
-4.483530045 -0.4870675206 -1.196831346
-4.340042114 -0.4699470401 -0.9978795052
-5.35750103 -0.5791719556 -1.039208651
-4.204688072 -0.4515789449 -0.5141014457
-4.23973465 -0.4545944631 -0.3693406582
-4.444087982 -0.4804275632 0.2320587784
-7.092139721 -0.7629384398 0.8706911802
-7.06792593 -0.7578399181 1.119183898
-7.056433201 -0.7553602457 1.371216297
-7.047801018 -0.7519481182 1.626392722
-6.353776932 -0.6756595373 1.700493217
-4.498651981 -0.4728275239 -1.200454831
-4.341655731 -0.4547955096 -0.9978795052
-4.214060307 -0.438454777 -0.5150763988
-4.280930519 -0.4439009726 -0.3728268743
-4.433738232 -0.4644412696 0.2314307541
-7.035526276 -0.7320161462 0.8633790612
-7.015385628 -0.7286829948 1.110423446
-7.008253098 -0.7254696488 1.36129427
-6.999856949 -0.7233658433 1.614695311
-6.359825611 -0.6549814939 1.70152843
-4.47521019 -0.4553643763 -1.193725586
-4.343140125 -0.440395385 -0.9978795052
-4.215490818 -0.4244778752 -0.5150763988
-4.254624844 -0.4269184172 -0.3703865409
-4.324586391 -0.4324138463 -0.225569129
-4.463072777 -0.4525565505 0.2328961492
-6.990513325 -0.7039080858 0.8575293422
-6.950937271 -0.6986976266 1.099785924
-6.959830284 -0.6971378326 1.351372242
-6.96149683 -0.6960775852 1.605247378
-6.363885403 -0.6340792775 1.702046156
-4.469005585 -0.4397657514 -1.19165504
-4.468194485 -0.4373229146 -0.8644275665
-4.220898628 -0.4101443589 -0.5155639052
-4.212460995 -0.4078402519 -0.3665516675
-4.325996399 -0.4180704653 -0.225569129
-6.929584503 -0.6745678782 0.8497296572
-6.894349575 -0.6687088013 1.090399861
-6.897618294 -0.6678106785 1.338778853
-6.897933006 -0.6654109955 1.589950681
-6.348752499 -0.6101976633 1.697387457
-5.321975231 -0.5012004375 -1.030813098
-4.257880688 -0.3987396061 -0.5199511647
-4.176167011 -0.3896169364 -0.3632397354
-4.327499866 -0.4022120237 -0.225569129
-7.115655899 -0.6688702106 0.6215693951
-6.86865139 -0.6444408894 0.8419300318
-6.845504284 -0.6398588419 1.082265258
-6.829646587 -0.635972023 1.325040579
-6.849874973 -0.6354441047 1.578253269
-6.370079994 -0.58981359 1.702563763
-4.125741005 -0.3761985302 -1.098480105
-4.347514153 -0.3948894143 -0.9978795052
-5.433186054 -0.4925474823 -1.052183747
-4.247450352 -0.3820638955 -0.5184887648
-4.153688908 -0.3728991449 -0.3611480296
-4.129945755 -0.3693144321 -0.2151019424
-4.863171577 -0.4425829053 0.08453766257
-6.807700634 -0.613561213 0.8341303468
-6.800584316 -0.6105252504 1.074756384
-6.775117397 -0.6070486903 1.313973665
-6.787997723 -0.6058128476 1.563406467
-6.379896164 -0.5671461821 1.704634309
-4.310038567 -0.37632218 -0.9888814688
-5.472033501 -0.4768170714 -1.059434414
-4.149010181 -0.3578850031 -0.3606250882
-4.131209373 -0.3548958898 -0.2151019424
-4.846757889 -0.4240358472 0.08422351629
-6.74255991 -0.5839686394 0.8258432746
-6.731822968 -0.5806730986 1.063493133
-6.738075256 -0.5800260901 1.30634129
-6.720172882 -0.5761236548 1.547210097
-6.383761406 -0.545036912 1.705151916
-4.490175724 -0.3778391778 -1.195796013
-4.35016489 -0.3645294607 -0.9978795052
-5.477577209 -0.4580389261 -1.060197592
-4.108536243 -0.3399497569 -0.3569645286
-6.957474709 -0.580567956 0.6071015596
-6.697078705 -0.5564838052 0.8199935555
-6.672780991 -0.5521213412 1.053794265
-6.685274124 -0.5519787073 1.295655966
-6.675530434 -0.5488283038 1.536412358
-6.389476776 -0.5230667591 1.706187248
-4.489541531 -0.3620088995 -1.195278406
-4.351410866 -0.3493411839 -0.9978795052
-5.492841721 -0.4400143623 -1.062869072
-4.056071281 -0.3213563859 -0.352258116
-6.907821178 -0.5521506667 0.6025694609
-6.639615059 -0.528380394 0.8126813769
-6.637252808 -0.5258594751 1.047849655
-6.620616913 -0.5233803391 1.282680988
-6.642436981 -0.5227707028 1.528314114
-6.389338017 -0.5006090403 1.705669641
-4.471516609 -0.3448496759 -1.1901021
-4.352603912 -0.3341507018 -0.9978795052
-4.077098846 -0.3122843802 -0.7865774632
-4.017166615 -0.3062835336 -0.6314210892
-4.024740219 -0.305447042 -0.4904587865
-4.013460636 -0.3038875461 -0.3484232426
-4.134699345 -0.3116149306 -0.2151019424
-4.081920147 -0.3062053621 -0.07075025886
-6.862028122 -0.5243907571 0.5983859897
-6.603810787 -0.5023396015 0.8080503345
-6.57798624 -0.4980659485 1.038150787
-6.565630913 -0.4959780276 1.271614075
-6.589809418 -0.4954912961 1.515716791
-6.406457901 -0.4794546962 1.709810734
-4.025712967 -0.296336323 -1.070009947
-3.990303516 -0.2923294902 -0.9137477875
-3.999842882 -0.2923265696 -0.7713127732
-3.988658667 -0.2901095748 -0.6267281175
-4.00202322 -0.2896773517 -0.4875339568
-4.010522842 -0.2895890176 -0.3480746448
-4.135761738 -0.2971810997 -0.2151019424
-4.174715996 -0.2985145748 -0.07235588133
-4.370444298 -0.319411844 0.227453202
-6.812151432 -0.4966675937 0.5938538909
-6.613443851 -0.4798593819 0.8090252876
-6.532399178 -0.4716868401 1.030641913
-6.508576393 -0.4688248932 1.260165572
-6.521523476 -0.4674694836 1.499520302
-6.413872719 -0.4575027823 1.711363673
-3.968909264 -0.2782301605 -1.05448091
-3.967971563 -0.2767716944 -0.9083490372
-3.987129688 -0.2774097323 -0.7686414719
-4.013294697 -0.2778217196 -0.6304824948
-3.997068644 -0.2752966285 -0.486802727
-4.031386375 -0.2769533396 -0.3498177826
-4.136774063 -0.2827427089 -0.2151019424
-4.175732613 -0.2839401662 -0.07235588133
-4.363563061 -0.3036005795 0.2270345241
-6.764153481 -0.4694370031 0.5894960761
-6.601215839 -0.4558138251 0.8073191047
-6.474884033 -0.4448198378 1.021255851
-6.469041348 -0.4432841837 1.252151489
-6.46090126 -0.4404606819 1.485123515
-6.411575794 -0.4348497689 1.710328341
-3.977566242 -0.2648867667 -1.056551337
-3.972801924 -0.2631776333 -0.9092487693
-3.99199152 -0.2637481391 -0.7694047093
-4.022124767 -0.2643300295 -0.6317340136
-4.007908821 -0.2619898319 -0.4880214036
-4.022387505 -0.262232244 -0.3489461839
-4.137735844 -0.2683008015 -0.2151019424
-4.176698208 -0.2693632841 -0.07235588133
-4.732861996 -0.3143562078 0.08209432662
-4.362603664 -0.2882342339 0.2269298583
-6.700144768 -0.4414995611 0.5837438107
-6.563149929 -0.4301716983 0.8024443388
-6.409376144 -0.4178476632 1.010618329
-6.423530579 -0.4176430702 1.24299264
-6.421560287 -0.4152625799 1.475675583
-6.41112709 -0.4123423398 1.709810734
-3.98232317 -0.2512440383 -1.05758667
-4.000925541 -0.2510156333 -0.9155473709
-5.529075623 -0.3459221125 -1.068593264
-4.332558632 -0.2695448697 -0.6808543801
-4.03719902 -0.2490475625 -0.3501664102
-4.138647079 -0.2538566589 -0.2151019424
-4.177613258 -0.2547821403 -0.07235588133
-4.739917278 -0.2982111871 0.08219903708
-4.36956358 -0.2733781934 0.2272438705
-6.64596653 -0.4146366715 0.5788630843
-6.540835857 -0.4057842195 0.7995194793
-6.369392395 -0.3929163814 1.004048109
-6.368122578 -0.3917224407 1.231925726
-6.374343395 -0.3898718357 1.464428067
-6.372033119 -0.3874996603 1.698940396
-4.449855804 -0.2651501596 -1.18285501
-5.549847603 -0.3277786076 -1.072409391
-6.61702776 -0.3884878755 -1.043156743
-6.542279243 -0.3818080127 -0.7995194793
-4.045999527 -0.2354163975 -0.3508636355
-4.139507771 -0.2394074351 -0.2151019424
-4.17847681 -0.2401988804 -0.07235588133
-4.82476902 -0.2866447866 0.08366503567
-4.366503239 -0.2578892708 0.2270345241
-6.603616714 -0.3888585567 0.5750282407
-6.567975044 -0.3844593763 0.8026880622
-6.335227489 -0.368615061 0.9984164238
-6.312612534 -0.3661953211 1.220858932
-6.344537258 -0.3658238351 1.457229614
-6.330915928 -0.3628213406 1.687552214
-4.471883774 -0.252366364 -1.188549161
-5.572412491 -0.3115455806 -1.076607347
-6.507764339 -0.3615627587 -1.025636077
-4.058655739 -0.2233620584 -0.3519095182
-4.116308212 -0.225093767 -0.2138458639
-4.14726305 -0.2253336012 -0.07179740816
-4.395209789 -0.2457298785 0.2284999192
-6.26065588 -0.348929733 0.5448723435
-6.271842003 -0.3473557532 0.7661272287
-6.292961597 -0.3463237286 0.9915332794
-6.264723778 -0.3436715603 1.211318374
-6.265874863 -0.3415426016 1.438783526
-6.249076366 -0.3384378254 1.665293813
-4.476595402 -0.2369591445 -1.189584374
-5.57150507 -0.2919907272 -1.076225638
-6.497150898 -0.3382278681 -1.023758769
-5.620848656 -0.2906422317 -0.6859372258
-4.081297874 -0.2103201449 -0.3538269401
-4.127041817 -0.2112341076 -0.2143692225
-4.574952602 -0.2413648069 0.07926703244
-4.236479282 -0.2220248729 0.2201261818
-6.220052719 -0.3248912096 0.5412117839
-6.239315033 -0.3237136304 0.7619836926
-6.201412678 -0.3195753098 0.9768284559
-6.234514713 -0.3201916814 1.205212474
-6.239782333 -0.318277061 1.432484984
-6.248290539 -0.3165259957 1.664776206
-4.473536491 -0.2211405933 -1.188549161
-4.235593319 -0.207896322 -0.9690858126
-5.582295418 -0.2730201483 -1.078133702
-5.618309975 -0.2728158832 -0.8842192292
-5.60200119 -0.2700639963 -0.6834998727
-4.07603693 -0.1957865655 -0.3533039987
-4.143713951 -0.1975876838 -0.2152066082
-4.257176876 -0.2082109749 0.221172899
-6.153488159 -0.2998796999 0.5352852345
-6.192820549 -0.2996298373 0.7561339736
-6.188678741 -0.2972642779 0.9746383429
-6.20225668 -0.296831578 1.198724985
-6.190245152 -0.2940896153 1.420787454
-6.191466331 -0.2919817269 1.649247169
-4.466562271 -0.2051689923 -1.186478615
-4.166211128 -0.1899152994 -0.9528893232
-5.579291821 -0.2533543408 -1.077370524
-5.611335278 -0.2528468072 -0.8829677701
-5.622740746 -0.2513928711 -0.6859372258
-4.064753056 -0.181025371 -0.352258116
-4.156350136 -0.1836501062 -0.2158346474
-4.263863564 -0.1936210692 0.2214869112
-6.18589592 -0.2776547968 0.75515908
-6.134422779 -0.2731989324 0.9658780098
-6.13068676 -0.2719604969 1.184605122
-6.144509315 -0.2704247832 1.409989834
-6.134547234 -0.2678395212 1.633717895
-4.432508469 -0.1881031096 -1.177161098
-4.038345814 -0.169962883 -0.9231957793
-5.654679775 -0.2370027304 -1.091871977
-3.974034786 -0.1651719064 -0.6232864857
-3.967438221 -0.1635105461 -0.4824154079
-3.969834328 -0.1622222662 -0.3438911736
-4.174926281 -0.169872269 -0.216776669
-4.408189774 -0.1847590059 0.2290232927
-6.089740276 -0.2541711628 0.529532969
-6.123359203 -0.2534347475 0.747359395
-6.101786137 -0.2504070103 0.9605592489
-6.076673031 -0.2483155578 1.173919797
-6.104526043 -0.2473180145 1.400541902
-6.094908237 -0.2447975129 1.622847557
-3.937654972 -0.1519585401 -0.899800837
-3.95657444 -0.1513046473 -0.761390686
-3.952899933 -0.1497824043 -0.6198449731
-3.948148012 -0.1489123255 -0.4799780548
-3.962412357 -0.1480653286 -0.3431939483
-4.171529293 -0.1544214189 -0.2165673375
-4.344943047 -0.1669157892 0.2256737947
-6.072711945 -0.2311686426 0.5279641151
-6.056762218 -0.2295014709 0.7390723228
-6.065116882 -0.2276995033 0.9546146989
-6.036342621 -0.2245078981 1.165905833
-6.056705952 -0.2231483012 1.389294386
-6.059045315 -0.2221756428 1.613012314
-3.941425562 -0.1390158087 -1.045163393
-3.910920143 -0.1365721524 -0.8935022354
-3.94138217 -0.1369481534 -0.7583377957
-3.959321499 -0.1361869127 -0.6207835674
-3.948667288 -0.1344405711 -0.4799780548
-3.946975231 -0.1336933225 -0.341799438
-4.162062168 -0.13952443 -0.216043964
-4.219024658 -0.1406968236 -0.07298416644
-4.437317371 -0.1549543291 0.2304887027
-6.043613911 -0.2089367658 0.5253494382
-6.025819302 -0.2062158287 0.7351724505
-6.010596752 -0.2046432346 0.9458544254
-6.001770973 -0.2022454441 1.159036756
-6.008756638 -0.2003811598 1.378046751
-6.021168232 -0.1997430772 1.602659583
-3.92450881 -0.1247045025 -1.040504694
-3.917194128 -0.1237868071 -0.8948518634
-3.935949087 -0.1230052486 -0.7571929097
-3.97159791 -0.1234245747 -0.6226608157
-3.955044031 -0.1215292811 -0.4807092845
-3.919536829 -0.1190679148 -0.3393590748
-4.186458111 -0.1264461577 -0.2173000425
-4.219490051 -0.1259687096 -0.07298416644
-4.435834408 -0.1394024342 0.2303840369
-5.982572556 -0.1859192401 0.5199458003
-5.998692513 -0.1853722781 0.7317601442
-5.961913109 -0.1821527928 0.9380326867
-5.959237099 -0.181030035 1.150641203
-5.972378254 -0.1793427318 1.36949861
-5.963899136 -0.1770045757 1.587130427
-3.919107676 -0.1115246713 -1.038951755
-3.935134411 -0.1106060967 -0.8989009857
-3.965772629 -0.1107746065 -0.762917161
-5.917010307 -0.1632095724 -0.9308366776
-5.92194128 -0.1612769961 -0.7222543359
-3.868127108 -0.1046682596 -0.3348269761
-4.204843044 -0.1123107597 -0.2182420939
-4.431565285 -0.1253334731 0.07668407261
-4.360427856 -0.1217983812 0.2264064848
-5.935357094 -0.1647536904 0.5157623291
-5.951678276 -0.1631277353 0.7259103656
-5.926968575 -0.160378769 0.9324010611
-5.920581341 -0.1591733098 1.143008709
-5.935955524 -0.1575118303 1.360950589
-5.914269447 -0.1548706144 1.573671937
-3.967754602 -0.09904891253 -1.051892757
-4.071866989 -0.1002257839 -0.9303941131
-5.822819233 -0.1423072666 -1.123927832
-5.883972645 -0.1417468488 -0.9255179167
-5.882777691 -0.1396621317 -0.71737957
-3.844566822 -0.09060285985 -0.3327352405
-4.18723917 -0.09721509367 -0.2173000425
-4.212269783 -0.09632518142 -0.07284455001
-4.473956585 -0.1109041795 0.07741708308
-4.352839947 -0.1063815951 0.2259878069
-5.904026985 -0.1432595551 0.5129733682
-5.900613785 -0.1411173493 0.7195731997
-5.893920422 -0.1388988793 0.9270823002
-5.877921581 -0.1374954432 1.134613156
-5.909193993 -0.1361632794 1.354651809
-5.885803699 -0.1335674226 1.565907359
-4.450927734 -0.09556646645 -1.181302309
-4.078037262 -0.08613504469 -0.9317438602
-5.503340721 -0.1152776778 -1.061724186
-5.842957973 -0.1203526482 -0.9189476967
-5.817734718 -0.1178016216 -0.7093361616
-3.824939966 -0.07678228617 -0.3309921324
-4.195539951 -0.08275675029 -0.2177187204
-4.212565899 -0.08235710859 -0.07284455001
-4.456323147 -0.09490317106 0.0771029368
-4.335197449 -0.09156671166 0.2250457555
-5.872620106 -0.1219889596 0.5101843476
-5.859391689 -0.1196667403 0.7144547105
-5.8627491 -0.1187130958 0.9220764041
-5.839108467 -0.1161940768 1.126980901
-5.851181984 -0.1143926159 1.341154814
-5.849516392 -0.1133373827 1.556072235
-4.474411964 -0.08044477552 -1.187513828
-4.082197189 -0.07268054038 -0.9326437116
-5.798152447 -0.1012074202 -1.118966818
-5.677417755 -0.09810884297 -0.8926666975
-5.802214622 -0.09823958576 -0.7073862553
-3.789326429 -0.06283466518 -0.3278545141
-4.205776691 -0.06900704652 -0.2182420939
-4.284807205 -0.06880676001 -0.07410112023
-4.454614162 -0.08008883148 0.07706803083
-4.327503204 -0.07629358768 0.2246270627
-5.835160255 -0.1008347273 0.5068724155
-5.828000069 -0.09969358146 0.7105548382
-5.825600624 -0.09761855751 0.9161318541
-5.819831371 -0.09650452435 1.123164654
-5.812559605 -0.09435593337 1.332156777
-5.828628063 -0.09258180857 1.550378084
-4.451475143 -0.06526768953 -1.181302309
-4.092168808 -0.05857088044 -0.9348932505
-5.320216179 -0.07336051762 -0.8360373974
-5.758853912 -0.07739842683 -0.702023983
-3.761623144 -0.04989923164 -0.325414151
-4.450867653 -0.06448078156 0.07699821889
-4.323749065 -0.06112969294 0.2244177461
-5.79761076 -0.08095531911 0.5035604835
-5.792583942 -0.0788628757 0.7061675787
-5.784427166 -0.07673242688 0.9095616341
-5.786759853 -0.07575328648 1.116677046
-5.783624649 -0.07369316369 1.32540834
-5.769032955 -0.07149326801 1.534331441
-4.459402084 -0.04981387034 -1.183372736
-4.107937336 -0.0444547683 -0.9384924173
-5.24313736 -0.05582313985 -1.010968924
-5.255255699 -0.05411890149 -0.8257127404
-5.721374512 -0.05692042783 -0.6973930001
-3.741851568 -0.03657357767 -0.3236710429
-4.246099472 -0.04001997784 -0.2203355283
-4.385163784 -0.03979992867 -0.07584635913
-4.427070618 -0.04868104309 0.07657936215
-4.327929974 -0.04607902467 0.2246270627
-5.74207449 -0.06013303995 0.4986797869
-5.759078979 -0.05830072612 0.702023983
-5.745154381 -0.05615424737 0.9033042789
-5.735947609 -0.0550631173 1.106755137
-5.754617214 -0.05323353782 1.318659782
-5.72674799 -0.05097667873 1.522943377
-4.444094658 -0.03412853926 -1.179231644
-4.110015869 -0.03012831323 -0.9389423132
-5.200109959 -0.03721162677 -1.002573371
-5.192202091 -0.03534263372 -0.8157008886
-5.70168829 -0.03682176769 -0.6949555874
-3.722032785 -0.02338656783 -0.3219279051
-4.2302351 -0.02510415576 -0.2194981426
-4.413216114 -0.03312220797 0.07633502781
-4.330056667 -0.03174131364 0.2247317582
-5.71236372 -0.03988165036 0.4960650802
-5.715576649 -0.03790763766 0.6966617703
-5.713703156 -0.03689936176 0.8982983232
-5.694876671 -0.03478857502 1.098741055
-5.721639633 -0.03295488283 1.311011434
-5.697908401 -0.03182375804 1.5151788
-4.455777645 -0.01866503619 -1.182337523
-4.110093594 -0.0164996665 -0.9389423132
-5.147200108 -0.01886642538 -0.9922695756
-5.142906666 -0.01795189828 -0.8078792095
-5.6600914 -0.01778289117 -0.6898370385
-3.69021368 -0.01030498277 -0.3191389441
-4.226300716 -0.01106543466 -0.2192888111
-4.397304058 -0.01842009462 0.07605579495
-4.342123985 -0.01667229086 0.2253597677
-5.690552235 -0.01986351609 0.4941476882
-5.675969601 -0.01882201806 0.6917870045
-5.670339108 -0.01682412624 0.8914152384
-5.655696392 -0.01579362527 1.09110868
-5.672999382 -0.01386179961 1.299763799
-5.657415867 -0.01185037009 1.504308343
-4.459679127 -0.003892243607 -1.183372736
-4.112074852 -0.002152588218 -0.9393922687
-5.088336945 -0.001776825986 -0.9808210731
-5.101455212 4.459833747e-07 -0.8013089299
-5.614461899 0.001958851237 -0.6842310429
-3.682257414 0.00256999 -0.318441689
-4.385343552 -0.003062025178 0.07584635913
-4.378106594 -0.00152881653 0.2272438705
-5.650739193 -0.0009870338254 0.4906614423
-5.640268803 0.0009835016681 0.6873996854
-5.638757229 0.002952761482 0.8864092827
-5.624304771 0.003925420344 1.08500278
-5.624294758 0.005889886059 1.288516283
-5.626513958 0.007856118493 1.496026278
-4.436480999 0.01238760725 -1.177161098
-4.108159542 0.01218881458 -0.9384924173
-5.033339024 0.01669187844 -0.970135808
-5.054012299 0.01852332987 -0.7938001156
-5.586629868 0.02145175263 -0.6808187366
-3.62643981 0.01518988423 -0.3135609627
-4.146382332 0.01881504431 -0.2151019424
-4.375329018 0.01221685857 0.07567184418
-5.576434612 0.01751837507 0.2900469899
-5.612849236 0.01959192939 0.48734954
-5.606484413 0.02054818161 0.6832561493
-5.599205494 0.02247590572 0.8801519275
-5.588914394 0.02438674495 1.078133702
-5.589158058 0.02633738145 1.280418038
-5.580087662 0.02726984397 1.483602881
-4.463455677 0.0280448515 -1.184407949
-4.11198473 0.02727181092 -0.9393922687
-4.993985653 0.03399308771 -0.9625034332
-4.996632099 0.0357552357 -0.7847268581
-5.546820164 0.04066039994 -0.6759439707
-3.598472118 0.02763519064 -0.3111206293
-4.146291733 0.03328862041 -0.2151019424
-4.357257843 0.02813805826 0.0753576979
-5.552373409 0.0368248634 0.288790971
-5.560945988 0.038822826 0.4828174114
-5.576595783 0.0408786647 0.6796000004
-5.563537121 0.04175395146 0.8745203018
-5.54953146 0.04358599335 1.070501447
-5.567604542 0.04469967261 1.275469184
-5.529732227 0.04632586986 1.470144272
-4.445952892 0.0426793322 -1.17974937
-4.078744888 0.0405780822 -0.9317438602
-4.972250462 0.05033513531 -0.9583055973
-4.990560532 0.05226260051 -0.7837882638
-5.518865585 0.05875844136 -0.6725316644
-3.582422495 0.03939202428 -0.309726119
-4.146158218 0.04703819752 -0.2151019424
-4.185097694 0.04821044952 -0.07235588133
-4.335145473 0.04237227514 0.07497374713
-5.530251503 0.05501864478 0.2876395583
-5.528910637 0.05693533272 0.4800284207
-5.526805401 0.05884297565 0.6735065579
-5.53373909 0.05988266692 0.8698272705
-5.508130074 0.06152835861 1.062487364
-5.526504517 0.0626982376 1.266021132
-5.502504349 0.06434682757 1.462897301
-4.465104103 0.05767101422 -1.184925675
-4.059102058 0.05384513736 -0.9272448421
-5.478928566 0.07746142149 -0.6676568985
-3.55836606 0.05092952773 -0.3076343834
-4.145979404 0.06078725308 -0.2151019424
-4.32498312 0.05661718547 0.07479921728
-5.504064083 0.07397241145 0.2862788141
-5.500800133 0.07489003986 0.4775880873
-5.494821548 0.07672695071 0.6696067452
-5.495967865 0.07866167277 0.8638827205
-5.472561359 0.07928195596 1.055618286
-5.483385086 0.08135312051 1.256123304
-5.482929707 0.0832605809 1.457720995
-4.451354027 0.07303612679 -1.181302309
-4.031610966 0.06755577773 -0.9209462404
-5.007126808 0.08477732539 -0.9651747346
-4.990089417 0.08622993529 -0.7837882638
-5.438929081 0.09588631243 -0.6627821326
-3.538245678 0.06299481541 -0.3058912754
-4.069858551 0.07388162613 -0.2111243904
-4.184659004 0.07742676139 -0.07235588133
-4.32076025 0.07164766639 0.07472940534
-4.32955265 0.07330509275 0.2247317582
-5.478592396 0.09371627867 0.4756706655
-5.458794117 0.09528354555 0.6652194858
-5.454183578 0.09710610658 0.8573125005
-5.446732998 0.09792564064 1.050657272
-5.442150593 0.0997434333 1.246675372
-5.453633308 0.1018580943 1.449956298
-4.422100067 0.08799739927 -1.173537612
-4.041092396 0.08182567358 -0.9231957793
-5.040168762 0.1029365733 -0.9716622233
-5.001607895 0.1038955525 -0.7856655121
-5.40482235 0.1141573638 -0.6586384773
-3.528044462 0.07513404638 -0.3050197065
-4.093537331 0.08860542625 -0.2123804688
-4.184362888 0.09203359485 -0.07235588133
-4.340476513 0.08712991327 0.07507845014
-4.317288876 0.08817302436 0.224103719
-5.428432465 0.1118126586 0.4713128805
-5.428658009 0.1137142703 0.6615633965
-5.412338257 0.1152623966 0.8507422805
-5.420841694 0.1163899899 1.045696139
-5.412545204 0.1181019619 1.239926934
-5.403028965 0.1197798401 1.436497808
-4.433353901 0.1037029997 -1.176643491
-4.060264111 0.096394822 -0.9276947975
-5.061367989 0.121044673 -0.9758599997
-4.991340637 0.121114336 -0.7841011882
-5.372638702 0.1322416216 -0.6547386646
-3.497884035 0.08670826256 -0.3024050295
-4.093203068 0.1028950885 -0.2123804688
-4.184016228 0.1066383123 -0.07235588133
-4.348143101 0.1024690643 0.07521808147
-4.428769112 0.1059158146 0.2299653441
-5.396140099 0.1299931705 0.4685238898
-5.386553764 0.131643489 0.6564449072
-5.378331184 0.1333222389 0.84542346
-5.371335983 0.1340855509 1.036155701
-5.38872242 0.1364029646 1.234528065
-5.363953114 0.1376494467 1.426144958
-4.425261021 0.1181978136 -1.174572945
-4.04238987 0.1093843579 -0.9236456752
-4.662523746 0.1277922839 -0.8983915448
-4.848738194 0.1337441504 -0.761574626
-5.344390869 0.1492814571 -0.6513263583
-3.469677925 0.09812833369 -0.2999646962
-4.044904232 0.1158106625 -0.2098683268
-4.183640003 0.1205125824 -0.07235588133
-4.328567982 0.1178831086 0.2247317582
-5.351862907 0.1466859728 0.4646890163
-5.350369453 0.1485139877 0.6520575881
-5.350215435 0.1503798962 0.8410432935
-5.325698853 0.1515499353 1.02737844
-5.351229668 0.1532123983 1.225979805
-5.338364124 0.1547076255 1.419415832
-4.420936108 0.134299174 -1.173537612
-4.047804832 0.1243783832 -0.9249953628
-5.036824703 0.1565281153 -0.9712806344
-4.927191734 0.1539818197 -0.7740893364
-4.728735447 0.1494319439 -0.5757673383
-3.453363895 0.1103365645 -0.2985701859
-4.044452667 0.1306343079 -0.2098683268
-4.183169842 0.1358466446 -0.07235588133
-5.318274498 0.1643455923 0.2766489983
-5.32938385 0.1656198949 0.4627715945
-5.322011948 0.1672514826 0.6486452222
-5.320012569 0.1690461785 0.8363503218
-5.297636509 0.170186162 1.022035837
-5.305834293 0.1713764817 1.215632081
-5.310729027 0.1733914763 1.412168741
-4.443583012 0.1512907147 -1.17974937
-4.059007645 0.1396155059 -0.9276947975
-5.01466465 0.1733629405 -0.9670827985
-5.011484146 0.1750043333 -0.7875427008
-5.255862713 0.1853749901 -0.6406018734
-3.42508173 0.1214024052 -0.2961298227
-4.000060558 0.1431805789 -0.2075655609
-4.182670116 0.15044792 -0.07235588133
-5.271758556 0.1813298464 0.2742415369
-5.302855492 0.1842526197 0.4605055451
-5.27771759 0.1852235794 0.6432829499
-5.27990675 0.1862230152 0.8300928473
-5.265617847 0.1875592917 1.015929937
-5.281801224 0.1899829358 1.210233331
-5.284994125 0.1910200715 1.405439496
-4.433374882 0.1664385349 -1.177161098
-4.06241703 0.1532209665 -0.9285945296
-4.966945171 0.1890741438 -0.9579240084
-5.02271986 0.1920751482 -0.7894199491
-5.241333961 0.2022673935 -0.6388956904
-3.400746346 0.1324264109 -0.2940380871
-4.015529633 0.1570681632 -0.2084029317
-4.182119846 0.1650463641 -0.07235588133
-5.249139309 0.1988988817 0.2730901539
-5.26236105 0.2012393326 0.4570193291
-5.25128746 0.2017336786 0.640114367
-5.239746571 0.2031232119 0.8238354921
-5.257119656 0.2047143131 1.014403462
-5.24414444 0.2060435414 1.20168519
-5.243758202 0.2078602463 1.394569159
-4.413496494 0.1803506315 -1.171984673
-4.077434063 0.1680435687 -0.9321938157
-5.027099133 0.2080610096 -0.9697540998
-5.041755676 0.2104304582 -0.7925486565
-5.210845947 0.2193086296 -0.6352396011
-3.378391743 0.1427776814 -0.2921206653
-3.998993635 0.1704048663 -0.2075655609
-5.226461887 0.2163122147 0.271938771
-5.221852303 0.2170330733 0.453533113
-5.226751328 0.2190655023 0.6371895075
-5.213348389 0.2203266919 0.8197681904
-5.215181828 0.2213159651 1.006389618
-5.229764462 0.2237635404 1.198535919
-5.200539112 0.224332884 1.383181095
-4.435999393 0.1967819333 -1.17819643
-4.072928905 0.1821014583 -0.9312939644
-5.13813591 0.2306243777 -0.9915063977
-5.1889925 0.2347231507 -0.816013813
-5.164438725 0.2354188263 -0.6296336055
-3.359960079 0.1537500173 -0.2905518711
-3.998374462 0.1843620837 -0.2075655609
-5.197741508 0.233299762 0.270473361
-5.187226295 0.2337361425 0.4505698085
-5.192242622 0.2357769758 0.6330459118
-5.190841198 0.2375302017 0.8163266778
-5.171231747 0.237536028 0.9979938865
-5.195858955 0.2404859215 1.19088757
-5.170778275 0.2411338389 1.375416517
-4.423707962 0.2117112875 -1.175090551
-4.080054283 0.1966920197 -0.9330935478
-5.158869743 0.2496021986 -0.9957041144
-5.168410778 0.2518720627 -0.8128851056
-5.155654907 0.2530555129 -0.6286586523
-3.349453211 0.1649875194 -0.2896803021
-3.941851854 0.1955471635 -0.2046347409
-5.149017334 0.2491255105 0.2679612339
-5.158517361 0.2504887879 0.4481294155
-5.145785332 0.251670897 0.6274399161
-5.166305065 0.2544820905 0.8125721812
-5.146840096 0.2544237077 0.9934144616
-5.159953594 0.2568774521 1.182789207
-5.142892838 0.2578276694 1.368169546
-4.419083118 0.226954639 -1.174055219
-4.094912052 0.2117380351 -0.9366928339
-5.120715141 0.2656771243 -0.9884533882
-5.135937214 0.2682631612 -0.8078792095
-5.107163906 0.2685490549 -0.6228089333
-3.324981451 0.1754179746 -0.2875885665
-3.941145182 0.2093057185 -0.2046347409
-5.118440151 0.263766557 0.08876114339
-5.116203308 0.2654430568 0.2662864923
-5.139705181 0.2675605714 0.4465606511
-5.129016399 0.2688005269 0.6254900694
-5.118041992 0.2700155079 0.8050633669
-5.116513252 0.2708315253 0.9876902103
-5.118159771 0.2727101743 1.173341393
-5.116883278 0.274433285 1.361440182
-4.406690121 0.2417428643 -1.17094934
-4.09803915 0.226245597 -0.937592566
-5.082511902 0.2814863324 -0.981202662
-5.101439953 0.2843219638 -0.8025604486
-5.078496456 0.2839323282 -0.6193965673
-3.292520761 0.1852335334 -0.2847995758
-3.996224642 0.226221472 -0.2075655609
-4.078819275 0.2316121757 -0.07061063498
-5.107504845 0.2810823321 0.08858662099
-5.081392765 0.2805348337 0.2645070553
-5.098953247 0.2832895219 0.443074435
-5.100298882 0.285151273 0.6220777035
-5.091478825 0.2855482697 0.8009960651
-5.095935822 0.2875837982 0.983874023
-5.0938797 0.2883584201 1.167942524
-5.083156586 0.289532572 1.35264039
-4.398149967 0.2559059858 -1.168878913
-4.081703663 0.2389231175 -0.9339933991
-5.058032036 0.2969596386 -0.9766232967
-5.06694603 0.2992564738 -0.7972416282
-5.061674595 0.2998328209 -0.617446661
-3.271999836 0.1949651837 -0.2830564678
-3.939629078 0.2361265123 -0.2046347409
-3.978224277 0.2391375005 -0.06886540353
-5.064622402 0.295571506 0.08785361797
-5.062489986 0.296333611 0.2635650039
-5.066163063 0.2983230054 0.4402854443
-5.075546265 0.3006545007 0.619152844
-5.068812847 0.3011421859 0.7975545526
-5.059678078 0.3023730218 0.9770048857
-5.067607403 0.3037332594 1.162093759
-5.045530319 0.3041787148 1.342805266
-4.389564514 0.2700140774 -1.166808367
-4.040043354 0.2499305457 -0.9245455265
-5.029586792 0.3120293617 -0.9712806344
-5.032409191 0.3139665723 -0.7919228673
-5.030879021 0.3156339526 -0.6137905717
-3.243496895 0.2040631175 -0.2806161046
-3.938824415 0.2491896302 -0.2046347409
-3.977365255 0.2530227304 -0.06886540353
-5.027688026 0.3101487458 0.08722533286
-5.041490555 0.3127678335 0.2625182867
-5.041282654 0.3136369586 0.4381936789
-5.032915592 0.314881146 0.6140343547
-5.040130138 0.3170974851 0.793174386
-5.017500877 0.3165541291 0.968990922
-5.037343979 0.3195700943 1.155345321
-5.015518665 0.3199432194 1.335040689
-4.378956318 0.2847093344 -1.164220214
-4.015811443 0.2625051737 -0.919146657
-5.002999783 0.3279136717 -0.9663196206
-4.995802879 0.329192102 -0.7862912416
-4.990131855 0.3305689991 -0.6089158058
-3.234812975 0.2148564905 -0.2799188495
-3.937930822 0.2629373074 -0.2046347409
-5.004624844 0.3262659013 0.08684138209
-5.010473728 0.3284035623 0.260948211
-5.012324333 0.3294034004 0.4357533157
-5.004054546 0.3306141794 0.6106219888
-5.007456779 0.3325955868 0.7881684899
-4.981104851 0.3317173123 0.9621217847
-5.003142834 0.3349401951 1.147696853
-5.000879288 0.336540848 1.331417322
-4.397209167 0.3013138175 -1.169396639
-3.989596605 0.2747817338 -0.9132978916
-4.962652206 0.3426707387 -0.9586872458
-4.976887703 0.3453991711 -0.783475399
-4.961223602 0.3460521102 -0.6055034995
-3.216155291 0.2248952538 -0.2783500552
-4.967031002 0.3490705192 -0.2587501109
