# .PCD v0.7 - Point Cloud Data file format
VERSION 0.7
FIELDS x y z
SIZE 4 4 4
TYPE F F F
COUNT 1 1 1
WIDTH 1271
HEIGHT 1
VIEWPOINT 0 0 0 1 0 0 0
POINTS 1271
DATA ascii
0.60971874 3.157321215 0.732437253
0.6075001955 3.139953375 0.8453550339
0.5574228168 2.862359047 -0.769779861
0.6183925867 3.169533491 -0.7355865836
0.6189135909 3.169268847 -0.6194288135
0.6191977859 3.164843559 -0.5040834546
0.6217443943 3.171991825 -0.3917446136
0.6214604974 3.167606354 -0.2786986828
0.6232756376 3.171006918 -0.1671621799
0.6270558834 3.184366226 -0.05595061556
0.6174983382 3.167899132 0.05563647673
0.60791713 3.112959385 0.1640220284
0.6165720224 3.15435195 0.2774784863
0.6169944406 3.150671482 0.3890635073
0.618953228 3.154826641 0.5025190711
0.6180705428 3.147428036 0.6152310371
0.6256272793 3.180030823 0.7382859588
0.6221935749 3.156767607 0.8505314589
0.5670357943 2.858501196 -0.7692622542
0.6305899024 3.173089981 -0.7369362116
0.6322715282 3.178642273 -0.6217185259
0.6333276629 3.178161621 -0.5065863729
0.6339797378 3.175642252 -0.3924758434
0.6336826682 3.171279192 -0.2792215943
0.6359097362 3.176645517 -0.1675808728
0.6405276656 3.193921804 -0.05616004765
0.6301096082 3.173570156 0.05577609316
0.6187804937 3.110818148 0.1640220284
0.6291345358 3.159996748 0.2781757414
0.6287660003 3.152391911 0.3895509839
0.6311209202 3.15845871 0.503457725
0.6317493916 3.158727169 0.6179023385
0.6351902485 3.170185089 0.7364863753
0.6362513304 3.169728756 0.8546725512
0.5781573057 2.86218524 -0.7708151937
0.6428226233 3.176599264 -0.7382859588
0.6457009315 3.187960863 -0.6240082383
0.6475610137 3.191418886 -0.5090893507
0.6466419697 3.181191444 -0.3934507966
0.6507077813 3.198333979 -0.2818363011
0.6485891938 3.182234764 -0.1679995656
0.6524735093 3.195584536 -0.05622985587
0.6435621381 3.183111429 0.05598552525
0.628841877 3.104724407 0.163812682
0.6453081369 3.183166027 0.2804417908
0.6429260969 3.165741205 0.3915008903
0.6445058584 3.167850494 0.5053349137
0.6447296143 3.166121483 0.619810462
0.6466427445 3.16985774 0.7369362116
0.6480848193 3.171273947 0.8557078242
0.5860897303 2.852682829 -0.7687446475
0.654925406 3.182085037 -0.7400856018
0.6562684178 3.185802221 -0.6240082383
0.6609360576 3.202795982 -0.5112794042
0.6587944627 3.186805248 -0.3944257498
0.6605037451 3.192255974 -0.2814876437
0.6615713835 3.191800356 -0.1686275899
0.6602189541 3.179698229 -0.05598552525
0.656530261 3.192712307 0.05619495362
0.6431631446 3.1221838 0.1648593992
0.6562619805 3.182960033 0.2806161046
0.6562306285 3.177200079 0.3932070732
0.6558086872 3.169564486 0.5059606433
0.6580115557 3.177423716 0.6224817634
0.6603184938 3.18296051 0.7405354381
0.6597777009 3.174781799 0.857260704
0.5936723351 2.83927393 -0.7656388283
0.6716213822 3.206482649 -0.7463842034
0.6698026657 3.195020914 -0.6262979507
0.6721112728 3.200469494 -0.5112794042
0.6744105816 3.205854893 -0.3971068859
0.6716421247 3.189931154 -0.2814876437
0.6743568182 3.197288752 -0.1690462828
0.6783423424 3.210634708 -0.05657890439
0.6676717401 3.190401077 0.05619495362
0.6565173268 3.13164854 0.1654874384
0.6677785516 3.182599783 0.2807904184
0.6697678566 3.186545849 0.394669503
0.6693098545 3.178854227 0.507837832
0.6715286374 3.186633587 0.6247714758
0.6738394499 3.192076683 0.7432348728
0.6716544032 3.176239729 0.8582960367
0.6051869988 2.844742537 -0.7677093744
0.6824031472 3.202213049 -0.7459343076
0.6842283607 3.208023787 -0.6293509007
0.6841051579 3.201967001 -0.5119051337
0.6889197826 3.219010115 -0.3990567923
0.6856949925 3.201204777 -0.2827078402
0.6871887445 3.202726841 -0.1694649756
0.6899664402 3.210202217 -0.05661381036
0.6804693341 3.195874453 0.05633457005
0.6707785726 3.144964218 0.1663248241
0.6826266646 3.197785616 0.2823592126
0.682133019 3.190011978 0.3954007328
0.6832990646 3.190019131 0.510027945
0.681414187 3.178510904 0.6236265898
0.6870243549 3.199231625 0.7454844117
0.6863932014 3.190873623 0.8629547954
0.6171569228 2.852053404 -0.7702975273
0.6927504539 3.196002483 -0.7450344563
0.6979190111 3.2171278 -0.6316406131
0.6977925897 3.211142302 -0.513782382
0.699308455 3.212706089 -0.3985693157
0.7011054158 3.218259096 -0.284450978
0.6975133419 3.196405888 -0.1692556292
0.7050104141 3.22535634 -0.05692795292
0.6941613555 3.205205917 0.05654400215
0.6825987101 3.146507263 0.1665341556
0.6958993673 3.205118179 0.2832307816
0.6941071749 3.191490889 0.3958882093
0.6977933049 3.20305562 0.5125308633
0.6971049905 3.197213411 0.6278244257
0.701097548 3.210140944 0.7486336827
0.6995924115 3.197894096 0.8655429482
0.626694262 2.847994804 -0.769779861
0.7051615715 3.199273825 -0.7463842034
0.7099912763 3.218506098 -0.6324038506
0.7124077678 3.224117517 -0.5162853599
0.7125310302 3.221998692 -0.4000317454
0.7140578032 3.223572969 -0.2851482034
0.7138574719 3.217349768 -0.1705116928
0.7144011259 3.217144966 -0.05682324246
0.7083553076 3.216433764 0.05678833276
0.693888247 3.148127317 0.166743502
0.7105187178 3.218234062 0.284625262
0.7073873878 3.198739767 0.3971068859
0.7092642784 3.204581499 0.5131566525
0.7099616528 3.20242691 0.6293509007
0.7108940482 3.203993559 0.747733891
0.7143852115 3.214414835 0.8707193136
0.632763207 2.830818415 -0.7656388283
0.7208769917 3.219737291 -0.7517830133
0.7206596732 3.216134071 -0.6324038506
0.725691855 3.23330164 -0.5181625485
0.7245162129 3.225429058 -0.4007629752
0.7264939547 3.228962421 -0.2858454585
0.7271565795 3.226655483 -0.171139732
0.7263863683 3.220609665 -0.05692795292
0.7216361761 3.225775957 0.05699776486
0.7065067291 3.155553579 0.1672668606
0.7211862206 3.215860605 0.284625262
0.720600605 3.207997561 0.3985693157
0.7198865414 3.202212095 0.5131566525
0.7248895168 3.219208002 0.6331670284
0.7253701091 3.218728304 0.7517830133
0.7241893411 3.208259583 0.8696841002
0.643430829 2.83435607 -0.7671917081
0.7315494418 3.217329502 -0.7517830133
0.7330641747 3.221383572 -0.6339302659
0.7364092469 3.230877638 -0.5181625485
0.7393044829 3.238362789 -0.4027128816
0.7386497855 3.230291128 -0.2861940861
0.7414177656 3.239801168 -0.1719770879
0.7420926094 3.237545967 -0.05727700517
0.7332162261 3.22726512 0.05706757307
0.7210635543 3.168648005 0.1681042314
0.7322897911 3.215393782 0.2847995758
0.7343260646 3.219137907 0.4002754986
0.7359007001 3.220862865 0.516598165
0.73687464 3.222527981 0.6343119144
0.7383422852 3.223774672 0.7535826564
0.7362470031 3.20947814 0.8707193136
0.6542488933 2.833861351 -0.7677093744
0.7392652631 3.199566841 -0.7481838465
0.7492918372 3.237802267 -0.6377464533
0.7500295043 3.235854626 -0.5194140077
0.7532963157 3.247364998 -0.4041753113
0.7517225146 3.235456467 -0.2868913114
0.7505720258 3.225390434 -0.1713490635
0.7556548715 3.244674444 -0.05745152757
0.7449277043 3.226634026 0.05710247904
0.7348174453 3.177787781 0.1687322706
0.7463183999 3.222393036 0.2856711447
0.7473492026 3.224290848 0.401250422
0.7480334044 3.222122431 0.5172238946
0.749124825 3.221718073 0.634693563
0.7536884546 3.236230612 0.7571818829
0.750954628 3.221939802 0.8748604655
0.6623704433 2.824037552 -0.7656388283
0.7496511936 3.191144466 -0.7468340993
0.7641816139 3.25045681 -0.6407994032
0.7631320357 3.240907192 -0.5206654668
0.7651927471 3.244582176 -0.4041753113
0.7671316862 3.250264645 -0.2884601355
0.7645822763 3.234412909 -0.1719770879
0.7720412016 3.263422251 -0.05783547834
0.7613179684 3.243350267 0.05745152757
0.7472766042 3.181036234 0.1690462828
0.7616682649 3.237223148 0.287239939
0.7609823942 3.229258776 0.402225405
0.7638098598 3.23871851 0.5203526616
0.7626235485 3.228636742 0.6366016269
0.7649812698 3.233579874 0.7571818829
0.7662032843 3.236217499 0.8795191646
0.6735679507 2.827345848 -0.7671917081
0.7593262196 3.184849262 -0.7459343076
0.7764360309 3.251588345 -0.6415626407
0.7784672976 3.257571697 -0.5237941742
0.7777955532 3.249749184 -0.4051502645
0.7803295851 3.255317211 -0.2891573608
0.7799622416 3.2512815 -0.173023805
0.7815586329 3.252930403 -0.05769586191
0.774848938 3.252479315 0.05766095221
0.7583752871 3.178408384 0.1690462828
0.7752798796 3.244233608 0.2881114781
0.7735345364 3.234439611 0.4032003582
0.776491642 3.241795301 0.5212911963
0.7756118774 3.235636473 0.6385097504
0.7779754996 3.240499735 0.7594313622
0.7811059952 3.248550415 0.8836602569
0.6784015298 2.80631876 -0.7620153427
0.7722709179 3.189755917 -0.747733891
0.7904515266 3.262352228 -0.6442340016
0.7935595512 3.270191908 -0.526297152
0.7910105586 3.254729986 -0.4061252177
0.7920629382 3.256583214 -0.2895059884
0.7960343361 3.267944098 -0.1740705371
0.7948053479 3.257952929 -0.05783547834
0.7890196443 3.261416435 0.05787038431
0.7722881436 3.187388182 0.169674322
0.7869722843 3.245517731 0.2884601355
0.7885686755 3.247151852 0.4051502645
0.7868685126 3.235226154 0.5206654668
0.7934028506 3.259614944 0.6438523531
0.7920507193 3.24912405 0.7621307373
0.7933580875 3.249557257 0.8846955895
0.6858916879 2.794552803 -0.7594271302
0.7843316793 3.190825462 -0.7486336827
0.8037111163 3.267198324 -0.645760417
0.8059142232 3.271238089 -0.5269228816
0.8052194118 3.263513088 -0.4075876474
0.8053354621 3.261535883 -0.2902032435
0.8103128076 3.276778698 -0.1746985614
0.8100195527 3.270686865 -0.05811471865
0.8008756638 3.260584354 0.05790529028
0.7877041101 3.202127695 0.1706163585
0.80020082 3.250489712 0.2891573608
0.8022754192 3.254016161 0.4063689411
0.8028914928 3.251637936 0.5237941742
0.8038351536 3.253013372 0.6430891156
0.8066638112 3.259581566 0.7652801275
0.8046956658 3.246768475 0.8846955895
0.7007776499 2.812762022 -0.7651211619
0.7912183404 3.171051502 -0.74458462
0.8174883127 3.273896933 -0.6476685405
0.8163704872 3.264571905 -0.526297152
0.8209474087 3.278012753 -0.4097812772
0.8186538219 3.266435146 -0.2909004688
0.8236917257 3.281678915 -0.1751172543
0.8232961893 3.27767992 -0.05828924105
0.8137044311 3.263589621 0.05801000074
0.8012173176 3.211125374 0.1712443978
0.8134753108 3.255408049 0.2898546159
0.8160380721 3.26082468 0.4075876474
0.816070199 3.258538246 0.5253584981
0.8175727129 3.25970912 0.6449972391
0.8204115629 3.266195774 0.7675296068
0.8211102486 3.266564608 0.890907228
0.7110661268 2.812171459 -0.7656388283
0.8031646013 3.174077749 -0.7459343076
0.8337332606 3.29005456 -0.6514847279
0.8330179453 3.284824371 -0.5300515294
0.8313239813 3.27334857 -0.4095375538
0.8329967856 3.275143385 -0.2919463515
0.8355543017 3.282800674 -0.1753266007
0.8401648402 3.29610157 -0.05867319554
0.8274630904 3.27250576 0.05821943283
0.8129125834 3.210245371 0.1713490635
0.8292409182 3.269930363 0.2914234102
0.8287994266 3.265797138 0.4085626006
0.830845058 3.269071579 0.5275486112
0.8293450475 3.26078558 0.645760417
0.8341249824 3.274787426 0.770228982
0.8344169259 3.271166325 0.8929777741
0.7189491391 2.80418396 -0.7640858889
0.8103630543 3.156154156 -0.7423350811
0.8476564288 3.296631575 -0.6533927917
0.8484179974 3.297200918 -0.5325545073
0.8442303538 3.276193857 -0.4102687836
0.8494033813 3.291507244 -0.2936894596
0.850579977 3.291318178 -0.175954625
0.8546702862 3.304764748 -0.05888262391
0.8443471193 3.290904045 0.05860338733
0.8241143227 3.207387924 0.1713490635
0.8445445299 3.284528971 0.2929922044
0.8421750665 3.270573616 0.4095375538
0.8422520757 3.266151428 0.5275486112
0.8461990356 3.27673316 0.6495766044
0.8460380435 3.273742914 0.7706789374
0.8497018218 3.283195734 0.8971188664
0.7272749543 2.794051647 -0.7620153427
0.8243826032 3.162591934 -0.74458462
0.8607261777 3.297301531 -0.6541560888
0.8644906282 3.309359312 -0.5350574851
0.8602524996 3.288441181 -0.4122186899
0.862470746 3.292226791 -0.2940380871
0.8656777143 3.299770117 -0.1765826643
0.8637297153 3.290005207 -0.05867319554
0.8599324822 3.301332951 0.05884771794
0.8429213762 3.231402159 0.1728144735
0.8570814729 3.2833395 0.2931665182
0.858674407 3.284749985 0.4117311835
0.8557174802 3.268775463 0.5284872055
0.8626848459 3.290701389 0.6530112028
0.8629755378 3.289469719 0.7751779556
0.8641864657 3.289400816 0.8997070789
0.734549284 2.780160904 -0.7589095235
0.8419507742 3.182155609 -0.7499834299
0.874239862 3.301868677 -0.6556825042
0.877627492 3.30998683 -0.5356832147
0.8763756752 3.300614595 -0.4141685665
0.8739583492 3.289196014 -0.2940380871
0.8843815923 3.323749542 -0.1780480742
0.8772676587 3.29469943 -0.05881281197
0.8715162873 3.296225309 0.05881281197
0.8572620749 3.240024805 0.1734425128
0.87064147 3.285953522 0.2936894596
0.8757981062 3.300768137 0.4141685665
0.8681371808 3.269586802 0.5291129947
0.8751745224 3.291464806 0.6537744403
0.8775341511 3.295700312 0.7774274349
0.8776506782 3.293831825 0.9017776251
0.7417501807 2.768249512 -0.7563213706
0.8469446898 3.158641815 -0.7450344563
0.8883067369 3.308276892 -0.6575906277
0.8906488419 3.314689398 -0.5369346738
0.8929891586 3.318776608 -0.4168497026
0.889580667 3.301515818 -0.2954325676
0.8938381076 3.315013409 -0.1777340621
0.8939749599 3.310922861 -0.0591618605
0.8834767342 3.297180414 0.05888262391
0.8716715574 3.248587132 0.1740705371
0.8862416744 3.29828763 0.2950839698
0.8867399096 3.297845364 0.4141685665
0.8862224817 3.291332722 0.5331802368
0.8860855103 3.288544178 0.6537744403
0.8940434456 3.313467741 0.7823764086
0.8921672106 3.301937819 0.9048834443
0.7554823756 2.782553673 -0.7609800696
0.8543872237 3.142502785 -0.7418851852
0.9044274688 3.324256659 -0.6614068151
0.9042900801 3.319184303 -0.5381861329
0.9050901532 3.317554474 -0.4170934558
0.9074013829 3.321453571 -0.2975243032
0.9054051638 3.311872959 -0.1777340621
0.9108076692 3.327069044 -0.05951090902
0.9002230167 3.313374281 0.05923167244
0.8851041198 3.253233194 0.1744892299
0.9013607502 3.310710192 0.2964784503
0.9003356695 3.302390575 0.4151435494
0.9039467573 3.311087608 0.5369346738
0.9016993046 3.300581932 0.6568273902
0.9056018591 3.31032753 0.7823764086
0.9062407017 3.308119059 0.9074716568
0.7641361952 2.774178743 -0.7594271302
0.8669057488 3.145137072 -0.7432348728
0.9176493287 3.324704647 -0.6621699929
0.9206585884 3.331079721 -0.5406891108
0.9171950817 3.316287994 -0.4173371792
0.9216464162 3.32786727 -0.2983958721
0.9239418507 3.331627846 -0.1789901108
0.9234830737 3.32772398 -0.05958072096
0.9149703383 3.321778774 0.05944110081
0.8985766172 3.257825851 0.1749079078
0.9177333713 3.322748184 0.2978729606
0.9160858989 3.314535141 0.4170934558
0.9160269499 3.309815645 0.5372475386
0.9185085893 3.314282179 0.660261929
0.9192913771 3.312619686 0.7837260962
0.9214004278 3.317965984 0.9110951424
0.7727769017 2.767772913 -0.7583918571
0.8789514303 3.143815517 -0.7436847687
0.9297790527 3.323371887 -0.6625516415
0.9376103282 3.346866846 -0.5438177586
0.9368493557 3.339662313 -0.4207495451
0.9348735213 3.330384016 -0.2989188135
0.9388079047 3.33991909 -0.17961815
0.9350941777 3.324480057 -0.05958072096
0.9314432144 3.333810568 0.05972033739
0.910481751 3.256592512 0.1750125885
0.9325483441 3.331036091 0.2989188135
0.931445539 3.322622776 0.4185558856
0.9291746616 3.31230402 0.5381861329
0.9364440441 3.333737135 0.6648413539
0.933488071 3.318769932 0.7859756351
0.9350711107 3.322167635 0.9131656885
0.7792755961 2.753905773 -0.7552860379
0.8877799511 3.135258436 -0.7423350811
0.9477982521 3.342772007 -0.6671310663
0.9476262331 3.339938164 -0.543192029
0.9511731863 3.347995043 -0.4222119749
0.9486745596 3.334765673 -0.2996160686
0.9542521834 3.352155209 -0.1804555207
0.9527238607 3.342349291 -0.05996467173
0.9430371523 3.332627773 0.05975524336
0.9305564165 3.284139872 0.17668733
0.9425395727 3.32201004 0.2983958721
0.9467953444 3.334792852 0.4205057919
0.9461337924 3.328041077 0.5413148403
0.9469560981 3.3287251 0.664459765
0.9514297247 3.340020418 0.7918243408
0.9471896291 3.320741892 0.9136833549
0.7915973663 2.762449026 -0.7583918571
0.8965680003 3.124647617 -0.7405354381
0.9599626064 3.343384504 -0.6678943038
0.9620090127 3.346101999 -0.5447564125
0.965051651 3.352284431 -0.423186928
0.9652439356 3.350746632 -0.3013591766
0.9659484625 3.34880352 -0.1804555207
0.9676849842 3.352620363 -0.06020900607
0.9557676911 3.333159924 0.0598250553
0.944195509 3.290635347 0.1772106886
0.958501637 3.336100817 0.2999646962
0.9584295154 3.331467867 0.4205057919
0.961535871 3.340071917 0.5438177586
0.9602004886 3.331058979 0.6656045914
0.9663260579 3.347912312 0.794523716
0.9619496465 3.330574036 0.9173067808
0.7996201515 2.754103184 -0.7568389177
0.9036622047 3.110429525 -0.7378360629
0.9782090187 3.36263442 -0.6724737287
0.978066504 3.359964132 -0.5475721955
0.9789413214 3.358594418 -0.4244056046
0.9802811742 3.358833075 -0.3024050295
0.9770491719 3.34558177 -0.1804555207
0.9849936962 3.368415594 -0.0605580546
0.9718346 3.34725523 0.06013919413
0.9551179409 3.285401583 0.1771060228
0.9734812975 3.344212532 0.3010105491
0.9728019834 3.339706898 0.4219682217
0.9754008055 3.34428072 0.5450692773
0.9745408297 3.339164257 0.6678943038
0.9785153866 3.348430634 0.7954235077
0.980080843 3.349444866 0.9235184193
0.8130441904 2.764268875 -0.7604624629
0.9145066142 3.105226994 -0.737386167
0.99382478 3.372381926 -0.67514503
0.993729949 3.36772418 -0.5494494438
0.9912438989 3.354984283 -0.4244056046
0.9976493716 3.374496937 -0.3041481376
0.9961071014 3.364959717 -0.1817115843
0.9996052384 3.372451782 -0.06069767475
0.9886124134 3.359017611 0.06041843444
0.9682831168 3.285710335 0.1773153543
0.99022156 3.357993364 0.3025793433
0.9895341396 3.351349592 0.4239181578
0.9893326163 3.34636569 0.5460078716
0.9929001331 3.356278419 0.6720920801
0.9913342595 3.346690655 0.7958734632
0.9961951375 3.358795166 0.9271418452
0.8171717525 2.742899418 -0.7552860379
0.9281249046 3.111353159 -0.7396356463
1.007835984 3.376416922 -0.676671505
1.010004163 3.379376411 -0.5519523621
1.008640885 3.37052083 -0.4268430173
1.008850217 3.36908555 -0.3039738536
1.011289358 3.372940779 -0.1823396236
1.011372089 3.368941784 -0.06069767475
1.00490272 3.370877028 0.06069767475
0.9843159914 3.29762125 0.17815274
0.9996572137 3.346879721 0.301882118
1.004639864 3.359285593 0.4253805578
1.002706766 3.348569393 0.546946466
1.010809064 3.373478889 0.676289916
1.008609414 3.361875296 0.8003724813
1.010137558 3.36269784 0.929212451
0.8256260157 2.736331224 -0.7542507648
0.9384171963 3.10622859 -0.7391857505
1.020184755 3.374757767 -0.6770531535
1.024084091 3.383392572 -0.5532038212
1.026156783 3.385977507 -0.4292804003
1.02233994 3.371263266 -0.3044967949
1.029439211 3.390412331 -0.1834910065
1.02835083 3.384702921 -0.06104671955
1.01955235 3.376920462 0.06087219715
1.001022816 3.313457966 0.1791994572
1.015948176 3.358626604 0.3032765985
1.023264289 3.378557205 0.4283054471
1.0201087 3.366020918 0.5503880382
1.022007823 3.368051291 0.6759082675
1.023738384 3.369521618 0.8030718565
1.021844268 3.361177921 0.9297300577
0.8329139948 2.726042747 -0.7521802187
0.9441540241 3.088191509 -0.7355865836
1.038853884 3.393703461 -0.6816325188
1.036456227 3.383755445 -0.5538296103
1.042035103 3.397738934 -0.4312303066
1.040535808 3.38862443 -0.306414187
1.040089369 3.385071039 -0.1833863407
1.041336298 3.384914875 -0.06111652777
1.031913042 3.377346039 0.06094200537
1.015503526 3.319492817 0.1797228158
1.031167746 3.366489887 0.3043224812
1.032136321 3.367552996 0.4273304641
1.035909653 3.375658274 0.5525780916
1.034900904 3.370273829 0.6770531535
1.040061593 3.382871866 0.8071209788
1.038116932 3.37236166 0.93387115
0.8465149999 2.738030672 -0.7563213706
0.9514698386 3.073707342 -0.7328871489
1.054750085 3.405242443 -0.6846854687
1.054695368 3.400871515 -0.5572711229
1.055067301 3.39787221 -0.4317177832
1.057085276 3.402280092 -0.307983011
1.053679824 3.387140751 -0.1837003529
1.062063813 3.41199255 -0.06167500839
1.047242641 3.38518548 0.06115143746
1.031229854 3.331370831 0.1805601865
1.051172495 3.391598225 0.3069371283
1.045060992 3.367722034 0.4278179705
1.052955031 3.391069889 0.555706799
1.050155401 3.377889395 0.6793428659
1.054179668 3.386663914 0.8089206219
1.056189179 3.391034126 0.9400828481
0.85491395 2.731371403 -0.7552860379
0.9674825668 3.089131594 -0.737386167
1.065456152 3.397793055 -0.6839222312
1.06951654 3.40866375 -0.5591483712
1.067520022 3.398142099 -0.43220523
1.074933887 3.417575121 -0.309726119
1.070902944 3.402679205 -0.1847470701
1.073966742 3.408264875 -0.06167500839
1.065631509 3.40459466 0.0615702942
1.04165864 3.323938847 0.180350855
1.065390229 3.395512581 0.3076343834
1.062168479 3.383177519 0.4302553535
1.064785004 3.387373924 0.555706799
1.067240953 3.393116951 0.6831590533
1.066574574 3.386867285 0.8098204136
1.073248744 3.403908014 0.9447416067
0.859300971 2.713788033 -0.7511449456
0.9806162119 3.093165874 -0.7391857505
1.079091549 3.401726484 -0.6854487062
1.085595012 3.418088198 -0.5613384247
1.085388422 3.413313389 -0.4346426427
1.083845496 3.406397104 -0.3090288639
1.08762157 3.414144993 -0.1855844408
1.088288784 3.412115574 -0.06181462854
1.082338691 3.41610527 0.06184953451
1.059295058 3.339319944 0.1813975722
1.079054594 3.399557114 0.3083316386
1.079984665 3.398367643 0.4326927364
1.080197215 3.39493084 0.5575840473
1.083844185 3.404336214 0.6862120032
1.082534075 3.396120071 0.8129696846
1.088058472 3.409343719 0.9473297596
0.8687680364 2.710772038 -0.7511449456
0.9902174473 3.08601284 -0.7382859588
1.095759749 3.412893534 -0.6885016561
1.101147771 3.425561428 -0.563215673
1.1021626 3.424620628 -0.4365925491
1.103059053 3.425350428 -0.3111206293
1.102597833 3.41983223 -0.1861078143
1.105106354 3.423520327 -0.06209386885
1.096700072 3.419922829 0.06198915094
1.077049732 3.354618788 0.1824442893
1.093353152 3.403357267 0.3090288639
1.097918034 3.41347456 0.4351301193
1.099308133 3.413702488 0.5613384247
1.099332929 3.411744118 0.6885016561
1.097374678 3.401593447 0.8152192235
1.099953532 3.405524492 0.9473297596
0.8800138235 2.713235378 -0.7526978254
0.9997776747 3.078831196 -0.737386167
1.114947438 3.431453705 -0.6930810809
1.114929438 3.427333117 -0.5641542673
1.12025857 3.439627647 -0.4390299618
1.116241336 3.425268412 -0.3114692271
1.116387963 3.421658278 -0.1864218116
1.122018099 3.434848309 -0.06237310171
1.111099482 3.423681974 0.06212876737
1.093691349 3.366034508 0.1832816601
1.111385942 3.418467999 0.3107720017
1.112285137 3.417171478 0.4361050725
1.117335796 3.428626776 0.5644671321
1.111845016 3.409752369 0.6888833046
1.12133503 3.434793234 0.8242172599
1.117236972 3.418190479 0.9519885778
0.8888751864 2.708312273 -0.7521802187
1.010519505 3.07532239 -0.737386167
1.133048177 3.446192026 -0.6968972683
1.131210685 3.436554432 -0.5663443804
1.132257581 3.435696363 -0.4390299618
1.134431362 3.440272808 -0.3132123649
1.133333325 3.432913303 -0.1872591972
1.141532779 3.453694582 -0.0627919659
1.128035784 3.434981585 0.06240800768
1.106679678 3.365991592 0.1834910065
1.128293633 3.429708004 0.3121664822
1.122962236 3.409497738 0.4356175959
1.135484219 3.443465471 0.5675958395
1.128660917 3.420766115 0.6919362545
1.133930087 3.432708263 0.8246671557
1.134620428 3.430777073 0.9566472769
0.9025859833 2.718026638 -0.7558037043
1.021247625 3.07177639 -0.737386167
1.141353369 3.431038141 -0.6946075559
1.148816347 3.449452162 -0.5691601634
1.146755934 3.439255476 -0.4400048852
1.154629588 3.460861921 -0.3154784143
1.150372386 3.444091082 -0.188096568
1.154847503 3.453482628 -0.06286177039
1.145064473 3.446204185 0.06268724799
1.119684219 3.365898132 0.1837003529
1.14781034 3.448433399 0.3142582178
1.144899011 3.435689449 0.4395174384
1.148121715 3.441355228 0.5679087043
1.145567179 3.431703568 0.6949892044
1.145904779 3.428729534 0.8246671557
1.150267959 3.437787533 0.9597530961
0.90653193 2.698377848 -0.7511449456
1.033207297 3.071886539 -0.7382859588
1.160212159 3.447500706 -0.6988053918
1.165896893 3.460396767 -0.5716631413
1.16509831 3.454041481 -0.4424422681
1.166704178 3.456809998 -0.3154784143
1.168141127 3.457084417 -0.1890386194
1.168177843 3.45321846 -0.06293158233
1.164730549 3.46493268 0.06310610473
1.136523843 3.377112389 0.1845377237
1.161111593 3.448182344 0.3146068454
1.161958933 3.446720362 0.4414673448
1.157601476 3.429839849 0.5666572452
1.165077806 3.450004101 0.6995685697
1.163484454 3.441323042 0.8287162781
1.165357232 3.442901134 0.9623413086
0.9147017002 2.691539049 -0.7501096129
1.041413903 3.060881615 -0.7364863753
1.172870994 3.445288658 -0.6991869807
1.180518866 3.463784933 -0.5729146004
1.182275534 3.464983463 -0.4443922043
1.182626843 3.464029312 -0.3165242672
1.186014175 3.469995022 -0.1899806708
1.18669796 3.468039751 -0.06328062713
1.177462935 3.462738752 0.0631410107
1.157315612 3.399594784 0.1860031337
1.176352262 3.453538656 0.3154784143
1.175904393 3.448280096 0.4421985447
1.177864552 3.450080156 0.5707244873
1.177112818 3.445916653 0.6995685697
1.184319019 3.463055134 0.8350149393
1.181121945 3.449778557 0.9654470682
0.9253480434 2.691983461 -0.7511449456
1.047018409 3.042486429 -0.7328871489
1.198953032 3.482011795 -0.707582593
1.19582057 3.468981028 -0.5744789839
1.20019269 3.477723598 -0.446585834
1.199262619 3.473063231 -0.3177444637
1.200730562 3.473384142 -0.1903993487
1.205337524 3.482773304 -0.06362967938
1.19019258 3.460498571 0.06317591667
1.171777248 3.403087616 0.1864218116
1.192293286 3.460714102 0.3165242672
1.190523982 3.451660633 0.4431734979
1.19312346 3.455284119 0.5722888708
1.19298172 3.452920198 0.7018583417
1.199584484 3.468108654 0.8372644186
1.19821465 3.460238218 0.9695882201
0.9334698915 2.685087681 -0.7501096129
1.056350589 3.035132647 -0.7319873571
1.212390661 3.481513739 -0.7083458304
1.213774085 3.481572866 -0.5772947669
1.214940786 3.481010199 -0.4475607872
1.215976 3.482023001 -0.3189646304
1.214824438 3.474828243 -0.1907133609
1.220841169 3.490082741 -0.06383910775
1.207521558 3.471432209 0.06345514953
1.188307166 3.414273739 0.1872591972
1.212233782 3.479108095 0.3186160028
1.203872204 3.451232672 0.4436609745
1.214989305 3.481149197 0.5772947669
1.209559798 3.461708546 0.7045296431
1.214899659 3.473097324 0.8395139575
1.216703653 3.476302862 0.9752822518
0.9486042261 2.698215008 -0.7547684312
1.065117121 3.027935743 -0.7310875058
1.22518909 3.479112148 -0.7087274194
1.2318784 3.496159554 -0.5804234743
1.229119778 3.484449863 -0.4485357404
1.23342979 3.492787123 -0.3203591108
1.233660817 3.491495132 -0.1918647587
1.235682964 3.493340969 -0.06397872418
1.224333405 3.482500792 0.06373438984
1.200880289 3.41198945 0.1873638779
1.229668736 3.48988843 0.3200105131
1.223229885 3.4696877 0.446585834
1.227791786 3.478749514 0.5776076317
1.226915359 3.474339724 0.7079641819
1.229009151 3.476398468 0.8413135409
1.232052922 3.481140614 0.9778704047
0.9510783553 2.676851034 -0.7495920658
1.077638626 3.02970767 -0.732437253
1.238035321 3.478729486 -0.7094906569
1.25004077 3.50858593 -0.5832393169
1.248610377 3.500705481 -0.4512168765
1.247685075 3.496182919 -0.321056366
1.251217604 3.502213955 -0.1927021444
1.249953985 3.496756077 -0.06411834806
1.243849516 3.498932123 0.06411834806
1.218213081 3.424923658 0.1883059144
1.243907452 3.493299484 0.3207077384
1.240000725 3.478485346 0.448292017
1.239983916 3.476519585 0.5779204965
1.247619033 3.494071484 0.7129251957
1.247695565 3.490437984 0.8458126187
1.24879396 3.491588116 0.9820115566
0.959109664 2.66987896 -0.7485567927
1.083724022 3.015114784 -0.7297378182
1.251501083 3.478080988 -0.7102538943
1.261668086 3.504421711 -0.5832393169
1.264924765 3.509617805 -0.4529230297
1.266644597 3.510547638 -0.3227995038
1.269605637 3.516831875 -0.1937488616
1.267590523 3.507416248 -0.06439758837
1.258824944 3.504198074 0.06429287046
1.236920714 3.439444304 0.1893526316
1.258117795 3.494560242 0.3212306798
1.259603024 3.496765375 0.4512168765
1.25881207 3.490752935 0.5810492039
1.260532498 3.493607998 0.7136884332
1.266544938 3.506442547 0.8507614732
1.262289047 3.49084115 0.9830468297
0.9653208852 2.659420013 -0.746486187
1.098901868 3.024134159 -0.7328871489
1.269062996 3.490518332 -0.7136884332
1.275920987 3.505564451 -0.5841779113
1.283963084 3.523832798 -0.4553604126
1.282372713 3.51755929 -0.3238453567
1.284612179 3.519883633 -0.1941675395
1.286689281 3.521752596 -0.06474663317
1.275146008 3.511059523 0.06450229883
1.253011465 3.446368933 0.1899806708
1.275149107 3.50534749 0.3226251602
1.275874376 3.503539324 0.4526793063
1.277079582 3.503040075 0.5838650465
1.273393512 3.491030693 0.7140700817
1.280783296 3.50749135 0.8521112204
1.281098485 3.504558086 0.9882231951
0.9785917401 2.666915655 -0.7495920658
1.100043535 2.99467063 -0.7265884876
1.281917691 3.487909555 -0.7140700817
1.297016382 3.525190115 -0.588245213
1.300373197 3.530505419 -0.4568228722
1.303599 3.53736496 -0.3261114061
1.301039577 3.526620626 -0.1947955787
1.304514527 3.532247305 -0.06502587348
1.291530013 3.517849922 0.0647117272
1.270546794 3.45697093 0.1908180416
1.29425478 3.519574404 0.3243682981
1.29221189 3.51024127 0.454141736
1.296812534 3.518949747 0.5873065591
1.292361259 3.504985809 0.7178862691
1.299766183 3.521281242 0.8566102386
1.299351335 3.516373396 0.9928820133
0.9892394543 2.667105913 -0.7506272793
1.109134316 2.987158537 -0.7256886959
1.283830523 3.455807924 -0.7083458304
1.313445926 3.531749725 -0.5901224017
1.314071894 3.529666424 -0.4573103487
1.32359004 3.55333066 -0.3280288279
1.318922043 3.537029743 -0.1956329495
1.321033239 3.538912296 -0.06523530185
1.310756564 3.532068729 0.065060772
1.282607079 3.452514648 0.1908180416
1.308612466 3.520638704 0.3248912394
1.307919383 3.515011549 0.4553604126
1.315294862 3.531061411 0.5901224017
1.310073972 3.515169859 0.720939219
1.309326053 3.509419203 0.8548106551
1.318374515 3.529914856 0.9980583191
0.997186482 2.660018921 -0.7495920658
1.119555593 2.983268499 -0.7256886959
1.293814659 3.445791721 -0.7072009444
1.33341229 3.547482729 -0.5935639739
1.33407557 3.545495033 -0.4599914849
1.338092327 3.554282665 -0.3285517693
1.337600589 3.5492239 -0.1965750009
1.334789276 3.538021564 -0.06530510634
1.331506133 3.549939394 0.06547963619
1.300266623 3.462975025 0.1916554272
1.329302907 3.538430214 0.3269829452
1.327866673 3.530863285 0.4580415487
1.324133515 3.517205 0.5885580778
1.333408117 3.539971828 0.7270451188
1.336695433 3.544942379 0.8647084832
1.332735896 3.530713081 0.9996112585
1.000306368 2.640262604 -0.7449332476
1.135488749 2.993919849 -0.7292879224
1.306532383 3.443089962 -0.707582593
1.34438169 3.539114475 -0.5929382443
1.352794647 3.557515383 -0.4621851146
1.354030967 3.558901787 -0.3294233382
1.357802033 3.565064192 -0.1977263838
1.355680823 3.555762768 -0.06572397053
1.344597697 3.547140121 0.06551453471
1.32226789 3.484557629 0.1931208223
1.343768716 3.539355993 0.3275058866
1.34371078 3.535484076 0.4592602551
1.347639441 3.542102575 0.5935639739
1.349948406 3.546303988 0.7293347716
1.34767127 3.536613703 0.8638086915
1.349872828 3.538673878 1.003234744
1.011588097 2.64216733 -0.746486187
1.136866808 2.966281891 -0.7234392166
1.31643343 3.433009148 -0.7064377069
1.363099456 3.550997257 -0.5957540274
1.37232399 3.571301699 -0.4646224976
1.372166395 3.569030762 -0.3308178186
1.370954871 3.562167168 -0.1978310645
1.378149986 3.577132463 -0.06621263176
1.36269474 3.55736351 0.06579377502
1.34085834 3.496704817 0.1940628737
1.360396624 3.545805454 0.3285517693
1.360313296 3.541891336 0.4607226849
1.367085218 3.555814505 0.5966926217
1.363024831 3.543402433 0.7297164202
1.371913552 3.562803268 0.8714569807
1.366385221 3.544756174 1.006340504
1.021501541 2.640422344 -0.7470038533
1.145806074 2.958661318 -0.7225394249
1.334082723 3.443038702 -0.7094906569
1.379057407 3.555426121 -0.5973183513
1.384782791 3.566489458 -0.4646224976
1.391108632 3.580933809 -0.3323866129
1.387724996 3.568528175 -0.1984590888
1.393529177 3.579754353 -0.06635225564
1.378714204 3.561909199 0.06596829742
1.355220079 3.497590542 0.1943769008
1.374206781 3.544750214 0.3289003968
1.376976848 3.548225403 0.4621851146
1.386641264 3.569434166 0.5998213291
1.381074548 3.553262472 0.7327693701
1.382927775 3.554360628 0.870557189
1.387865782 3.563366175 1.013069749
1.035635948 2.649435282 -0.7506272793
1.162518501 2.970976114 -0.7265884876
1.338221192 3.418250561 -0.7052928805
1.401551604 3.576339245 -0.6016985774
1.402297735 3.574569941 -0.4663286805
1.410880327 3.594602346 -0.3341297209
1.407476068 3.582251787 -0.199505806
1.409675241 3.584173203 -0.06652677804
1.399878502 3.579423428 0.06638715416
1.373974562 3.509576321 0.1953189373
1.39093101 3.551062584 0.3299462497
1.395152092 3.558181763 0.464135021
1.4019804 3.571927309 0.6010728478
1.400644779 3.56669426 0.7365855575
1.404595613 3.573088646 0.8764059544
1.406661749 3.574679613 1.017728567
1.039200425 2.631429434 -0.746486187
1.17503202 2.972336531 -0.7279382348
1.347977877 3.40808177 -0.7041479945
1.422026634 3.591627598 -0.60514009
1.422081828 3.588107347 -0.4687660635
1.424888968 3.593359232 -0.3344783485
1.426604629 3.59402442 -0.2004478574
1.428196669 3.596204519 -0.06684091687
1.420446873 3.594973087 0.06677111238
1.391480207 3.519859314 0.1961563081
1.390854239 3.51469183 0.3269829452
1.414873958 3.571745872 0.4665724039
1.416729808 3.574603558 0.602324307
1.422497511 3.585507154 0.7415465713
1.423533916 3.584463835 0.8804550171
1.422074199 3.578972101 1.02031672
1.045516968 2.620608568 -0.7444156408
1.184157848 2.966614723 -0.7274883389
1.358410239 3.399709225 -0.703384757
1.403131127 3.509854794 -0.5919995904
1.441347003 3.601801872 -0.4712034464
1.441868067 3.599461079 -0.3355242312
1.450402498 3.618936539 -0.2021226138
1.446696877 3.606045008 -0.06712015718
1.433102489 3.592099667 0.06680601835
1.408202171 3.526110172 0.1967843473
1.408292294 3.52276516 0.3282031417
1.4326092 3.581779003 0.4685223103
1.437274694 3.589809418 0.6057658792
1.438760996 3.591704607 0.7438362837
1.441214085 3.594193935 0.8840542436
1.436718225 3.5793643 1.021869659
1.056366205 2.622503042 -0.7459685206
1.194506764 2.962462902 -0.7274883389
1.369677544 3.395185709 -0.703384757
1.473067641 3.647805691 -0.6164034009
1.459655881 3.607334137 -0.3367443979
1.464526057 3.617553711 -0.2023319602
1.465284824 3.615799427 -0.06739939749
1.449369192 3.596349478 0.06698054075
1.430216789 3.545251608 0.1981450766
1.429660082 3.542094469 0.3304691911
1.449565887 3.587799311 0.4699847698
1.457942843 3.604914665 0.6092073917
1.450554132 3.584840298 0.7434546947
1.463261366 3.612622023 0.8899029493
1.460092783 3.601181507 1.029634237
1.063786745 2.613245726 -0.7444156408
1.1989609 2.943836451 -0.7238891125
1.381370425 3.388324738 -0.7030031085
1.477470398 3.620435476 -0.6126489639
1.431940317 3.507112741 -0.4599914849
1.479020476 3.618816853 -0.3383132219
1.479286909 3.615859032 -0.2025412917
1.486984849 3.632871151 -0.06781825423
1.467946529 3.606084824 0.06725978106
1.444841862 3.545787334 0.1984590888
1.459188461 3.577416897 0.3343040347
1.462078452 3.582718611 0.4699847698
1.47350657 3.607117891 0.6104589105
1.472599506 3.6013062 0.74803406
1.480182648 3.616252661 0.8921525478
1.478510499 3.610365391 1.03377533
1.07804513 2.622023344 -0.7480391264
1.209000111 2.937620401 -0.7234392166
1.390200377 3.376220465 -0.7014766932
1.499132991 3.637171268 -0.6164034009
1.485797524 3.603027344 -0.4733970761
1.500288606 3.630978584 -0.2036926895
1.502713799 3.635050535 -0.06795787811
1.49180305 3.626571417 0.06774844229
1.460251689 3.54810977 0.1988777816
1.480773449 3.594407797 0.3363957703
1.485797524 3.603027344 0.4733970761
1.492868423 3.618387222 0.6132746935
1.493405819 3.616104364 0.7522318959
1.49737668 3.623931408 0.8953018188
1.497750282 3.621248722 1.038434148
1.079328179 2.600591421 -0.742862761
1.220978737 2.938993692 -0.7247889042
1.404402018 3.378843546 -0.7030031085
1.514222383 3.639475107 -0.61765486
1.525199652 3.664056301 -0.4821716845
1.462239861 3.509351969 -0.3289003968
1.518471003 3.640730619 -0.2045300752
1.517841101 3.637428761 -0.06809749454
1.513789535 3.645613194 0.068202205
1.478140593 3.558002949 0.1997151673
1.501099348 3.60971427 0.3383132219
1.506891012 3.620072603 0.4763219655
1.505618095 3.615240574 0.6135875583
1.511431694 3.625628948 0.7552847862
1.510885358 3.622543097 0.896201551
1.514215231 3.62695837 1.041539907
1.087944388 2.596998453 -0.742862761
1.226949453 2.925943136 -0.7225394249
1.412558556 3.366927385 -0.7014766932
1.529341578 3.641718864 -0.6189063191
1.540287375 3.664200068 -0.4829029143
1.523163438 3.619921923 -0.3398820162
1.539848089 3.654221058 -0.06851635128
1.528963327 3.647949934 0.06834182888
1.501366377 3.578606844 0.2011805624
1.503808856 3.582670927 0.3362214565
1.526577711 3.633356333 0.4787593484
1.52665329 3.629992485 0.6170291305
1.531061649 3.638692379 0.7591009736
1.540163517 3.656757593 0.9060994387
1.529867768 3.628771782 1.043610573
1.098963499 2.596550941 -0.7438979745
1.237154841 2.921642542 -0.7225394249
1.423359752 3.358111382 -0.7007134557
1.547307253 3.64700079 -0.6207835674
1.553844929 3.660627842 -0.4831466377
1.555265665 3.660427332 -0.3442398012
1.484445453 3.490356445 -0.1965750009
1.560421348 3.667225361 -0.06886540353
1.519303679 3.586217165 0.2019132674
1.527041078 3.600980997 0.3384875059
1.545451164 3.642626047 0.4807092845
1.546263576 3.641005516 0.6198449731
1.546691179 3.638477087 0.7602458
1.558133006 3.661847353 0.9087988734
1.552363396 3.646516323 1.050339818
1.107259393 2.590923071 -0.7433803678
1.240957618 2.900963068 -0.718490243
1.438160419 3.360342979 -0.7022399306
1.570141554 3.665181875 -0.6248508692
1.571944594 3.665855169 -0.4846090674
1.582959414 3.689764738 -0.3475517035
1.557301879 3.626464605 -0.2046347409
1.535580158 3.587969542 0.2023319602
1.533328533 3.580975771 0.3370930254
1.561920643 3.644234896 0.4816842079
1.572060227 3.664359331 0.6248508692
1.571771264 3.661921501 0.7663516998
1.577060699 3.67070961 0.9123980403
1.574875593 3.662098646 1.056551337
1.119358897 2.594137192 -0.7454509139
1.255711913 2.907347918 -0.7211896777
1.443652391 3.340884447 -0.6991869807
1.582924962 3.659679174 -0.6248508692
1.591041803 3.67491889 -0.4865590036
1.596170068 3.681476355 -0.2080889046
1.515770912 3.492703915 -0.06575886905
1.54809618 3.582587004 0.2023319602
1.56005156 3.608519793 0.3402306139
1.582515001 3.656979322 0.4841216207
1.587981462 3.666100264 0.6261023283
1.591569185 3.672625542 0.7697862983
1.589087963 3.66339469 0.911948204
1.595344067 3.674299002 1.061727762
1.124550223 2.581358433 -0.742862761
1.267411351 2.906519175 -0.7220894694
1.458446503 3.343022346 -0.7007134557
1.605177283 3.675854683 -0.6286053061
1.612604499 3.689351082 -0.4892401099
1.603890419 3.66767025 -0.3465058506
1.618620872 3.697838545 -0.2093449831
1.558630466 3.559096098 -0.06712015718
1.550818801 3.558144331 0.06705035269
1.531229258 3.511525631 0.1985637695
1.5774194 3.614008665 0.3412764966
1.605602622 3.675079823 0.4872901738
1.604086757 3.669863939 0.6276667118
1.612249613 3.685033798 0.7736024857
1.613592982 3.684601545 0.9186967611
1.61139524 3.67783618 1.064316034
1.130442381 2.570343971 -0.7407921553
1.273902893 2.89516592 -0.720289886
1.466149688 3.328927755 -0.6988053918
1.629305243 3.697626829 -0.6332983375
1.62963593 3.694881678 -0.4907025695
1.610247254 3.64746809 -0.3451113701
1.637329221 3.707066774 -0.210182339
1.640582085 3.710921764 -0.07012197375
1.58841753 3.604834318 0.3409278691
1.624188066 3.684266329 0.4892401099
1.627253652 3.687737226 0.6317340136
1.632390738 3.697626591 0.777418673
1.633678436 3.69705534 0.9231957793
1.63047421 3.686323166 1.068457127
1.14209497 2.573643923 -0.742862761
1.284000397 2.890701771 -0.720289886
1.484357119 3.340193748 -0.7022399306
1.642201662 3.691917181 -0.6332983375
1.654635549 3.716372013 -0.4943585992
1.651353717 3.705519915 -0.3512122333
1.656766891 3.715921879 -0.2110197395
1.655969739 3.710651159 -0.07022668421
1.544979334 3.47988224 0.06575886905
1.61493361 3.632317066 0.3440654874
1.638652325 3.682202339 0.4897276163
1.648153424 3.700079441 0.634862721
1.646086097 3.693699598 0.777800262
1.658482552 3.718025208 0.9299442768
1.655147076 3.70706892 1.076221704
1.151519537 2.56944108 -0.742862761
1.290894747 2.879088879 -0.718490243
1.498196483 3.338313341 -0.7030031085
1.671911716 3.72191143 -0.6395556927
1.678173065 3.730623007 -0.3541755676
1.673654437 3.71710968 -0.2114384174
1.685339451 3.741312504 -0.07092478126
1.649529099 3.680673838 0.06970311701
1.642924547 3.659090042 0.3472030759
1.656375051 3.687324524 0.4911900163
1.669970632 3.714121342 0.6383042336
1.666058064 3.701964378 0.7808532715
1.675301194 3.719028234 0.9317438602
1.162074804 2.568925858 -0.7438979745
1.299830198 2.870788097 -0.7175904512
1.508220911 3.32948637 -0.7022399306
1.697128534 3.74303937 -0.644248724
1.624776959 3.581800222 -0.4777843952
1.70106864 3.746512413 -0.3562672734
1.69818902 3.736700058 -0.2129038125
1.698386192 3.735408068 -0.07092478126
1.691041946 3.736543894 0.07088988274
1.686118126 3.720477343 0.3536526263
1.681360364 3.706537724 0.4946023822
1.68619144 3.715463877 0.6395556927
1.616195083 3.552987576 1.034292936
1.162566185 2.547483444 -0.7387216091
1.310963035 2.870006561 -0.718490243
1.504564524 3.292325497 -0.6953707933
1.715284467 3.749964952 -0.6464388371
1.711814642 3.740653515 -0.4999645948
1.715143681 3.744473219 -0.3566159308
1.715566516 3.741941214 -0.2135318518
1.714099884 3.737025261 -0.07106439769
1.714219689 3.754564047 0.07134364545
1.702587724 3.723925591 0.3545241654
1.70190227 3.718992949 0.4970397949
1.595525265 3.481719255 0.7362039089
1.600847602 3.491719723 0.8768558502
1.167776823 2.536594629 -0.7366511226
1.325365901 2.876263142 -0.7211896777
1.515474916 3.287317753 -0.6953707933
1.674740791 3.629463911 -0.6264151931
1.739012122 3.765291452 -0.5041081309
1.731729031 3.747808218 -0.3574874699
1.738025784 3.757985592 -0.2147879303
1.735535383 3.749165535 -0.07141344994
1.727496505 3.750675201 0.07137854397
1.608843803 3.489850283 0.1991918087
1.621039987 3.511469126 0.4697410166
1.595440507 3.452852726 0.5957540274
1.663905621 3.59937048 0.7625355721
1.727210045 3.729473352 1.089680314
1.183134198 2.546519518 -0.7407921553
1.330468297 2.86101675 -0.718490243
1.530251026 3.289129019 -0.6968972683
1.753821254 3.762796879 -0.5045956373
1.754905939 3.763408661 -0.3595792055
1.612588406 3.466105461 0.1981450766
1.611030936 3.461174011 0.3302948773
1.619872093 3.476999998 0.4658411741
1.73855257 3.728338957 0.6448744535
1.748668671 3.748329401 0.7957363725
1.757103205 3.762975931 0.9488402009
1.750032544 3.744423389 1.095891833
1.190376401 2.53887558 -0.7397568822
1.338790655 2.852827311 -0.7175904512
1.538386226 3.276658297 -0.6953707933
1.76610148 3.754855871 -0.5043519139
1.659543276 3.523514271 -0.2019132674
1.651668191 3.503625631 -0.06691072881
1.630504131 3.476011992 0.06631734967
1.622132063 3.455031157 0.1978310645
1.640892029 3.493399382 0.3339554071
1.625243545 3.456952333 0.4638912976
1.777629018 3.777656555 0.6545734406
1.753380895 3.724439621 0.7919201851
1.760259151 3.735665798 0.9434413314
1.774630547 3.762753725 1.103138924
1.2008847 2.538197041 -0.7407921553
1.347073436 2.844613791 -0.7166906595
1.549815416 3.271267891 -0.6953707933
1.652946115 3.481096506 -0.3334324956
1.65725553 3.487034798 -0.2001338452
1.694812655 3.580554485 0.06844653934
1.786196232 3.768512726 0.3611480296
1.676440716 3.533758879 0.4751032889
1.790805578 3.77142787 0.6545734406
1.64927578 3.47180295 0.7388752699
1.796719909 3.778776407 0.9560385942
1.801034212 3.78444767 1.111421108
1.209736824 2.533989906 -0.7407921553
1.360356212 2.846927166 -0.718490243
1.556143761 3.255211115 -0.6930810809
1.689445734 3.530885935 -0.6132746935
1.671374798 3.489993334 -0.4699847698
1.810516119 3.785620451 0.363414079
1.812187672 3.78572011 0.510201633
1.803106785 3.763371944 0.6542605162
1.809040546 3.774070501 0.8052767515
1.821701527 3.797078848 0.9623371959
1.82008791 3.790327311 1.115044594
1.211868405 2.515827894 -0.7366511226
1.366898298 2.835140705 -0.7166906595
1.567497969 3.24975872 -0.6930810809
1.679428816 3.478716373 -0.60514009
1.850383282 3.820891857 -0.07340303063
1.83262527 3.802820921 0.07298416644
1.664298534 3.450447083 0.1985637695
1.823718429 3.779277802 0.363414079
1.835752606 3.800821304 0.5131265521
1.833424926 3.792625904 0.660517931
1.833316684 3.790709019 0.8102378249
1.842583656 3.806484461 0.9663863778
1.840047121 3.797858953 1.119185686
1.226149082 2.521793604 -0.7397568822
1.378986597 2.83361578 -0.7175904512
1.582835197 3.251052856 -0.6946075559
1.861694455 3.811974049 -0.2201261818
1.868977666 3.825189352 -0.073612459
1.849176168 3.801472664 0.07308888435
1.85675323 3.811974049 0.3672488928
1.854019523 3.802989483 0.5143451691
1.857910991 3.809283495 0.6645852327
1.835139751 3.759264946 0.8048951626
1.869357944 3.825967789 0.9731348157
1.861775994 3.808769226 1.124361992
1.233243346 2.514029264 -0.7387216091
1.384940863 2.822030067 -0.7157908678
1.58898139 3.23493433 -0.6923178434
1.779672265 3.618364811 -0.4899713397
1.889424682 3.838125944 -0.3705608249
1.891092181 3.839822054 -0.2221149504
1.89292717 3.840165615 -0.07403130829
1.688278079 3.441640615 0.06621263176
1.744680047 3.553485632 0.2052627653
1.880591989 3.8269279 0.3693406582
1.868371367 3.800383806 0.5148326755
1.880789161 3.822271824 0.6680268049
1.888350368 3.835943699 0.8228312135
1.886338949 3.828489304 0.9753844142
1.884459496 3.821305275 1.130056024
1.243285894 2.513389111 -0.7397568822
1.391325235 2.810192347 -0.7139912248
1.600570798 3.231406927 -0.692699492
1.899053335 3.827296019 -0.5194637179
1.911885738 3.851469994 -0.3724782467
1.914258718 3.852873087 -0.2232663333
1.914333224 3.849650145 -0.07434545457
1.686976433 3.408843279 0.06568906456
1.823561072 3.681604147 0.2131131738
1.904773593 3.843877792 0.3716067076
1.892211199 3.815178871 0.5177575946
1.902025819 3.831607342 0.6708426476
1.901727915 3.829329014 0.8228312135
1.902294636 3.827116489 0.9767341018
1.909832835 3.83891964 1.137302995
1.24860096 2.502120018 -0.737686336
1.405480742 2.814035177 -0.7162407637
1.613595128 3.229313135 -0.6934626698
1.87451005 3.748209 -0.6570763588
1.930173159 3.856146097 -0.5243384838
1.924427152 3.842991114 -0.3723039329
1.935751677 3.862237453 -0.2242083848
1.928416252 3.862740755 0.07465960085
1.839971185 3.682363272 0.2135318518
1.918180585 3.837204933 0.3716067076
1.914505482 3.823177814 0.6705297232
1.927393794 3.847242355 0.8281739354
1.927871943 3.844840288 0.9830327034
1.93275404 3.8512218 1.142997026
1.252116323 2.487392664 -0.7345805168
1.417924881 2.8143332 -0.7175904512
1.622207522 3.218400955 -0.6923178434
1.892919898 3.752225161 -0.6589535475
1.954897523 3.87003994 -0.375615865
1.963639021 3.883975744 -0.2258831412
1.706731439 3.374363422 -0.06530510634
1.949082494 3.870274067 0.07493883371
1.853071928 3.678024054 0.2136365175
1.939634323 3.846498251 0.3731755018
1.946526885 3.856813192 0.525313437
1.940527558 3.843258381 0.6752227545
1.947896242 3.854507923 0.8312268257
1.953594089 3.862433195 0.989331305
1.949002624 3.851686478 1.145067453
1.260790706 2.483007193 -0.7345805168
1.427249193 2.809616089 -0.7175904512
1.636990547 3.219719648 -0.6938443184
1.906247258 3.747688532 -0.6592664123
1.981591344 3.892452717 -0.531163156
1.979249835 3.884494543 -0.3777076304
1.975600004 3.875663519 -0.2257784754
1.981137156 3.883170843 -0.07539259642
1.970960498 3.881618738 0.07528788596
1.877663612 3.694679499 0.2149972469
1.96208334 3.857462645 0.3749186397
1.960207105 3.852105618 0.5255571604
1.970963836 3.869906425 0.6811673045
1.967798829 3.862020731 0.834279716
1.981441021 3.88544631 0.9969795942
1.972097635 3.863787174 1.150761604
1.270777941 2.482251644 -0.7356157899
1.428162217 2.787273407 -0.713091433
1.640493274 3.200296879 -0.6907913685
1.921121836 3.744526386 -0.6598922014
2.002421618 3.899638891 -0.533113122
2.012061834 3.910016537 -0.07605579495
1.993614793 3.892513037 0.07563693076
1.900568485 3.707655191 0.2161486596
1.971228838 3.843843222 0.3742213845
1.97817111 3.854071379 0.5267758965
1.991682291 3.877058983 0.6836702228
1.987546921 3.867352486 0.8369510174
1.997666955 3.883704662 0.998329401
1.998835325 3.8826437 1.158526063
1.282094479 2.482949972 -0.7371687293
1.439671636 2.7857337 -0.7139912248
1.650753498 3.192806721 -0.6904097199
1.92873311 3.727271318 -0.6580149531
2.016935587 3.894387007 -0.5333568454
2.033140898 3.924004316 -0.3829369545
1.734132171 3.344049454 -0.1952142566
2.027541637 3.906518936 -0.07612560689
