# .PCD v0.7 - Point Cloud Data file format
VERSION 0.7
FIELDS x y z
SIZE 4 4 4
TYPE F F F
COUNT 1 1 1
WIDTH 1232
HEIGHT 1
VIEWPOINT 0 0 0 1 0 0 0
POINTS 1232
DATA ascii
-0.9411279559 5.471313477 1.070883036
-0.9330435395 5.435670376 1.263321757
-0.9280592203 5.412297249 1.459791541
-0.4677788317 2.751074791 -0.7361334562
-0.8230952621 4.856125355 -0.9491468072
-0.8296791911 4.905361176 -0.7812853456
-0.9234844446 5.471569538 -0.6761876941
-0.9324927926 5.530840874 -0.4870008826
-0.9298225045 5.526752949 -0.2915124297
-0.9309656024 5.539472103 -0.09734772146
-0.938960135 5.527981758 0.09717320651
-0.9345282912 5.5077281 0.2905703783
-0.9356910586 5.526259422 0.4866522849
-0.9267516732 5.485109806 0.677893877
-0.9213348031 5.458833218 0.8701400757
-0.9236525893 5.4842453 1.07279098
-0.9127703905 5.431206703 1.261522055
-0.9091596603 5.415504456 1.459791541
-0.4607109725 2.767935753 -0.7402745485
-0.8054975867 4.855095863 -0.9483835101
-0.8153467774 4.919778347 -0.7831625938
-0.9059812427 5.478518963 -0.6766752005
-0.9125332832 5.530130386 -0.4866522849
-0.9121381044 5.533747673 -0.2917217612
-0.910651207 5.536768913 -0.09724301845
-0.9206219912 5.531065464 0.09717320651
-0.9169343114 5.520807266 0.2910937071
-0.9157421589 5.525560856 0.4863036573
-0.9062889218 5.474443913 0.6761876941
-0.9009851217 5.454220295 0.8688886166
-0.906101346 5.49115181 1.073554277
-0.8953891993 5.438049316 1.262421966
-0.8889989257 5.411019325 1.457720995
-0.4527736604 2.777075052 -0.7423450947
-0.7591579556 4.666530132 -1.081561327
-0.7912834883 4.869366646 -0.9506732225
-0.7969025373 4.914794445 -0.7819111347
-0.8874847293 5.48556757 -0.6771626472
-0.892916739 5.525259018 -0.4859549999
-0.8940864205 5.544785023 -0.2921404541
-0.893238008 5.545681 -0.09734772146
-0.9016292691 5.536218643 0.09720810503
-0.900546968 5.535645485 0.2917217612
-0.895496726 5.516767502 0.4852577746
-0.8878099322 5.481492996 0.6766752005
-0.8828918338 5.457178593 0.8688886166
-0.8859907985 5.488467216 1.072409391
-0.8776395321 5.448837757 1.264221549
-0.8698240519 5.406308651 1.455650449
-0.4622413516 2.898826838 -0.7749563456
-0.7295795083 4.580495358 -1.060865879
-0.7755126357 4.879855156 -0.9521996975
-0.7806034088 4.917409897 -0.7819111347
-0.8692901731 5.488480091 -0.6771626472
-0.8742476702 5.532278061 -0.4863036573
-0.8741385341 5.537855625 -0.2916170955
-0.8744978309 5.552715302 -0.0974175334
-0.8820071816 5.531279564 0.0970684886
-0.880589366 5.534810543 0.2915124297
-0.8762379289 5.519859314 0.4852577746
-0.869626224 5.484406948 0.6766752005
-0.8650757074 5.46803093 0.8701400757
-0.86594522 5.479739666 1.070119739
-0.8595641255 5.45171833 1.264221549
-0.8515461087 5.413128853 1.456685662
-0.4449792504 2.854611397 -0.7625330091
-0.7091892362 4.560031891 -1.05546701
-0.7596805692 4.890292645 -0.9537262321
-0.7643865943 4.931950569 -0.7837882638
-0.8479558825 5.483782291 -0.6761876941
-0.8539662361 5.535444736 -0.4863036573
-0.8529240489 5.535099983 -0.2913030684
-0.8544453382 5.557859898 -0.09745243937
-0.8629598618 5.542377949 0.09720810503
-0.859685421 5.534053802 0.2913030684
-0.8575742841 5.52682209 0.4856064022
-0.8473944068 5.473825455 0.6749690175
-0.8450246453 5.47116518 0.8701400757
-0.8464550972 5.486757278 1.070883036
-0.8395780325 5.454832077 1.264221549
-0.8328744173 5.42385149 1.458756328
-0.4220193624 2.774098635 -0.7402745485
-0.6956124902 4.577892303 -1.059066176
-0.7417504191 4.893044472 -0.9537262321
-0.7486692071 4.950344086 -0.7862912416
-0.8282142282 5.482783318 -0.6757002473
-0.8364186287 5.550213337 -0.48734954
-0.8320384622 5.534238338 -0.2910937071
-0.8332564235 5.548943996 -0.09724301845
-0.8436066508 5.54535675 0.09720810503
-0.8391624689 5.529122829 0.2908844054
-0.8367163539 5.525988102 0.4852577746
-0.827983737 5.474787235 0.6747252345
-0.825925231 5.474081039 0.8701400757
-0.8269225359 5.493706226 1.071646214
-0.8172655106 5.442455292 1.260622382
-0.813935101 5.426725864 1.458756328
-0.4123339653 2.775554657 -0.7402745485
-0.6799684763 4.588122368 -1.060865879
-0.7246670127 4.895603657 -0.9537262321
-0.7319604754 4.956835747 -0.7869169712
-0.8086931705 5.489709854 -0.6761876941
-0.81529814 5.541272163 -0.4863036573
-0.8144540787 5.548965931 -0.2917217612
-0.813010335 5.545883656 -0.09713830054
-0.8226905465 5.544456005 0.09713830054
-0.8204411864 5.535969257 0.2910937071
-0.8182946444 5.534788609 0.4857807159
-0.8096511364 5.48956871 0.6761876941
-0.8045076132 5.461297035 0.8676371574
-0.8083128929 5.500443459 1.072409391
-0.7993920445 5.452987671 1.262421966
-0.7949884534 5.429533482 1.458756328
-0.399315685 2.754034519 -0.7340628505
-0.66363585 4.582636833 -1.059066176
-0.7086951733 4.905875683 -0.955252707
-0.7155200243 4.959235668 -0.7869169712
-0.7921792865 5.504150391 -0.6776501536
-0.7948217392 5.536195278 -0.4856064022
-0.7966139913 5.555590153 -0.2919311225
-0.7933672071 5.546707153 -0.09710339457
-0.8037244081 5.543195248 0.0970684886
-0.8016877174 5.542752743 0.2913030684
-0.7998217344 5.543527126 0.4863036573
-0.7920099497 5.496152401 0.6766752005
-0.7865620852 5.471893311 0.8688886166
-0.7895113826 5.49920702 1.071646214
-0.7810297608 5.453680038 1.26197207
-0.7743903995 5.42080164 1.455650449
-0.3912648559 2.762995005 -0.7361334562
-0.6932465434 4.914030552 -0.9563975334
-0.6982057691 4.961702824 -0.7869169712
-0.7726867199 5.504916191 -0.6774064302
-0.7760429382 5.542881966 -0.4859549999
-0.7761088014 5.550425529 -0.2915124297
-0.7764853835 5.567267418 -0.0974175334
-0.7843713164 5.545967102 0.0970684886
-0.7823335528 5.545517445 0.2913030684
-0.7819913626 5.550095081 0.4866522849
-0.7722660303 5.494952202 0.6761876941
-0.7682806253 5.480473995 0.8698272705
-0.7697648406 5.498041153 1.070883036
-0.7630673647 5.464092731 1.263771653
-0.7559950948 5.427298069 1.456685662
-0.3829829097 2.777806282 -0.7397568822
-0.6773691773 4.932098389 -0.9594504237
-0.6818932891 4.977929115 -0.7891070843
-0.7518529892 5.495779037 -0.6759439707
-0.7583073378 5.557401657 -0.4870008826
-0.7546840906 5.545316219 -0.2910937071
-0.7573177218 5.57192564 -0.09745243937
-0.7650087476 5.548670769 0.0970684886
-0.7629725337 5.548214436 0.2913030684
-0.7621840835 5.556871414 0.4870008826
-0.7522733212 5.491714478 0.6754564643
-0.7499462366 5.488994598 0.8707658648
-0.7498746514 5.502770424 1.071264625
-0.7425116301 5.462990284 1.262871861
-0.7380862236 5.437561035 1.458756328
-0.3725119829 2.773382664 -0.7382039428
-0.6179136634 4.612620354 -1.064465046
-0.6601474285 4.934432983 -0.9594504237
-0.6658177376 4.990068436 -0.7906714082
-0.7311798334 5.494562149 -0.6754564643
-0.7394272685 5.563965321 -0.48734954
-0.7358487248 5.551877022 -0.2913030684
-0.7368123531 5.566605568 -0.09731282294
-0.7457286716 5.559365273 0.09720810503
-0.7425387502 5.542925835 0.2908844054
-0.7433111668 5.563447952 0.48734954
-0.7318764925 5.492466927 0.6752127409
-0.7289587259 5.477871418 0.8685758114
-0.7309187651 5.507301331 1.071646214
-0.7229248881 5.461685658 1.26197207
-0.7206211686 5.451595306 1.461861968
-0.367839098 2.812977076 -0.7485567927
-0.6036244631 4.622373104 -1.066264629
-0.6424130797 4.932813168 -0.9586872458
-0.651050806 5.005961418 -0.7928614616
-0.7134668827 5.500893593 -0.6759439707
-0.7179547548 5.550704956 -0.4859549999
-0.718714416 5.564189911 -0.291826427
-0.7163534164 5.561210632 -0.09717320651
-0.7278087139 5.565773487 0.09727791697
-0.7237008214 5.549444675 0.2910937071
-0.7228599787 5.558105469 0.4866522849
-0.7146799564 5.502738476 0.6761876941
-0.7095777392 5.478424072 0.8682629466
-0.7131539583 5.513588905 1.072409391
-0.7043091059 5.460187435 1.261072278
-0.7001094818 5.442581177 1.458756328
-0.3707147539 2.909999609 -0.7744386792
-0.5865043402 4.616719723 -1.064465046
-0.6275327206 4.946601868 -0.9609768987
-0.6330756545 5.004283905 -0.7922357917
-0.6957501173 5.515167713 -0.6774064302
-0.698078692 5.5492239 -0.4856064022
-0.7002816796 5.574592113 -0.2922451198
-0.6966894865 5.561693192 -0.09713830054
-0.7073652744 5.56034565 0.09713830054
-0.7053318024 5.559862614 0.2915124297
-0.7034214735 5.552565575 0.4859549999
-0.6954686642 5.505199432 0.6761876941
-0.6909450293 5.484786987 0.8688886166
-0.6941497922 5.51799202 1.07279098
-0.6859740019 5.468413353 1.262421966
-0.679187417 5.429656506 1.454615116
-0.3420270979 2.765628099 -0.7350981832
-0.5703841448 4.618738651 -1.064465046
-0.6096394062 4.950817585 -0.9613586068
-0.6156914234 5.014413834 -0.7934872508
-0.6588769555 5.389458656 -0.4713128805
-0.6774295568 5.557295799 -0.2911984026
-0.6779947281 5.570046902 -0.09724301845
-0.6869710684 5.554841995 0.09699867666
-0.6868962646 5.570219994 0.2919311225
-0.6840394735 5.563016891 0.4866522849
-0.6755204201 5.501682758 0.6754564643
-0.6720365882 5.489125729 0.8692014813
-0.6717782021 5.502960682 1.069356561
-0.6671026349 5.480563164 1.264671445
-0.6611610651 5.439665318 1.456685662
-0.3360569775 2.797493935 -0.7433803678
-0.5548433065 4.632407665 -1.067164421
-0.6016783118 5.030889988 -0.9766232967
-0.6033332348 5.059684753 -0.8003703952
-0.600980401 5.077656269 -0.2657631338
-0.6592553258 5.578336239 -0.09734772146
-0.6668436527 5.559308529 0.09703358263
-0.6657896042 5.558702469 0.2911984026
-0.6641427279 5.561413765 0.4863036573
-0.6548830271 5.500179291 0.6749690175
-0.6540364623 5.501246452 0.8707658648
-0.6539529562 5.516969681 1.071646214
-0.6480096579 5.475004196 1.262871861
-0.6435285807 5.45345068 1.459791541
-0.3489599824 2.988555908 -0.794626534
-0.5403786898 4.641964912 -1.068964005
-0.6303274632 5.422883034 -1.052946925
-0.587914288 5.073431015 -0.8022475243
-0.5850768685 5.056663036 -0.6198840737
-0.5881612897 5.098907948 -0.4453404844
-0.5839093924 5.077637196 -0.2656584382
-0.6402955055 5.576518536 -0.09727791697
-0.6488662958 5.565461636 0.09710339457
-0.6464272738 5.552944183 0.2907797098
-0.6461546421 5.567543983 0.4866522849
-0.6391510367 5.524011612 0.6776501536
-0.6353351474 5.49946022 0.8701400757
-0.6361047626 5.523008347 1.072409391
-0.6287356615 5.467443466 1.260622382
-0.6250017881 5.451716423 1.458756328
-0.3383937478 2.983937979 -0.7930736542
-0.5223564506 4.620494843 -1.063565254
-0.6118991375 5.421041489 -1.052183747
-0.5719714761 5.083204269 -0.803499043
-0.5689697862 5.07248354 -0.6215902567
-0.5692508221 5.091029644 -0.4444688857
-0.5686203837 5.093440533 -0.2663911581
-0.6192762256 5.564807892 -0.09703358263
-0.6315330267 5.577517986 0.09727791697
-0.627486527 5.559135914 0.2909890711
-0.6263508201 5.557776928 0.4856064022
-0.6217141747 5.533991814 0.6786250472
-0.6152589321 5.493792057 0.8688886166
-0.6180028915 5.527038574 1.07279098
-0.6098664999 5.471540928 1.261072278
-0.6055398583 5.450025082 1.457720995
-0.5829738975 5.314521313 -1.420968652
-0.5079206824 4.637786865 -1.067164421
-0.593305409 5.434957504 -1.0544734
-0.5524783134 5.077412128 -0.8022475243
-0.5529763103 5.09022665 -0.623540163
-0.5508314967 5.087042809 -0.4439459443
-0.5518780947 5.113361359 -0.2673332095
-0.600060463 5.568924427 -0.0970684886
-0.6114071012 5.573725224 0.09717320651
-0.6085157394 5.565263271 0.2911984026
-0.6051141024 5.552112579 0.4849091768
-0.6006738544 5.520340919 0.6766752005
-0.5960767865 5.495906353 0.8688886166
-0.5966873765 5.519506931 1.070883036
-0.5908480287 5.483427525 1.263321757
-0.585273385 5.440580845 1.454615116
-0.5735952854 5.402971745 -1.444262385
-0.4925603569 4.65512085 -1.070763588
-0.5720602274 5.415519238 -1.050275683
-0.5343413353 5.075380325 -0.8016218543
-0.5351457 5.100116253 -0.6245151162
-0.5325984955 5.092991352 -0.4442946017
-0.5331948996 5.107311249 -0.2669145167
-0.5763354301 5.539262295 -0.09651000798
-0.5880247951 5.548088551 0.09668453783
-0.5870607495 5.557524681 0.2906750441
-0.5832236409 5.530413628 0.4828174114
-0.5771180391 5.490918159 0.6727753878
-0.5726377368 5.466619968 0.8638827205
-0.5731275082 5.48055172 1.062869072
-0.5694854259 5.464135647 1.258372784
-0.5661256909 5.450375557 1.456685662
-0.3058888912 2.985503197 -0.7925559878
-0.473927319 4.633548737 -1.065364838
-0.551810503 5.413673401 -1.049512386
-0.5161334872 5.081234932 -0.8022475243
-0.5169377923 5.098002911 -0.6240276098
-0.5160202384 5.106713295 -0.4453404844
-0.514873445 5.11320591 -0.267123878
-0.5575974584 5.547209263 -0.09661472589
-0.5664113164 5.528225422 0.09630057961
-0.5646185279 5.529736996 0.2891049683
-0.5625448823 5.528549671 0.4824687839
-0.5571463704 5.48499918 0.6718004346
-0.5527549982 5.460724831 0.8626312613
-0.5524465442 5.476755142 1.061724186
-0.5473092198 5.444857597 1.253423929
-0.5478695631 5.460007191 1.458756328
-0.296225667 2.994242668 -0.794626534
-0.4565599859 4.631375313 -1.064465046
-0.5332930088 5.419474602 -1.050275683
-0.4991656244 5.090869904 -0.803499043
-0.4973976612 5.081995487 -0.6218339205
-0.4987726212 5.114431858 -0.4458633959
-0.4964434505 5.109007835 -0.2668098509
-0.5378457308 5.545140743 -0.09654491395
-0.5465398431 5.534244537 0.09637039155
-0.5441355705 5.519747734 0.288476944
-0.5440235138 5.538411617 0.4831660688
-0.5368442535 5.485028744 0.6715566516
-0.533691287 5.462620735 0.8626312613
-0.5337046981 5.48255825 1.062487364
-0.5279322267 5.433065414 1.250274658
-0.5291780233 5.465732098 1.459791541
-0.2703032494 2.827899933 -0.7495920658
-0.4445234835 4.667783737 -1.072563291
-0.5093744993 5.358670712 -1.038063884
-0.4833969474 5.104296207 -0.8053762317
-0.4809170663 5.087569714 -0.6223214269
-0.4810611308 5.108123302 -0.4451661408
-0.4804300368 5.120568275 -0.2673332095
-0.5181477666 5.532957077 -0.09630057961
-0.5285655856 5.540007114 0.09644020349
-0.5269629955 5.533452034 0.2891049683
-0.5245237947 5.52828455 0.4821201861
-0.5190270543 5.490731239 0.672044158
-0.5144587755 5.452560425 0.8607540131
-0.5158895254 5.488206863 1.063250661
-0.5099111199 5.43478632 1.250274658
-0.5106916428 5.463610172 1.458756328
-0.257730782 2.794154167 -0.7402745485
-0.428329736 4.66146946 -1.070763588
-0.4910648465 5.354465008 -1.036918998
-0.4661094844 5.101937294 -0.8047505021
-0.4640558958 5.09910202 -0.623540163
-0.4637599289 5.105721951 -0.444817543
-0.463447988 5.122133255 -0.2673332095
-0.498829484 5.534732819 -0.09630057961
-0.5101898313 5.541729927 0.09644020349
-0.507645607 5.535257816 0.2891049683
-0.505826354 5.526024818 0.4817715585
-0.5018963218 5.504283905 0.6735065579
-0.4956025481 5.456290722 0.8610669374
-0.4976855814 5.489888191 1.063250661
-0.4916392267 5.44429636 1.252074242
-0.4909258187 5.457662582 1.456685662
-0.2507066131 2.825825691 -0.7485567927
-0.4113703668 4.655171394 -1.068964005
-0.4727148414 5.360058308 -1.037682295
-0.4469158053 5.087790489 -0.8022475243
-0.4469445348 5.108601093 -0.6245151162
-0.4464557767 5.113264561 -0.4453404844
-0.4453912377 5.121730328 -0.2672285438
-0.4807156026 5.550384998 -0.09654491395
-0.4901354909 5.535509109 0.09630057961
-0.4893720746 5.548933029 0.2897329926
-0.4865323603 5.527757168 0.4817715585
-0.4819875062 5.498092175 0.6725316644
-0.4774137735 5.467826843 0.8626312613
-0.477838695 5.483768463 1.061724186
-0.4736416042 5.45762825 1.254773617
-0.4725360274 5.467042446 1.458756328
-0.4699569643 5.515737057 -1.471697211
-0.3941284716 4.644928455 -1.066264629
-0.4537284672 5.369579792 -1.039208651
-0.4294839799 5.093256474 -0.8028733134
-0.429110527 5.11013031 -0.6245151162
-0.4280424416 5.118837357 -0.4456890821
-0.4256228507 5.111385822 -0.2666004896
-0.4648168385 5.593879223 -0.09727791697
-0.471149981 5.541171551 0.09637039155
-0.4693268239 5.542646885 0.2893142998
-0.4695836902 5.557216167 0.4842118919
-0.4626272917 5.497762203 0.6722878814
-0.458653003 5.473396778 0.8632570505
-0.4577377141 5.485482693 1.061724186
-0.4539423585 5.451480389 1.252974033
-0.4537700117 5.47250843 1.459791541
-0.4494222999 5.513572216 -1.470661998
-0.3780482113 4.657996178 -1.068964005
-0.4332528412 5.361422062 -1.037300587
-0.4116083086 5.104640961 -0.8044375777
-0.4087881744 5.091880798 -0.6220777035
-0.4097530246 5.126329899 -0.4462119937
-0.4078376293 5.124857426 -0.2672285438
-0.4435182512 5.585577965 -0.09710339457
-0.4548888206 5.592689514 0.09724301845
-0.4515869617 5.576181412 0.2909890711
-0.4517785609 5.5906744 0.4870008826
-0.4459749162 5.542953014 0.6776501536
-0.441744864 5.514422417 0.8695144057
-0.4416861534 5.538007259 1.071646214
-0.4333414435 5.445336819 1.251174331
-0.4340130389 5.477987289 1.460826755
-0.4277133346 5.495922089 -1.465485573
-0.361875236 4.67100811 -1.071663499
-0.4140534401 5.368846416 -1.038445473
-0.3935010135 5.113994122 -0.8056891561
-0.3901239038 5.093345165 -0.6220777035
-0.3909624517 5.127797127 -0.4462119937
-0.3893499076 5.130301476 -0.2674378753
-0.4230443239 5.587165833 -0.09710339457
-0.4346983433 5.598305702 0.09731282294
-0.4313013554 5.579790115 0.2910937071
-0.4306731522 5.584346771 0.4863036573
-0.4244416058 5.528716087 0.6757002473
-0.4209244251 5.508126259 0.8682629466
-0.4227267802 5.557206631 1.075080752
-0.4136713147 5.450775146 1.252074242
-0.4133514166 5.471835613 1.458756328
-0.4071396291 5.491672993 -1.463932633
-0.3453250825 4.680077076 -1.073463082
-0.3958118558 5.38990736 -1.0422616
-0.3740316927 5.105551243 -0.8041247725
-0.3731865287 5.118498325 -0.625002563
-0.3711549044 5.115285397 -0.444991827
-0.3706887662 5.133686066 -0.267542541
-0.402849406 5.592668533 -0.09717320651
-0.4134403765 5.58989048 0.09713830054
-0.4111393094 5.585318089 0.2913030684
-0.4096201658 5.57793951 0.4856064022
-0.4064886868 5.561911106 0.6796000004
-0.4010211229 5.513572216 0.8688886166
-0.4013648331 5.54501152 1.072409391
-0.3942530751 5.460029125 1.253873825
-0.3924638033 5.461752415 1.455650449
-0.3913905621 5.500564575 -1.46600318
-0.3314405978 4.681080341 -1.073463082
-0.3828320205 5.420368195 -1.047985911
-0.3580540419 5.094815254 -0.8022475243
-0.3579964936 5.11958313 -0.625002563
-0.3574267328 5.124251842 -0.4456890821
-0.3562139869 5.132709026 -0.2674378753
-0.3858416378 5.587853909 -0.0970684886
-0.3962849975 5.58311367 0.09699867666
-0.3954108357 5.598466396 0.2919311225
-0.3930666447 5.57913065 0.4856064022
-0.3895689845 5.557152748 0.6788688302
-0.3853511512 5.524590969 0.8704530001
-0.3850593567 5.534359932 1.070119739
-0.3783186674 5.465063572 1.254773617
-0.3770515621 5.474456787 1.458756328
-0.3727077246 5.509607315 -1.468073726
-0.3148356378 4.678320885 -1.072563291
-0.363907665 5.421671867 -1.047985911
-0.3409242928 5.10588932 -0.8038119078
-0.3395984769 5.112878799 -0.6240276098
-0.3408531845 5.145348549 -0.4474321902
-0.3380337059 5.129934788 -0.2672285438
-0.3673788309 5.605130196 -0.09734772146
-0.3773335814 5.592443943 0.09713830054
-0.3753296435 5.591842175 0.2915124297
-0.3743891418 5.592396259 0.4866522849
-0.3689798415 5.540652275 0.6766752005
-0.3665851951 5.533786297 0.8717044592
-0.3662547767 5.543506622 1.071646214
-0.3592434824 5.466350555 1.254773617
-0.3581930101 5.479594707 1.459791541
-0.3536007702 5.512802124 -1.468591332
-0.2982539535 4.675501347 -1.071663499
-0.3497203887 5.497361183 -1.062487364
-0.3230980039 5.107048035 -0.8038119078
-0.3212492168 5.106108665 -0.6230526567
-0.321744591 5.142586708 -0.4470835924
-0.3204965591 5.137063503 -0.267542541
-0.3471958041 5.59639883 -0.09717320651
-0.3580637872 5.597717762 0.09720810503
-0.3555584252 5.589131355 0.2913030684
-0.3551165462 5.59764576 0.4870008826
-0.3491409719 5.533981323 0.6757002473
-0.3467702568 5.527146816 0.8704530001
-0.3475188315 5.554547787 1.073554277
-0.3394326568 5.455901146 1.252074242
-0.3393006325 5.484668255 1.460826755
-0.3332723379 5.512133121 -1.468073726
-0.2821671367 4.680404663 -1.072563291
-0.3298000991 5.502525806 -1.063250661
-0.3049661517 5.118056774 -0.8053762317
-0.304128617 5.11908865 -0.6245151162
-0.3036727905 5.141689301 -0.4469092488
-0.3020184636 5.144185543 -0.2678565681
-0.3273065686 5.591588497 -0.0970684886
-0.3390031755 5.606917858 0.09734772146
-0.3362847567 5.594325542 0.2915124297
-0.334361285 5.594932079 0.4866522849
-0.3304105401 5.545074463 0.6769189239
-0.3270086944 5.520434856 0.8692014813
-0.3276156187 5.563623905 1.075080752
-0.3198902309 5.464890003 1.253873825
-0.3197018206 5.478104591 1.458756328
-0.313044399 5.495903969 -1.463414907
-0.2661131322 4.700863361 -1.077062368
-0.3086032867 5.468360424 -1.056381464
-0.2867657244 5.113173485 -0.8044375777
-0.2853653133 5.120169163 -0.6245151162
-0.2845059931 5.120835781 -0.444991827
-0.2842788398 5.149196148 -0.2680658996
-0.3076748848 5.590699673 -0.09703358263
-0.3184517622 5.608122826 0.09734772146
-0.3169817924 5.599453449 0.2917217612
-0.3143801391 5.588108063 0.4859549999
-0.3106399179 5.556158543 0.67813766
-0.3081750274 5.529432774 0.8704530001
-0.3077625334 5.556892395 1.073554277
-0.3010249436 5.469865322 1.254773617
-0.3005788624 5.479187489 1.458756328
-0.2942692637 5.504680157 -1.465485573
-0.2498996109 4.690044403 -1.074362874
-0.2788229287 5.267472267 -1.017074823
-0.2692889571 5.104233742 -0.8028733134
-0.2688012421 5.129016399 -0.6254900694
-0.2673553526 5.135725498 -0.4462119937
-0.2670994997 5.148116589 -0.2679612339
-0.2890852392 5.609713078 -0.09734772146
-0.2994269133 5.601160526 0.09720810503
-0.2976444662 5.604514599 0.2919311225
-0.2948732674 5.58917141 0.4859549999
-0.2917948067 5.549228668 0.6771626472
-0.2890790403 5.534419537 0.8710787296
-0.2891278565 5.553961277 1.07279098
-0.2830843031 5.474725723 1.255673409
-0.2816503942 5.484061718 1.459791541
-0.2770759463 5.52684927 -1.471179605
-0.2331402004 4.683102608 -1.072563291
-0.2572669089 5.186012745 -1.001046896
-0.2517628372 5.111061573 -0.8038119078
-0.2505092025 5.121992588 -0.6245151162
-0.2508066893 5.146533966 -0.4470835924
-0.2487426102 5.141037941 -0.267542541
-0.2706722021 5.614635468 -0.0974175334
-0.2802737057 5.610160351 0.09734772146
-0.2786614895 5.597491741 0.2915124297
-0.2771253586 5.606038094 0.48734954
-0.2718372345 5.538317204 0.6757002473
-0.2707257569 5.535347462 0.8710787296
-0.2699280977 5.558858395 1.073554277
-0.2637857199 5.471787453 1.254773617
-0.2640176713 5.496543407 1.462897301
-0.2572431862 5.516204357 -1.468073726
-0.2170652449 4.672170162 -1.069863915
-0.2386212945 5.175111771 -0.9987570643
-0.2349923998 5.115814209 -0.8044375777
-0.2331596613 5.114863396 -0.623540163
-0.232751444 5.14538765 -0.4469092488
-0.2316016108 5.139839649 -0.2674378753
-0.2506264448 5.605558395 -0.09724301845
-0.2618529499 5.615054131 0.0974175334
-0.2588424087 5.592445374 0.2911984026
-0.2577363253 5.6109519 0.4876981676
-0.2544692755 5.561000824 0.6783813238
-0.2514903247 5.538232803 0.871391654
-0.251671344 5.56364584 1.074317575
-0.2452907413 5.464845181 1.252974033
-0.2450025976 5.501291752 1.463932633
-0.2383653075 5.503516674 -1.46445024
-0.2015901953 4.692368984 -1.074362874
-0.2217954397 5.183721066 -1.000283718
-0.2172158659 5.118577957 -0.8047505021
-0.2156365812 5.123579502 -0.6245151162
-0.2151019871 5.132196903 -0.4456890821
-0.2139062434 5.146603107 -0.2677519023
-0.2305649221 5.594410419 -0.09703358263
-0.2420799881 5.611938477 0.09734772146
-0.2395768315 5.599300861 0.2915124297
-0.2387901396 5.603813171 0.4870008826
-0.2351412028 5.563838482 0.6786250472
-0.2313280553 5.519340515 0.8682629466
-0.2325777113 5.572336674 1.075844049
-0.2265342623 5.473456383 1.254773617
-0.2254796922 5.494391918 1.461861968
-0.2192283869 5.506245136 -1.464967847
-0.1864400804 4.724199772 -1.081561327
-0.2035439909 5.180539608 -0.9995203614
-0.198964119 5.109435081 -0.8031861186
-0.1979813576 5.130251408 -0.625246346
-0.1966516674 5.118979931 -0.4444688857
-0.1963209212 5.157297611 -0.2682752609
-0.2117122263 5.613165855 -0.09734772146
-0.221935913 5.598762035 0.09710339457
-0.2199502587 5.598107338 0.2914077342
-0.2184501439 5.584704399 0.4852577746
-0.2159475535 5.570576191 0.679356277
-0.2119858712 5.518140316 0.8679500222
-0.2128986567 5.567228794 1.074699163
-0.207575649 5.478108406 1.255673409
-0.2061555237 5.491284847 1.460826755
-0.2004285306 5.518560886 -1.468073726
-0.1685461849 4.685872078 -1.072563291
-0.185600847 5.185142994 -1.000283718
-0.1808463931 5.102201939 -0.8019346595
-0.1802125275 5.134878635 -0.6257337928
-0.1780278534 5.12364912 -0.444817543
-0.1779044271 5.145974636 -0.2676472068
-0.1923894137 5.621865273 -0.09748735279
-0.2022452801 5.595506191 0.09703358263
-0.2003376186 5.59684515 0.2913030684
-0.199946031 5.61330843 0.4876981676
-0.1958727241 5.553441525 0.6771626472
-0.1933416724 5.536614418 0.8707658648
-0.1933289021 5.564013958 1.073935866
-0.1887187362 5.486589909 1.257473111
-0.1872501969 5.499693871 1.462897301
-0.1807035506 5.534704685 -1.472214937
-0.1524446309 4.69422245 -1.074362874
-0.1670980752 5.201486111 -1.003336549
-0.1620203406 5.098881721 -0.8013089299
-0.162035197 5.127540112 -0.6247588396
-0.1603894681 5.132204533 -0.4455147684
-0.1589817405 5.1445961 -0.267542541
-0.1726426035 5.618504524 -0.0974175334
-0.1829716116 5.604172707 0.09717320651
-0.1809272319 5.601502895 0.2915124297
-0.1793721169 5.614003658 0.4876981676
-0.176295802 5.548139572 0.6764314771
-0.174142018 5.541204453 0.871391654
-0.1731159985 5.570571899 1.075080752
-0.1685494632 5.485296249 1.257023096
-0.1680500805 5.500313759 1.462897301
-0.1614965051 5.539164066 -1.473250031
-0.1350105405 4.686958313 -1.072563291
-0.1491663009 5.209887505 -1.004863024
-0.1446104795 5.113238335 -0.803499043
-0.1431310177 5.124131203 -0.6242713332
-0.1425276697 5.134724617 -0.4456890821
-0.1409119666 5.141126156 -0.2673332095
-0.1531367153 5.623071194 -0.09748735279
-0.1627209634 5.6147995 0.09734772146
-0.1611416936 5.594114304 0.2910937071
-0.1598863304 5.618578434 0.4880467653
-0.1561281979 5.554701328 0.6771626472
-0.1546867341 5.537828922 0.8707658648
-0.153779462 5.57506752 1.075844049
-0.1492936313 5.481956005 1.256123304
-0.149059549 5.508591175 1.464967847
-0.141861394 5.528106689 -1.470144272
-0.1197661236 4.699068069 -1.075262666
-0.1313728094 5.226078033 -1.007915974
-0.1277531981 5.117639542 -0.8041247725
-0.1261365861 5.124577522 -0.6242713332
-0.1246067956 5.135190964 -0.4456890821
-0.1242940798 5.159535885 -0.2682752609
-0.1334165335 5.619572639 -0.0974175334
-0.1443043649 5.623304844 0.09748735279
-0.1419207007 5.606622696 0.2917217612
-0.1399730444 5.607151985 0.4870008826
-0.1380527616 5.569079876 0.6788688302
-0.1350158453 5.524511814 0.8685758114
-0.135482654 5.583397388 1.077370524
-0.1312082559 5.486316681 1.257023096
-0.1296465546 5.501353264 1.462897301
-0.1232709363 5.516958714 -1.467038393
-0.1029779166 4.681923866 -1.071213603
-0.1139571741 5.222558975 -1.007152796
-0.1097623855 5.112129211 -0.8031861186
-0.1082882658 5.126971722 -0.6245151162
-0.1063898653 5.121651173 -0.4444688857
-0.1061172932 5.151950836 -0.2678565681
-0.1137577742 5.618005276 -0.09738263488
-0.124456726 5.613777637 0.09731282294
-0.1223475784 5.607083797 0.2917217612
-0.1214683279 5.611568928 0.48734954
-0.1187375188 5.575481415 0.6796000004
-0.1159802824 5.536799431 0.8704530001
-0.1159090996 5.579910755 1.076607347
-0.1122169718 5.494534969 1.258822799
-0.1104409993 5.501772404 1.462897301
-0.0642458722 3.472294092 -0.7918243408
-0.09602750838 5.289681435 -1.020127773
-0.0907445699 5.096696854 -0.8006832004
-0.09060460329 5.139226913 -0.6259775758
-0.0887189433 5.133943558 -0.4455147684
-0.08706580848 5.142320156 -0.2673332095
-0.09431260079 5.62836504 -0.09755715728
-0.1047093719 5.606180668 0.09717320651
-0.1029220447 5.615464211 0.2921404541
-0.1009676009 5.615961075 0.4876981676
-0.09913455695 5.567922592 0.6786250472
-0.09689237922 5.550995827 0.8726431131
-0.09532383829 5.572445869 1.075080752
-0.09214162827 5.498806 1.259722471
-0.0913034007 5.505987644 1.463932633
-0.05210984871 3.431540012 -0.9079892635
-0.05123051628 3.453020811 -0.787325263
-0.07911530882 5.395988941 -1.040735126
-0.07309322059 5.106858253 -0.8022475243
-0.07165560871 5.131584644 -0.625002563
-0.07079622895 5.134222031 -0.4455147684
-0.06906264275 5.138598919 -0.267123878
-0.07464003563 5.626660824 -0.09752225131
-0.08422225714 5.610526085 0.09724301845
-0.08331829309 5.615789413 0.2921404541
-0.08142251521 5.6202631 0.4880467653
-0.07855662704 5.556339264 0.6771626472
-0.07746119797 5.547349453 0.872017324
-0.07597721368 5.580597401 1.076607347
-0.0728444159 5.491300106 1.257922888
-0.07218304276 5.513998985 1.46600318
-0.04017712176 3.43556428 -0.9090245366
-0.03960071504 3.43758297 -0.7837260962
-0.06126729026 5.484572887 -1.057908058
-0.05615888163 5.10707283 -0.8022475243
-0.05438567698 5.107974529 -0.6220777035
-0.0528931655 5.136430264 -0.4456890821
-0.05210395902 5.14678812 -0.267542541
-0.05499736592 5.626887321 -0.09752225131
-0.0657787472 5.624771118 0.09748735279
-0.06366820633 5.612051487 0.2919311225
-0.06189245731 5.628482819 0.4887439907
-0.06025804952 5.568479061 0.6786250472
-0.05807734653 5.545610905 0.8717044592
-0.05755018815 5.588671684 1.078133702
-0.05463530496 5.491511345 1.257922888
-0.05301049724 5.521944523 1.468073726
-0.02828150429 3.375793219 -0.8929777741
-0.02745934762 3.420161963 -0.7796769738
-0.04361759871 5.553457737 -1.071264625
-0.03837464377 5.113163471 -0.8031861186
-0.03661064804 5.116073132 -0.6230526567
-0.03491019085 5.128614426 -0.444991827
-0.03404390067 5.132957935 -0.2668098509
-0.03531901911 5.621045113 -0.0974175334
-0.04622475058 5.634964943 0.09766186774
-0.04411065578 5.616234303 0.2921404541
-0.04325644299 5.632641315 0.489092648
-0.04096674919 5.588506222 0.6810624599
-0.03870393336 5.543805122 0.871391654
-0.03809636086 5.596690655 1.079660177
-0.03551489487 5.499463081 1.259722471
-0.03373351693 5.522096157 1.468073726
-0.01583632827 3.36041975 -0.8888366222
-0.01548593119 3.412442207 -0.7778773904
-0.01490845904 3.558931351 -0.6835406423
-0.0196044948 5.105368137 -0.8019346595
-0.018794287 5.128080845 -0.6245151162
-0.01699563488 5.124720097 -0.4446431994
-0.01527898572 5.149025917 -0.2676472068
-0.01573238522 5.633132935 -0.09762696922
-0.02657480724 5.639091492 0.09773167968
-0.02455954626 5.628336906 0.2927684784
-0.02256474085 5.620807648 0.4880467653
-0.02146777324 5.590600014 0.6813062429
-0.01936026663 5.545881271 0.8717044592
-0.01755710691 5.588940144 1.078133702
-0.01535932906 5.499556541 1.259722471
-0.01442578528 5.510589123 1.464967847
-0.004105283879 3.360454321 -0.8888366222
-0.002969146473 3.400783777 -0.7751779556
-0.002474838635 3.545218945 -0.6808692813
-0.001780246384 5.093553066 -0.8000574708
0.0008920007385 5.12474823 -0.4446431994
0.002685476793 5.129075527 -0.2666004896
0.00393670192 5.639152527 -0.09773167968
-0.005888131913 5.62315321 0.09745243937
-0.004917505197 5.632383823 0.2929778397
-0.002949086251 5.632807255 0.489092648
-0.0009742397233 5.582700729 0.6803312302
6.622859416e-08 5.553816319 0.8729559183
0.001948125544 5.581114292 1.076607347
0.003847426036 5.511269093 1.262421966
0.004815430846 5.518333435 1.467038393
0.007632975001 3.364312172 -0.8898719549
0.008275886998 3.387133837 -0.772028625
0.009861179627 3.531463623 -0.6781979799
0.01511200517 5.093531132 -0.8000574708
0.01876746677 5.120729446 -0.4442946017
0.0196801722 5.125044346 -0.2663911581
0.0236365553 5.643103123 -0.09780148417
0.01277597155 5.631140709 0.09759206325
0.01473425422 5.628371716 0.2927684784
0.01673555747 5.640752316 0.4897898734
0.01752508059 5.578703403 0.6798437834
0.01942670532 5.565635204 0.8748331666
0.02048342302 5.58893013 1.078133702
0.0221223291 5.511226177 1.262421966
0.02411316894 5.526010036 1.469109058
0.0187579561 3.358472824 -0.8883190751
0.02014629915 3.394879103 -0.7738282084
0.02148890682 3.517668962 -0.6755266786
0.03304609284 5.117151737 -0.8038119078
0.02448652312 3.597525358 -0.4365925491
0.03759554774 5.128938198 -0.2666004896
0.04235119 5.642993927 -0.09780148417
0.03252318874 5.647058964 0.09787129611
0.03340008482 5.628291607 0.2927684784
0.03548981622 5.648634911 0.4904871285
0.03710509464 5.594488621 0.6817936897
0.03778767958 5.551712513 0.8726431131
0.04004998505 5.596676826 1.079660177
0.04130293056 5.503320694 1.260622382
0.04252585396 5.537490368 1.472214937
0.03041026182 3.350659609 -0.8862484694
0.03147543594 3.402588129 -0.7756278515
0.03386121988 3.527388096 -0.6774347425
0.03563061729 3.645428419 -0.5707244873
0.0362765491 3.583529711 -0.4348863661
0.05464746431 5.132780075 -0.2668098509
0.06200619414 5.638813019 -0.09773167968
0.05132348835 5.654918671 0.09801091999
0.05304510146 5.628140926 0.2927684784
0.05516957864 5.644492626 0.4901385307
0.05563868582 5.592350006 0.6815499663
0.05712733418 5.547595978 0.872017324
0.05863112211 5.59847641 1.080041766
0.05955127254 5.503153324 1.260622382
0.0617675595 5.52958107 1.470144272
0.04132910818 3.335086823 -0.8821073771
0.04332695156 3.400508881 -0.7751779556
0.04596324265 3.558665752 -0.6835406423
0.0479353331 3.613678455 -0.5657186508
0.04886720702 3.589335918 -0.4356175959
0.05104494467 3.701830387 -0.320184797
0.0727911219 5.148534298 -0.2676472068
0.08174299449 5.642560959 -0.09780148417
0.07091325521 5.642706871 0.09780148417
0.07281844318 5.637907505 0.293291837
0.07383648306 5.640294075 0.4897898734
0.07531549782 5.604031086 0.6830124259
0.0766838491 5.561189175 0.8742073774
0.07811442763 5.594312191 1.079278588
0.07915241271 5.530191422 1.266920924
0.08101386577 5.525469303 1.469109058
0.05309409648 3.342648745 -0.8841779232
0.05516595393 3.398388386 -0.7747280002
0.05832155794 3.554557562 -0.6827774048
0.06018604338 3.59176302 -0.5622770786
0.06132566184 3.585173845 -0.4351301193
0.06224444881 3.60202527 -0.3114692271
0.09072367102 5.146252155 -0.267542541
0.1015840098 5.650238991 -0.0979411155
0.09060566872 5.64242506 0.09780148417
0.09269606322 5.649600506 0.2939198911
0.09358652681 5.643986225 0.4901385307
0.09474383295 5.595794678 0.6820374727
0.09616264701 5.564838409 0.8748331666
0.0975747183 5.590079308 1.078515291
0.09845474362 5.529881477 1.266920924
0.1003724486 5.529015064 1.470144272
0.06483593583 3.346306086 -0.8852131963
0.06718283892 3.405968666 -0.7765276432
0.07119689882 3.577887058 -0.6873568296
0.07248427719 3.579681396 -0.5603998303
0.07359556109 3.573029757 -0.4336676896
0.07498395443 3.60975337 -0.3121664822
0.1183886006 5.605171204 -0.2916170955
0.1215198338 5.659845829 -0.09811563045
0.110497795 5.652071476 0.09797601402
0.1122561544 5.641254902 0.2935011685
0.1135285646 5.655577183 0.4911843836
0.1141129211 5.587491035 0.6810624599
0.1157935709 5.574342728 0.8763974905
0.1172092929 5.595592976 1.079660177
0.117675513 5.525607586 1.266021132
0.1198351234 5.536356926 1.472214937
0.07673804462 3.355715752 -0.8878014088
0.07915959507 3.409609795 -0.7774274349
0.08368656784 3.577616692 -0.6873568296
0.08507056534 3.58335638 -0.5610256195
0.08578141779 3.560844183 -0.43220523
0.08738809079 3.601502895 -0.3114692271
0.139085412 5.650646687 -0.2940245569
0.1412771493 5.659387589 -0.09811563045
0.1301359087 5.647653103 0.09790620208
0.1319486201 5.640828609 0.2935011685
0.1332710236 5.655146122 0.4911843836
0.1338075399 5.594996929 0.6820374727
0.1351992041 5.571929932 0.8760846257
0.1368862391 5.601037979 1.080805063
0.136765793 5.517370701 1.264221549
0.1392584592 5.539767742 1.473250031
0.08824688941 3.34770298 -0.8857308626
0.09173820168 3.434637547 -0.7832762003
0.09575312585 3.561602354 -0.6843038797
0.09752546996 3.581062794 -0.5607126951
0.09810034931 3.556554317 -0.4317177832
0.1004023626 3.617108583 -0.3128637373
0.1592567265 5.666098118 -0.2948619127
0.1608052105 5.650864124 -0.09797601402
0.1503253132 5.665155411 0.09822034836
0.1518542022 5.648320198 0.2939198911
0.1530091763 5.654646397 0.4911843836
0.1535559446 5.602433205 0.6830124259
0.1543754786 5.561551094 0.8745203018
0.1565477997 5.604450703 1.081568241
0.1564663947 5.532443523 1.267820835
0.1585938483 5.53924799 1.473250031
0.100334838 3.360891581 -0.8893542886
0.1047261581 3.467409611 -0.7909244895
0.1078843474 3.551434517 -0.6823958158
0.1094176769 3.560956001 -0.5575840473
0.1110086739 3.572063208 -0.4336676896
0.1122819707 3.592839479 -0.3107720017
0.179287985 5.673492908 -0.2952806056
0.1805921197 5.652266979 -0.09801091999
0.1695007682 5.644608021 0.09787129611
0.1718082875 5.655740738 0.2943385541
0.1727481484 5.654078007 0.4911843836
0.1732299328 5.605831146 0.6834998727
0.1742830873 5.576773643 0.8770232201
0.176108852 5.603869915 1.081568241
0.1761500835 5.543549538 1.270520091
0.1776818335 5.530936718 1.471179605
0.1127106994 3.379828691 -0.8945307136
0.1170924902 3.4748137 -0.7927241325
0.1210125312 3.572619677 -0.6865935922
0.1215102002 3.550681353 -0.5560196638
0.123819001 3.581573486 -0.4348863661
0.1243375763 3.578487158 -0.3095518053
0.1986695826 5.660856724 -0.2946525812
0.2007449269 5.663592815 -0.09822034836
0.1891349256 5.641983986 0.09783639759
0.1916861981 5.659099102 0.2945478857
0.1926179081 5.657422543 0.4915329814
0.1927983761 5.605192184 0.6834998727
0.1936102211 5.572182655 0.8763974905
0.195462212 5.597335339 1.080423474
0.1959105879 5.554585934 1.273219585
0.1971263289 5.534144402 1.472214937
0.1263563931 3.429608583 -0.9079892635
0.1284253448 3.45296216 -0.7877752185
0.1365608275 3.654574871 -0.7026215196
0.1340534985 3.554183245 -0.5566453934
0.1361702085 3.577152491 -0.4343989193
0.1370574236 3.584003925 -0.3100747466
0.2182759047 5.65613699 -0.2944432199
0.2209789902 5.674847126 -0.09842977673
0.2096404731 5.66327095 0.09822034836
0.2114377618 5.65839529 0.2945478857
0.2126625925 5.664680004 0.4922302365
0.211910814 5.592583179 0.6820374727
0.2136649787 5.587264538 0.8789004683
0.215299651 5.604466438 1.081949949
0.2154509723 5.557763577 1.274119377
0.2168947607 5.545004368 1.475320578
0.1384838223 3.433007002 -0.9090245366
0.1410315037 3.466122627 -0.7909244895
0.1493979692 3.656037331 -0.7030031085
0.1467837244 3.561588764 -0.5578969121
0.1485727727 3.574671745 -0.4341551661
0.1503971964 3.603410482 -0.3118178546
0.2385209054 5.667314053 -0.295071274
0.2406184822 5.670044422 -0.09835996479
0.2292473018 5.658507824 0.09815053642
0.2310263962 5.653631687 0.2943385541
0.2325996459 5.66788435 0.4925788641
0.2317611128 5.599742889 0.6830124259
0.2331656814 5.586484909 0.8789004683
0.2351919115 5.611526966 1.083476424
0.2346841246 5.553082943 1.273219585
0.2364124358 5.548073769 1.47635591
0.1495350599 3.411272764 -0.9033305049
0.155023098 3.508440018 -0.8008223772
0.1618119627 3.647648335 -0.7014766932
0.1593925208 3.565001488 -0.5585226417
0.1617639065 3.589996099 -0.4361050725
0.1647761613 3.642670393 -0.3153040707
0.257846117 5.656470776 -0.2945478857
0.2599518895 5.659182549 -0.09818544239
0.2498758435 5.677651882 0.09849958867
0.2509383559 5.656781197 0.2945478857
0.2522043288 5.66305685 0.4922302365
0.2520200312 5.614764214 0.6849622726
0.2523091733 5.57774353 0.8776490092
0.2551361024 5.618516445 1.08500278
0.2544243932 5.560016632 1.275019169
0.2555982471 5.543355465 1.475320578
0.1619906723 3.422308207 -0.9064363837
0.1686587185 3.53707552 -0.8075708747
0.174355194 3.643139362 -0.7007134557
0.1718332767 3.564423561 -0.5585226417
0.1746804267 3.597340584 -0.4370800555
0.1763259321 3.618192911 -0.3132123649
0.2801969945 5.668226719 -0.09835996479
0.2695996165 5.674746513 0.0984646827
0.2710634172 5.663851261 0.2949666083
0.2719720602 5.6621418 0.4922302365
0.2720002234 5.621781349 0.6859372258
0.2725456357 5.59261322 0.8801519275
0.2745538354 5.613669872 1.084239602
0.2744050026 5.570773125 1.277718544
0.27475667 5.538570404 1.474285364
0.1746232063 3.435227633 -0.9100598097
0.1821010709 3.557873487 -0.8125198483
0.1842753291 3.563802004 -0.5585226417
0.1873388737 3.598691225 -0.4373237491
0.2662861645 5.064159393 -0.2635650039
0.3006168008 5.679195404 -0.09856939316
0.2889978886 5.665782928 0.09832505882
0.2912435532 5.670848846 0.2953852713
0.2921439707 5.669117928 0.4929274917
0.2914180458 5.616833687 0.685449779
0.2922707498 5.595573425 0.8807777166
0.2939435244 5.608756065 1.083476424
0.2942584753 5.577566147 1.279518247
0.2944995165 5.545293808 1.47635591
0.1875542402 3.451958179 -0.9147185683
0.1959034353 3.582511663 -0.8183684945
0.2760866284 4.95368433 -0.430349648
0.2826210558 5.039269924 -0.2623089552
0.3208858371 5.686098099 -0.09870900959
0.3087748885 5.664739609 0.09832505882
0.310814023 5.665808678 0.2951759398
0.3121515512 5.672041893 0.4932760894
0.3102504611 5.601908207 0.6837435961
0.3123522401 5.604380131 0.8823419809
0.3132968843 5.603775501 1.082713127
0.31405586 5.582341671 1.280867934
0.3142899573 5.551947117 1.478426456
0.2008305639 3.472497463 -0.9204126596
0.2102179378 3.612933159 -0.8255669475
0.2813947201 4.792944908 -0.7537528276
0.2186626047 3.702322483 -0.4502418935
0.2919617593 4.928823948 -0.4282579422
0.3002110124 5.038252354 -0.2623089552
0.3407336175 5.684943199 -0.09870900959
0.3290113807 5.671612263 0.0984646827
0.329892844 5.652726173 0.2945478857
0.3326488435 5.682851791 0.4943219721
0.3308545351 5.618625164 0.6859372258
0.331795305 5.601284027 0.8820291758
0.333555907 5.614406586 1.08500278
0.3331900537 5.575376034 1.279518247
0.3343649507 5.562386513 1.481532335
0.2173259556 3.543119431 -0.9395651817
0.2247488797 3.643298149 -0.8327654004
0.2986153662 4.799818993 -0.7550042868
0.2281115502 3.646062613 -0.4434172213
0.3081680536 4.911867142 -0.4268634319
0.3182955384 5.045146942 -0.262727648
0.3598175645 5.6717453 -0.09849958867
0.3494169712 5.680409431 0.0986392051
0.35036394 5.663500786 0.2951759398
0.3519863188 5.673701763 0.4936247468
0.3514555693 5.633285999 0.6878871918
0.3509758413 5.594177246 0.8810905218
0.3531533182 5.613207817 1.08500278
0.3530203104 5.580012798 1.280867934
0.3535301387 5.557329655 1.480497003
0.2319434434 3.577039957 -0.948882699
0.2412656993 3.700829744 -0.846262455
0.3158852458 4.806632519 -0.7562558651
0.3258398771 4.91871357 -0.4275607169
0.3361712396 5.047991276 -0.2629370093
0.3804136515 5.682425976 -0.09870900959
0.3695041835 5.683145523 0.09870900959
0.370911628 5.674201965 0.2958039641
0.3719208837 5.674426556 0.4937990308
0.3713770807 5.635986805 0.6883746386
0.3708942235 5.598831177 0.8820291758
0.3722232878 5.604105473 1.083476424
0.3732764721 5.590413094 1.283567309
0.372410655 5.548351765 1.478426456
0.2457465082 3.595481873 -0.9540590644
0.3235019445 4.708982944 -1.079761624
0.3323877454 4.801559448 -0.7556300759
0.3398112953 4.884052277 -0.5959976315
0.3457767367 4.957297802 -0.4310469329
0.3540681899 5.050771236 -0.263146311
0.4015130401 5.699016094 -0.09902315587
0.388518393 5.66985178 0.09849958867
0.3907175362 5.672872543 0.2958039641
0.3919993937 5.677069664 0.4941476882
0.3907747567 5.630695343 0.6878871918
0.3909814954 5.605384827 0.8832806349
0.3912366927 5.594937801 1.081949949
0.3934676349 5.598795891 1.285816908
0.3923216462 5.554726124 1.480497003
0.2600947917 3.619651794 -0.9607883692
0.3405000567 4.715600014 -1.081561327
0.3482877612 4.78854847 -0.7537528276
0.3568590283 4.882835865 -0.5959976315
0.3639535308 4.967982292 -0.432092756
0.3725776374 5.061456203 -0.2637743652
0.4218452275 5.703562737 -0.09912787378
0.4098893404 5.6904006 0.09888353944
0.4105159938 5.67147398 0.2958039641
0.4122477472 5.68162775 0.4946706295
0.410425961 5.629297256 0.6878871918
0.4111243486 5.611865997 0.884532094
0.4110506773 5.597454071 1.082713127
0.41301018 5.597388744 1.285816908
0.4122790694 5.561029434 1.482567668
0.4184916914 5.552815914 -1.480497003
0.3566632271 4.710495949 -1.080661535
0.3662011921 4.803061485 -0.7562558651
0.3739024401 4.881560326 -0.5959976315
0.3819018304 4.974627972 -0.432790041
0.3890158832 5.044194221 -0.2629370093
0.4404471815 5.698144913 -0.09905806184
0.4303540885 5.696910858 0.09902315587
0.4290182292 5.666098118 0.2955946028
0.4326837957 5.688100338 0.4953678548
0.430223465 5.62980938 0.6881309152
0.4294315577 5.606532574 0.8839063644
0.4308870137 5.599900246 1.083476424
0.4319443107 5.588141441 1.284017324
0.4310151041 5.563483715 1.483602881
0.4313388765 5.46850872 -1.458238602
0.3732045889 4.720943451 -1.08336091
0.3865157366 4.856956482 -0.7650161386
0.3900872469 4.880293846 -0.5959976315
0.397033304 4.945459843 -0.430349648
0.4083026946 5.074729443 -0.264611721
0.4603362679 5.696572304 -0.09905806184
0.4495539963 5.699440002 0.09909296781
0.4494265318 5.672530174 0.2960133255
0.4526931345 5.688541412 0.4955421686
0.4496808946 5.638246059 0.6893495917
0.4489982128 5.604999542 0.8839063644
0.4497703612 5.602354527 1.084239602
0.4512575567 5.596390247 1.286266804
0.4507460296 5.565796375 1.484638214
0.4570703208 5.559465408 -1.483085275
0.3877562284 4.696306229 -1.077962041
0.3965966105 4.793176174 -0.9266313314
0.3988862038 4.800457478 -0.7562558651
0.4071192443 4.878902912 -0.5959976315
0.4101093709 4.904407501 -0.4268634319
0.4793935418 5.697007656 -0.09909296781
0.4694475532 5.697835922 0.09909296781
0.4685624242 5.6749897 0.296222657
0.4710595012 5.681052685 0.4950192273
0.4700170457 5.644555092 0.6903245449
0.4677457213 5.605448246 0.8842192292
0.4686691463 5.592924118 1.082713127
0.4711181521 5.598664761 1.287166595
0.4688772857 5.560420513 1.483602881
0.4761451483 5.553986073 -1.482049942
0.4036625028 4.698877811 -1.078861952
0.4133267701 4.791762352 -0.9266313314
0.416165024 4.814852238 -0.7587587833
0.4232973754 4.877525806 -0.5959976315
0.4358732104 5.002190113 -0.4355790317
0.4977331161 5.700574398 -0.297688067
0.5006700158 5.711236 -0.09937220812
0.4879996181 5.69226265 0.09902315587
0.4899094105 5.691228867 0.2971647084
0.4917465746 5.68929863 0.4958907962
0.4885600805 5.640987873 0.6900808215
0.4883378744 5.615589619 0.8860964775
0.4875504971 5.59525156 1.083476424
0.490359664 5.604836941 1.288966179
0.4886208475 5.562599182 1.484638214
0.4813617468 5.404211044 -1.442191839
0.4200612307 4.697440624 -1.078861952
0.4292136133 4.790365219 -0.9266313314
0.4311987162 4.793695927 -0.7556300759
0.4388912618 4.860202312 -0.5940477848
0.4485102296 4.957062721 -0.4317441583
0.5169076324 5.69084549 -0.2972693741
0.5217828155 5.73344183 -0.09979106486
0.5085762143 5.698491573 0.0991627723
0.507891655 5.679625988 0.29664132
0.5107872486 5.689620972 0.4960650802
0.5082493424 5.639247894 0.6900808215
0.5076666474 5.621808529 0.8873479366
0.5072572827 5.595470905 1.083858013
0.509920001 5.60309124 1.288966179
0.5084667206 5.576339245 1.488779187
0.4975527525 5.373642921 -1.434427261
0.4363552332 4.703783035 -1.080661535
0.506913662 5.443694592 -1.0544734
0.5376000404 5.719169617 -0.4988540709
0.5368987918 5.701031208 -0.2978973985
0.5414182544 5.727603436 -0.09972125292
0.5282093287 5.704738617 0.09930240363
0.5273459554 5.673841 0.2964319885
0.5317538977 5.699706078 0.4971109927
0.527502656 5.643460274 0.6908119917
0.5280242562 5.627869129 0.8885993958
0.5272812247 5.60939455 1.086910963
0.528496623 5.601369381 1.288966179
0.5286586881 5.582222939 1.490849733
0.5196506977 5.396781921 -1.441156507
0.4544143677 4.702073097 -1.080661535
0.5200502872 5.371452332 -1.040735126
0.5526080728 5.687036991 -0.8982983232
0.5547782779 5.688714504 -0.6966617703
0.5564259291 5.69534874 -0.4969366491
0.5609304309 5.72079277 -0.2990487814
0.5592783689 5.693738937 -0.0991627723
0.5516420603 5.718592167 0.09958163649
0.5506344438 5.697714806 0.2977927327
0.552644968 5.69771862 0.4971109927
0.5497437716 5.647320271 0.6915432215
0.547501564 5.614099026 0.8867221475
0.5493882298 5.613190651 1.088055849
0.5500018001 5.599298477 1.288966179
0.5487353802 5.576403141 1.48981452
0.5175707936 5.185404778 -1.384733915
0.4703913629 4.704418659 -1.081561327
0.5303673148 5.285606384 -1.024325609
0.5706725121 5.67731142 -0.897046864
0.5728389025 5.678944111 -0.6956868172
0.5765051842 5.695353508 -0.4971109927
0.5788896084 5.708965778 -0.2985254526
0.5815804601 5.715625286 -0.09958163649
0.5690152645 5.700813293 0.09930240363
0.5697251558 5.687808514 0.2973740697
0.5713308454 5.683860302 0.4960650802
0.5696628094 5.657317162 0.693005681
0.5682828426 5.623947144 0.8885993958
0.5672098398 5.603524208 1.086529255
0.5697471499 5.609076977 1.291665673
0.5674152374 5.566766262 1.487743974
0.4996732175 4.843527794 -1.29311204
0.4876138568 4.710501194 -1.08336091
0.5474860072 5.279912949 -1.023562312
0.589874804 5.669390202 -0.8961082697
0.5951336026 5.700601578 -0.6986116767
0.5958018303 5.697374344 -0.4974596202
0.599229753 5.710883617 -0.2987347841
0.6005298495 5.713665485 -0.09958163649
0.5882962346 5.692824841 0.09919768572
0.588993609 5.689860821 0.2975833714
