# .PCD v0.7 - Point Cloud Data file format
VERSION 0.7
FIELDS x y z
SIZE 4 4 4
TYPE F F F
COUNT 1 1 1
WIDTH 1291
HEIGHT 1
VIEWPOINT 0 0 0 1 0 0 0
POINTS 1291
DATA ascii
0.9846278429 5.665023327 1.109426379
0.9844406247 5.652235508 1.3146106
0.9839698672 5.637890816 1.521908164
0.9794848561 5.571992874 -1.504308343
0.918888092 5.216598034 -1.212932825
0.9773321748 5.542726994 -1.085766077
0.9350423813 5.292087555 -0.8444848657
0.9874525666 5.577352047 -0.6903245449
1.006957173 5.681742191 -0.5011201501
0.9666693211 5.443360806 -0.2875348926
1.01072216 5.679907322 -0.1000004932
0.9311956763 5.291889191 0.09308933467
1.013429046 5.747442722 0.3036543727
1.014416456 5.747192383 0.5068724155
1.009297371 5.706537724 0.7064113021
1.00434351 5.666994572 0.9048685431
1.006455541 5.673149586 1.111716151
1.006892085 5.664114475 1.318209887
1.003642559 5.634421825 1.521908164
0.9989275336 5.568540096 -1.504308343
0.9426093102 5.244045734 -1.220131159
1.007797956 5.601113319 -1.097977877
0.954562366 5.294622898 -0.84542346
1.007619619 5.577777863 -0.6908119917
1.026431084 5.676231861 -0.5009458661
0.9870875478 5.447813988 -0.2879535556
1.032687187 5.688149452 -0.1002099216
0.9503704309 5.292542458 0.09315914661
1.034544945 5.749767303 0.30396837
1.033766866 5.739694595 0.506523788
1.031324863 5.714701653 0.7078737617
1.025174975 5.669285774 0.9058071971
1.026251197 5.669601917 1.111716151
1.028745532 5.67206955 1.320909262
1.022612214 5.627082825 1.520872831
1.019056439 5.56882 -1.505343676
0.9594993591 5.233057499 -1.218331575
1.03336978 5.630387783 -1.104465365
0.9719628096 5.285430908 -0.8444848657
1.032480717 5.603509903 -0.694468081
1.048402905 5.684370995 -0.5019916892
1.005373478 5.440407276 -0.2877442241
1.053263307 5.688443184 -0.1002797335
0.9673992991 5.281324863 0.09301953018
1.055331707 5.750049591 0.3041777015
1.055957317 5.74780798 0.5075696707
1.050908685 5.709113598 0.7076299787
1.04710412 5.677329063 0.9076843858
1.044611454 5.65826273 1.110189557
1.050661206 5.679942131 1.323608637
1.044362068 5.634875774 1.523978591
1.039907932 5.572824478 -1.507414222
0.9748965502 5.214351654 -1.214732409
1.058435917 5.655692577 -1.110189557
0.9911359549 5.285888672 -0.8451105952
1.050933599 5.594019413 -0.6937369108
1.069344759 5.686551094 -0.5025146604
1.031013131 5.472194195 -0.2896283269
1.077566028 5.708311081 -0.1006985903
0.9880304933 5.289710045 0.093228966
1.075398326 5.746330261 0.3041777015
1.078214288 5.75583744 0.5086155534
1.070832372 5.70541048 0.7076299787
1.070567369 5.693052769 0.9108130932
1.067262888 5.670016289 1.113242626
1.070483088 5.676239491 1.323608637
1.065458655 5.638789177 1.526049137
1.062238574 5.584344387 -1.511555314
0.996012032 5.226230621 -1.218331575
1.077431917 5.648107529 -1.109426379
1.011065841 5.290157795 -0.8463620543
1.062615514 5.54937315 -0.6886184216
1.093690157 5.706264496 -0.5046063662
1.074968338 5.598014832 -0.2965366542
1.095733523 5.700779438 -0.1006287783
1.007986546 5.294086456 0.09336858243
1.093698859 5.738809109 0.30396837
1.100543022 5.763780594 0.5096614361
1.092602491 5.711386681 0.7088487148
1.088698864 5.685590267 0.910187304
1.088524103 5.673969746 1.114769101
1.089556217 5.66864109 1.322708845
1.087070346 5.650402069 1.530190349
1.08135891 5.578705311 -1.511037588
1.017787933 5.245856762 -1.223730445
1.096393108 5.64045763 -1.108663201
1.030488372 5.296471596 -0.8479264379
1.079871655 5.539973736 -0.6878871918
1.110545874 5.686769009 -0.5032119155
1.104253292 5.649305344 -0.299467504
1.114856362 5.692995071 -0.1005589664
1.029341102 5.310346127 0.09371762723
1.116769195 5.750641346 0.3048057556
1.119513035 5.754036903 0.5091384649
1.113814473 5.719423294 0.7103111148
1.109296799 5.685632706 0.9108130932
1.109592915 5.681889057 1.117058754
1.110594749 5.676471233 1.32540834
1.106045485 5.642780304 1.529155016
1.099480152 5.573193073 -1.510520101
1.077657342 5.452565193 -1.273219585
1.116617084 5.644494057 -1.110189557
1.047433019 5.2850914 -0.8466749787
1.096495867 5.522541523 -0.6861810088
1.130949974 5.690871716 -0.5039091706
1.127864957 5.665004253 -0.3005142212
1.137852669 5.704757214 -0.1008382067
1.046320796 5.298874378 0.0935780108
1.139938235 5.762382507 0.3056431413
1.138973713 5.752247334 0.5093128085
1.135318637 5.723289013 0.711286068
1.12990284 5.685602188 0.9114388824
1.128655195 5.674129963 1.116295457
1.132683754 5.684027195 1.328107595
1.124224544 5.631307602 1.52708447
1.121590018 5.582579613 -1.514143467
1.097838879 5.454501152 -1.274569273
1.140576959 5.661732674 -1.114387512
1.065876484 5.281402588 -0.8466749787
1.104753017 5.464199543 -0.679356277
1.153180599 5.698605537 -0.5049550533
1.132158041 5.584692001 -0.2964319885
1.16094172 5.71642828 -0.101117447
1.064812303 5.295189381 0.0935780108
1.162411094 5.770115852 0.3062711358
1.162197948 5.763861179 0.5107073188
1.156074643 5.723182678 0.7117735744
1.152878284 5.697112083 0.9139418006
1.146504879 5.660535336 1.114387512
1.154069424 5.687678337 1.329907298
1.146182418 5.638708591 1.530190349
0.5708249211 2.790735483 -0.7516625524
0.5977725983 2.917294264 -0.6775491834
0.5820961595 2.838269949 -0.5549353361
0.5885696411 2.864753246 -0.4565272927
0.587584734 2.854897022 -0.3527464271
1.174672127 5.70235157 -0.5056522489
1.163352847 5.637431145 -0.299467504
1.182506919 5.720174313 -0.1012570709
1.086499453 5.307112217 0.09385724366
1.183346868 5.769936562 0.3064804971
1.183914542 5.767575741 0.5114045143
1.174844503 5.713279247 0.7110423446
1.175945163 5.708530903 0.9164447188
1.170616627 5.677649498 1.118585229
1.173520684 5.681706905 1.329457402
1.169773817 5.653590202 1.535366774
0.5797748566 2.784943342 -0.7506272793
0.5848780274 2.804543495 -0.6514548659
0.5867859125 2.811236858 -0.5499743223
0.5920979977 2.831744671 -0.4515214264
0.5889997482 2.812027216 -0.347627908
1.197024226 5.709916592 -0.5066981316
1.187538147 5.654836655 -0.3006188869
1.201644897 5.712097645 -0.101187259
1.107464433 5.315033436 0.09406667948
1.202665806 5.761859894 0.3062711358
1.20566833 5.77120924 0.5121017694
1.19762826 5.722743988 0.7127485275
1.195865989 5.704391479 0.9164447188
1.190832734 5.675449848 1.118966818
1.191744566 5.669947624 1.3276577
1.190296292 5.653253555 1.536401868
0.5850896239 2.762113333 -0.7449332476
0.5942590833 2.800578594 -0.6510049701
0.5961869955 2.807251215 -0.5495927334
0.5978680849 2.810339212 -0.4483927488
0.6029487252 2.829369068 -0.3500652909
1.216949821 5.705703259 -0.5066981316
1.210609794 5.666282177 -0.3014562428
1.219901443 5.700047016 -0.1010476425
1.127668381 5.31896019 0.09420629591
1.224429607 5.765442371 0.3066898584
1.228290558 5.778658867 0.5131476521
1.219662905 5.728237152 0.7139672041
1.214948177 5.69631815 0.9158189893
1.213504314 5.684698582 1.121638179
1.213568091 5.675281048 1.329907298
1.21083343 5.652842045 1.537437201
0.5987977386 2.778939009 -0.7501096129
0.6085547209 2.819440603 -0.6559538841
0.6072269082 2.810909986 -0.5507375598
0.6147773266 2.841056585 -0.4537115097
0.6107182503 2.817547083 -0.3488466144
1.236857891 5.701420307 -0.5066981316
1.235466838 5.685443401 -0.3027123213
1.244045615 5.715293407 -0.1013966873
1.147491693 5.320856094 0.09431100637
1.245814085 5.766989708 0.3070038855
1.245926857 5.76265192 0.5121017694
1.243433952 5.741405487 0.7161608338
1.239011407 5.71134758 0.9189476967
1.234174967 5.684265137 1.122401357
1.237097263 5.688148499 1.333956361
1.230556846 5.648581028 1.537437201
0.6109749079 2.788154602 -0.7532154918
0.6154675484 2.803975344 -0.6528045535
0.6187194586 2.816443443 -0.5522640347
0.6212953329 2.823459387 -0.4512085319
0.6248232126 2.834783554 -0.3512839973
1.258899331 5.706795692 -0.5075696707
1.254014134 5.675245285 -0.3023982942
1.265715361 5.718725681 -0.1015363038
1.16434586 5.309004784 0.09417138994
1.264221549 5.754802704 0.3065851629
1.260046482 5.731024742 0.5096614361
1.252792716 5.688564777 0.7100673914
1.251707554 5.674194336 0.9136289358
1.25316155 5.676088333 1.121638179
1.257788181 5.687600613 1.334856153
1.25026536 5.644251347 1.537437201
0.62406528 2.801089764 -0.7573565841
0.6260997653 2.805613756 -0.6537043452
0.6319711804 2.829594612 -0.5553169847
0.6337327957 2.832840204 -0.4530857801
0.6364516616 2.840333462 -0.3522589505
1.280988216 5.712088108 -0.5084412694
1.270316482 5.655243874 -0.3015609384
1.289182782 5.729879856 -0.1018155366
1.183742404 5.308811665 0.09424119443
1.275596499 5.711369514 0.3044917285
1.280914545 5.730479717 0.510010004
1.272643447 5.684156418 0.7100673914
1.271934986 5.671719074 0.9139418006
1.274688363 5.679341316 1.123164654
1.278057337 5.68507719 1.335306048
1.274205208 5.658699036 1.542613626
0.6372506022 2.813967705 -0.761497736
0.6397697926 2.820515156 -0.6577534676
0.6418452263 2.82737112 -0.5553169847
0.6471220255 2.84602046 -0.4555887282
0.6454802155 2.834223509 -0.3517715037
1.30446279 5.723121643 -0.5098357201
1.286936283 5.637145042 -0.3008282185
1.308285952 5.72144556 -0.1017457321
1.206685305 5.324149609 0.09459024668
1.296410918 5.710776806 0.3047010899
1.302674413 5.733746052 0.5107073188
1.293359518 5.683550358 0.7105548382
1.292604804 5.671096325 0.9145675302
1.297126412 5.686341286 1.125454307
1.29832983 5.682481766 1.335756063
1.296534538 5.6655159 1.545719504
0.6466367841 2.809843302 -0.7609800696
0.6517992616 2.827759743 -0.6600030065
0.6534739137 2.832766056 -0.5568434596
0.6606094837 2.859141588 -0.4580916464
0.6589508057 2.847424984 -0.35372141
1.32263577 5.710769176 -0.5091384649
1.265988111 5.457513809 -0.2914077342
1.327340603 5.712949753 -0.1016759202
1.227059603 5.327699661 0.09472987056
1.318129182 5.714002609 0.3051197529
1.324475288 5.736928463 0.5114045143
1.317212105 5.696408272 0.7127485275
1.30971992 5.655002594 0.9126903415
1.31962347 5.693255424 1.127744079
1.319921851 5.685507774 1.337555647
1.316304564 5.660955429 1.545719504
0.6582010984 2.815093517 -0.7630506158
0.6656658053 2.84254384 -0.6640521288
0.6669427156 2.845759392 -0.5598964095
0.6714892983 2.860664368 -0.4587174058
0.6734272242 2.864431858 -0.356158793
1.343017101 5.708056927 -0.5093128085
1.277239084 5.420014381 -0.2896283269
1.350950718 5.723850727 -0.1019551679
1.244278669 5.317543507 0.09462515265
1.341714144 5.724923134 0.3059571683
1.343578935 5.728391647 0.5110558867
1.33981359 5.703370571 0.7142109871
1.335331917 5.675394058 0.9167576432
1.339040279 5.686703205 1.12736249
1.344231844 5.699832916 1.342054605
1.336058378 5.656325817 1.545719504
0.6729332209 2.833453894 -0.7687446475
0.6773886085 2.84778595 -0.6658517122
0.6818727255 2.864422798 -0.5640941858
0.6819297075 2.860224247 -0.4590302706
0.6871110797 2.877510071 -0.3581086993
1.368029237 5.724650383 -0.5112302303
1.291503072 5.396098614 -0.2885816097
1.372785807 5.72687912 -0.1020947844
1.264221549 5.319004059 0.09472987056
1.364926219 5.733805656 0.3066898584
1.365415096 5.731419086 0.5117532015
1.360634089 5.70252037 0.7146983743
1.356972575 5.678382874 0.9180091023
1.357967854 5.678175449 1.126599193
1.365936995 5.702685833 1.343854189
1.358494759 5.662900448 1.548825383
0.6823675632 2.829209805 -0.7682270408
0.6891534925 2.852981806 -0.6676513553
0.6941745877 2.871566534 -0.5660023093
0.6946966052 2.86934638 -0.4609074891
0.6980875731 2.878952265 -0.3585961759
1.387062788 5.715968132 -0.5108816028
1.312219143 5.399320126 -0.2890002728
1.39655292 5.737595558 -0.1023740172
1.286535501 5.330109119 0.09500910342
1.397135854 5.779480457 0.3094113171
1.401343346 5.792459488 0.5176797509
1.388012052 5.728604794 0.7185982466
1.386566877 5.713924885 0.9245793223
1.392144203 5.732542515 1.138429403
1.384912372 5.694096088 1.342954397
1.380998135 5.66938448 1.551931024
0.6959146857 2.841822147 -0.7723681331
0.7005013227 2.856236219 -0.6690009832
0.7055986524 2.874845743 -0.5671471357
0.7084813118 2.882250071 -0.4634104371
0.7090811729 2.880352974 -0.3590836525
1.410818338 5.726568222 -0.5122760534
1.333449602 5.404402733 -0.2895236611
1.415614486 5.728802681 -0.1023042127
1.307987928 5.337239265 0.09521853179
1.418731332 5.780387402 0.3097253442
1.425355077 5.803011417 0.5190742612
1.413691998 5.746855736 0.7215231061
1.407447696 5.712886333 0.9252050519
1.41684711 5.746709347 1.142245531
1.404778838 5.689227581 1.342954397
1.403560996 5.675782204 1.555036902
0.7044314742 2.833751202 -0.7708151937
0.7104665637 2.853773832 -0.6690009832
0.7151528597 2.870460749 -0.5667654872
0.720928371 2.889342785 -0.4649747908
0.7210569382 2.885563612 -0.3600585759
1.429834008 5.717742443 -0.5119274855
1.355704188 5.413276672 -0.2902563512
1.434602976 5.724077225 -0.1023042127
1.327094555 5.334581375 0.09525343776
1.440300465 5.78534174 0.3102487028
1.446086287 5.79993391 0.5192485452
1.433742404 5.741886616 0.7215231061
1.426386237 5.708187103 0.9252050519
1.438803554 5.74934721 1.143772006
1.42652607 5.691850185 1.3447541
1.422376513 5.671096325 1.555036902
0.7133743763 2.827528477 -0.769779861
0.7227891684 2.862738848 -0.671700418
0.7270941138 2.875560045 -0.5682920218
0.7305065989 2.886935949 -0.4649747908
0.7354975343 2.90239954 -0.3624959588
1.449782848 5.712717056 -0.5119274855
1.375613213 5.41649437 -0.2906750441
1.456545353 5.726786613 -0.1024438292
1.347222328 5.339846134 0.09542796761
1.459509373 5.776405811 0.3100393414
1.45996809 5.769741535 0.5169824958
1.454236031 5.742873669 0.7222543359
1.445330262 5.699344158 0.9245793223
1.454962492 5.733127117 1.141482234
1.447311997 5.694643497 1.346553683
1.440256357 5.658608437 1.552966356
0.7265780568 2.8401196 -0.7739210129
0.7313274741 2.854534864 -0.6703507304
0.7371141911 2.875034571 -0.5686736107
0.7410714626 2.88628149 -0.4652876258
0.7495784163 2.915194988 -0.364445895
1.472697496 5.71919775 -0.5129733682
1.392517209 5.403923512 -0.2902563512
1.478526831 5.729412079 -0.1025834456
1.365852475 5.335111141 0.09542796761
1.488097906 5.80416584 0.3118187785
1.483053207 5.780307293 0.5183770061
1.477733016 5.751220226 0.7239605188
1.476539373 5.738264084 0.9317752719
1.479863167 5.747025013 1.145298481
1.473508477 5.714087486 1.352402449
1.464829087 5.672251225 1.558142781
0.7379533648 2.841177225 -0.7749563456
0.7407963872 2.850078821 -0.6699008346
0.7496243119 2.879913568 -0.5702000856
0.755132556 2.89692688 -0.4674777389
0.759750545 2.912560463 -0.364445895
1.495672464 5.725588322 -0.5140191913
1.412315726 5.398783207 -0.2902563512
1.501554608 5.735823631 -0.1027928814
1.386479378 5.338052273 0.09556758404
1.506839633 5.793137074 0.3115047514
1.508248568 5.790257454 0.5197715163
1.497297645 5.74410677 0.7237167954
1.49606061 5.731164455 0.9314624667
1.504888058 5.756758213 1.148351431
1.493947148 5.706763744 1.351952553
1.489517212 5.685791492 1.563319087
0.7503267527 2.847924948 -0.7775444984
0.7552153468 2.862418413 -0.673500061
0.7606756091 2.881075621 -0.5709633231
0.7652407885 2.894273043 -0.4674777389
0.7724522352 2.919485807 -0.3656645715
1.520243645 5.737665653 -0.5155879855
1.434224486 5.405404091 -0.2908844054
1.521568656 5.730546951 -0.1027928814
1.41062212 5.350337982 0.09588173032
1.526034713 5.783979416 0.3112954199
1.532521248 5.800367832 0.521165967
1.52189672 5.752013206 0.7254229188
1.515044451 5.72208786 0.9308366776
1.52698791 5.759060383 1.149877906
1.512362123 5.699894428 1.351502538
1.513325572 5.695494175 1.567460299
0.758769393 2.841688156 -0.7765091658
0.7677229643 2.871193886 -0.6761994362
0.7712384462 2.882330656 -0.5717265606
0.7794351578 2.908891916 -0.4702935517
0.7836697698 2.922660828 -0.3663958013
1.539777637 5.734518051 -0.5157623291
1.457329154 5.419905186 -0.2919311225
1.535886288 5.708091259 -0.1024787351
1.433520317 5.364949703 0.09623077512
1.549332857 5.794323444 0.3121328056
1.552264571 5.797177792 0.5213403106
1.544043422 5.758440018 0.7268853784
1.535036802 5.720848083 0.9314624667
1.549133062 5.765341759 1.152167678
1.535811186 5.71178484 1.35555172
1.533210278 5.69417429 1.568495512
0.7727303505 2.855939388 -0.781167984
0.7797889709 2.878036737 -0.6784489751
0.7849031091 2.894916058 -0.5747795105
0.7932186127 2.921542168 -0.4727964997
0.7990757823 2.939062834 -0.3688331842
1.559260726 5.727185726 -0.5155879855
1.476868153 5.420824051 -0.2922451198
1.565274358 5.737420559 -0.1031070277
1.450256824 5.356306076 0.09616096318
1.573729396 5.804301262 0.3129701614
1.573044062 5.797767639 0.5218632221
1.567295909 5.768612862 0.7288352847
1.55914712 5.730703354 0.933965385
1.568241835 5.760173321 1.152167678
1.557791591 5.713909149 1.357351303
1.550020576 5.677606583 1.565389633
0.7867732048 2.866128445 -0.78479141
0.7929255962 2.886572599 -0.6811484098
0.8007159233 2.910948992 -0.5785956979
0.8028714657 2.914806366 -0.4721707702
0.8124958873 2.947737932 -0.370295614
1.571823001 5.69481945 -0.5131476521
1.49619329 5.413449764 -0.2921404541
1.581029177 5.716502666 -0.1028277799
1.476357341 5.378207684 0.09664962441
1.59821713 5.814178467 0.3138075173
1.598512292 5.807331085 0.5232577324
1.586896896 5.761192799 0.7285915613
1.580188155 5.729035854 0.9345911145
1.590390086 5.758171082 1.152930856
1.581839204 5.719430923 1.360050678
1.574984193 5.690779686 1.570566058
0.8024692535 2.883837223 -0.7904854417
0.8061175346 2.893032551 -0.6833978891
0.814035356 2.919483185 -0.5808854103
0.8194165826 2.934817076 -0.4759251773
0.8243627548 2.948564053 -0.3707830906
1.576663256 5.635573387 -0.5082669258
1.516159654 5.412039757 -0.2923497856
1.588466644 5.662535191 -0.1019551679
1.491767049 5.357349873 0.09637039155
1.618442297 5.804434776 0.3135981858
1.623594522 5.818986893 0.5248265266
1.605864167 5.747690201 0.7276165485
1.608630657 5.749836922 0.9389712811
1.612596035 5.760147095 1.154457331
1.609159827 5.740143776 1.366349339
1.602617502 5.709148407 1.577295303
0.8198729753 2.907048941 -0.7977323532
0.8209757209 2.907079935 -0.6874470115
0.8279592991 2.929848433 -0.5835567117
0.832881093 2.943343878 -0.4778024256
0.8378978372 2.957127333 -0.3722455502
1.582734346 5.582116127 -0.5039091706
1.56013608 5.495095253 -0.2971647084
1.587445021 5.583863735 -0.1006287783
1.51371634 5.363657475 0.09657981992
1.62837553 5.76223135 0.3116094172
1.627633572 5.755767822 0.5195971727
1.621051669 5.724859715 0.7254229188
1.620604753 5.715680599 0.9342783093
1.617154121 5.699709892 1.143390417
1.610543013 5.668883324 1.350602865
1.609322906 5.657066345 1.56435442
0.8294839859 2.90231204 -0.7972147465
0.839161694 2.932299614 -0.6941955686
0.8365592957 2.921278238 -0.5824118257
0.8453288674 2.948014021 -0.4790538847
0.8525971174 2.969449043 -0.3741954565
1.58240509 5.507619858 -0.4976339042
1.58758986 5.518407822 -0.2987347841
1.591982603 5.526406288 -0.0996863544
1.54122889 5.389102459 0.09713830054
1.636381626 5.714270592 0.3093066514
1.632346272 5.696423054 0.5147164464
1.62459898 5.661923409 0.7181107998
1.616001248 5.624552727 0.9201991558
1.628904462 5.665727139 1.137666106
1.617384195 5.618281841 1.339805126
1.614076495 5.599439144 1.549860477
0.8379972577 2.893832207 -0.7956618071
0.8504769206 2.933095932 -0.6950953603
0.8489390612 2.925882816 -0.5839383602
0.8556136489 2.945045233 -0.4790538847
0.8673940301 2.981703043 -0.3761453629
1.590482116 5.463803291 -0.4941476882
1.59231317 5.462977409 -0.2960133255
1.593331933 5.459388733 -0.09856939316
1.565597892 5.402895927 0.09748735279
1.638507485 5.647143841 0.3059571683
1.637222886 5.639028549 0.510010004
1.629943609 5.606657982 0.7117735744
1.624581456 5.580945015 0.9139418006
1.632745385 5.605345726 1.126599193
1.622798085 5.563961506 1.328107595
1.614659309 5.528866768 1.531743288
0.8502694964 2.898304224 -0.7977323532
0.8607109785 2.930109024 -0.6950953603
0.8569332957 2.915366888 -0.5824118257
0.8692358136 2.953410864 -0.4809311032
0.8822851777 2.993890285 -0.3780952394
1.594894171 5.408531189 -0.4896155894
1.600060105 5.419076443 -0.2939198911
1.596697092 5.404213428 -0.09766186774
1.609793186 5.483740807 0.09905806184
1.655537963 5.635929585 0.3056431413
1.651835918 5.616076946 0.5084412694
1.646141291 5.589508533 0.7103111148
1.640847445 5.567947388 0.9126903415
1.645635962 5.577015877 1.122019768
1.638346434 5.545180321 1.324958324
1.62805438 5.506808758 1.52708447
0.8537772298 2.873096943 -0.7915207148
0.8693113923 2.923502922 -0.6941955686
0.8648630977 2.904831648 -0.5808854103
0.881280303 2.958084583 -0.4821825624
0.893342793 2.994752884 -0.3785827458
1.592097402 5.330385685 -0.4829917252
1.597431064 5.34485054 -0.2901516855
1.597207308 5.337302208 -0.09654491395
1.640499592 5.520543575 0.09982597083
1.671784997 5.618630409 0.3050150871
1.674841523 5.621733665 0.5094871521
1.66296804 5.578311443 0.709579885
1.659142256 5.558400631 0.9120645523
1.664684296 5.573408604 1.122401357
1.654494047 5.532248497 1.323158741
1.650590658 5.512197018 1.530190349
0.8638573289 2.872099638 -0.7920383811
0.8671476245 2.879399776 -0.6842976809
0.8705266118 2.888789177 -0.5782140493
0.89787817 2.975792885 -0.4856241345
0.9049400091 2.995416641 -0.3790702224
1.621653676 5.361030579 -0.4863036573
1.601614594 5.291450977 -0.2875348926
1.621047139 5.348918915 -0.09685906023
1.681084752 5.585632324 0.101117447
1.691962361 5.614673138 0.3051197529
1.696352124 5.625686169 0.5103586912
1.685297251 5.58197403 0.7107985616
1.680822253 5.560138226 0.9133160114
1.687538385 5.578839302 1.124691129
1.673793912 5.526440144 1.323158741
1.673186779 5.517492771 1.533296108
0.8670560122 2.84489131 -0.7853090763
0.8754886985 2.870763063 -0.6829479933
0.8765214086 2.870558023 -0.575161159
0.9145537615 2.991373062 -0.4887528121
0.921196878 3.011222124 -0.3815076053
1.723801494 5.627756119 -0.5112302303
1.717622042 5.600609303 -0.3048057556
1.723015189 5.614688873 -0.1018155366
1.71922636 5.640941143 0.1022344008
1.713881493 5.616374016 0.3055384457
1.720451951 5.630863667 0.5114045143
1.708252907 5.587448597 0.7122610211
1.700219512 5.554237366 0.9133160114
1.711427808 5.583878517 1.126980901
1.698613167 5.535171509 1.326757908
1.693571925 5.515312195 1.534331441
0.8758425713 2.838154793 -0.7842737436
0.8860040903 2.867535114 -0.6829479933
0.8888565302 2.874983072 -0.5766875744
0.9255734682 2.990049601 -0.4890657067
0.9381048679 3.026786566 -0.3839449883
1.744611859 5.625511169 -0.5115788579
1.749008179 5.632727623 -0.3068991899
1.755059719 5.648744583 -0.1025485471
1.740481377 5.636512756 0.1022692993
1.739370942 5.629440308 0.3065851629
1.73774302 5.617210388 0.5107073188
1.73342073 5.596319199 0.7142109871
1.72369206 5.561476231 0.9155060649
1.730907679 5.577871323 1.126980901
1.723124146 5.545958519 1.33080709
1.712812424 5.509366989 1.534331441
0.8868959546 2.838768721 -0.7853090763
0.893183291 2.857141018 -0.6811484098
0.9006468058 2.877483606 -0.5778324604
0.9366654158 2.990733862 -0.4896914363
0.9528893828 3.038811922 -0.3858948946
1.766626716 5.626990318 -0.5122760534
1.770073414 5.634518147 -0.3073178828
1.777768016 5.65212059 -0.1027230695
1.757969379 5.626893044 0.1021994948
1.762589693 5.63477087 0.3072131872
1.762102723 5.626320839 0.5121017694
1.751968145 5.590540409 0.7142109871
1.746641874 5.566734314 0.9173833132
1.75056994 5.575846672 1.127744079
1.744429111 5.549509048 1.333056569
1.736674428 5.518096447 1.538472414
0.9190114737 2.907650948 -0.8054969311
0.9131469131 2.885590553 -0.688796699
0.9510760903 3.003626108 -0.6041641235
0.9518758655 3.002509832 -0.4921943843
0.9646900296 3.039252043 -0.3863823712
1.791912436 5.641988754 -0.5141935349
1.790332198 5.630209923 -0.3074225485
1.801959872 5.663344383 -0.1030372083
1.780010819 5.628348351 0.1023391187
1.781267166 5.628894806 0.3072131872
1.784360051 5.631842613 0.5131476521
1.771473646 5.58439064 0.7142109871
1.767481565 5.568443298 0.9186348319
1.771808028 5.575314999 1.128888845
1.765563965 5.548956394 1.334406376
1.75613451 5.515988827 1.539507747
0.9527001977 2.978025198 -0.8262024522
0.9553858638 2.98462534 -0.7135413885
0.9645501971 3.009636164 -0.6060721874
0.9666522741 3.014385223 -0.4946973622
0.9765845537 3.041706085 -0.387113601
1.815255642 5.647079945 -0.5152394176
1.812663674 5.635649681 -0.3080506027
1.82171917 5.657019138 -0.1030372083
1.804759979 5.641460896 0.1026881635
1.800900936 5.622643471 0.3072131872
1.808876514 5.640757084 0.5145421028
1.793622851 5.589826107 0.7156733871
1.786909819 5.562239647 0.9186348319
1.79629612 5.588099003 1.132705092
1.782760024 5.539361 1.333506465
1.780117154 5.524536133 1.543648958
0.9636081457 2.974513531 -0.8262024522
0.9716494679 2.995764017 -0.717140615
0.9743618965 3.002346277 -0.6053089499
0.984934926 3.031316519 -0.4981388748
0.992554605 3.051148415 -0.3888197541
1.836556554 5.64228344 -0.5154137015
1.838001251 5.640041828 -0.3086785972
1.844666243 5.653785229 -0.1031070277
1.830106616 5.645903587 0.1028975919
1.827410698 5.630884647 0.3080506027
1.830768466 5.637880325 0.51489079
1.819365263 5.596113682 0.71737957
1.809478164 5.559093475 0.9192605615
1.822602272 5.596094608 1.135758042
1.808246851 5.545444012 1.336655736
1.803713441 5.525006294 1.545719504
0.9854198694 3.006010294 -0.8360375762
1.003367782 3.057159662 -0.7328871489
1.003213048 3.054883957 -0.6167575121
1.008464694 3.06726861 -0.5047091842
1.010647893 3.070291519 -0.3917446136
1.856859922 5.637732029 -0.5155879855
1.861431837 5.644971848 -0.3093066514
1.868777514 5.660604477 -0.1033513546
1.851051331 5.643280506 0.1029673964
1.848302722 5.628266335 0.3082599342
1.850438714 5.631454945 0.51489079
1.843232036 5.602927685 0.719085753
1.831958055 5.562125683 0.920824945
1.842123985 5.589699268 1.135758042
1.832476735 5.55390358 1.340255022
1.824201584 5.522344112 1.546754718
1.005030394 3.030056238 -0.8438021541
1.011577249 3.046240568 -0.7310875058
1.018823743 3.066267967 -0.619810462
1.019166112 3.063729286 -0.5047091842
1.023867369 3.074278831 -0.3927195966
1.880938649 5.644446373 -0.5168081522
1.883652329 5.646018982 -0.3097253442
1.892961383 5.667322636 -0.1035956889
1.870737553 5.636784554 0.1029673964
1.876126409 5.646419525 0.3096206486
1.873854995 5.636305332 0.5159366727
1.863407135 5.598342419 0.7193294764
1.855110884 5.566940784 0.9227020741
1.863488913 5.588821888 1.136902928
1.856787562 5.562261105 1.343854189
1.845915437 5.523272991 1.548825383
1.016828299 3.030193329 -0.8448374271
1.019102335 3.03345418 -0.7288380265
1.033272028 3.073859453 -0.6221001148
1.031745434 3.065769434 -0.5056477785
1.037128568 3.078210592 -0.39369452
1.904450297 5.649173737 -0.5178540349
1.904628038 5.643193722 -0.3099346757
1.917852402 5.675836563 -0.1038749218
1.896768928 5.649177551 0.1033164561
1.895184398 5.637944698 0.3095159829
1.898600817 5.644836903 0.5173311234
1.882302999 5.589922905 0.719085753
1.878950596 5.573534012 0.9248922467
1.888632536 5.599025726 1.140337467
1.877440691 5.559438229 1.3447541
1.870135307 5.53143549 1.552966356
1.037335753 3.055894136 -0.8531196117
1.035954595 3.048329592 -0.7333370447
1.044628263 3.072092533 -0.6224817634
1.04944253 3.082719564 -0.5090893507
1.048610091 3.078512669 -0.3941820264
1.929301262 5.657578468 -0.5192485452
1.924316287 5.636510372 -0.3099346757
1.936016202 5.667553902 -0.1038400233
1.917761445 5.646308899 0.1033862606
1.914514184 5.633519173 0.3096206486
1.922145367 5.649491787 0.5183770061
1.907563448 5.600230694 0.7212793827
1.899336219 5.572882175 0.9258308411
1.913236022 5.607264042 1.143390417
1.894608378 5.549492836 1.343854189
1.893465161 5.539827824 1.557107449
1.049972773 3.059746504 -0.8551902175
1.052390099 3.063307524 -0.7378360629
1.057363629 3.076037645 -0.6240082383
1.067373753 3.10163641 -0.5128437877
1.066569209 3.097541571 -0.3971068859
1.947404146 5.649265289 -0.5190742612
1.950814724 5.652754307 -0.3111907542
1.954801202 5.661102295 -0.1038400233
1.944266558 5.662614822 0.1038051173
1.93643117 5.636583328 0.310144037
1.944753408 5.654392719 0.5194228888
1.931295753 5.608889103 0.7232292891
1.917802215 5.56655407 0.9258308411
1.936942577 5.615735531 1.146443367
1.918085456 5.557916641 1.347453356
1.913088799 5.53717041 1.558142781
1.05694747 3.04712224 -0.852602005
1.075327396 3.096619129 -0.7468340993
1.073356867 3.089205027 -0.6274427772
1.080248594 3.105542898 -0.5140952468
1.082597136 3.108797073 -0.3990567923
1.96809268 5.648421288 -0.5195971727
1.973494887 5.657569408 -0.3118187785
1.97784555 5.663684368 -0.1040145531
1.963035345 5.656135559 0.1038051173
1.961337566 5.644882679 0.3109813929
1.963495016 5.647912025 0.5194228888
1.954451203 5.615577698 0.7249354124
1.941122532 5.571017265 0.9277079701
1.95490694 5.607428074 1.146061778
1.943252802 5.567747116 1.351502538
1.93240428 5.530458927 1.558142781
1.073331952 3.059821129 -0.857260704
1.086776495 3.094684839 -0.7472839952
1.091942906 3.107666731 -0.632022202
1.093705297 3.109206915 -0.5153467059
1.101355553 3.127467632 -0.4019816518
1.991771698 5.6527915 -0.5206430554
1.995890617 5.65817976 -0.3122374713
2.004260778 5.675601959 -0.1043635979
1.984092712 5.653021336 0.1038749218
1.987649798 5.656846046 0.31202811
1.987164259 5.652300835 0.5204687715
1.973381042 5.606849194 0.7246917486
1.967123389 5.582837582 0.9308366776
1.976425767 5.606125355 1.147206545
1.9685148 5.577468395 1.35555172
1.955560565 5.534608841 1.56124866
1.087881923 3.066979885 -0.8603665829
1.096267581 3.087199926 -0.7463842034
2.05584836 5.786273956 -1.185368419
1.107861042 3.114676237 -0.5169110894
1.112264991 3.123604298 -0.4019816518
2.021520376 5.673957348 -0.5232577324
2.019654036 5.662466049 -0.3128654957
2.026751518 5.676103592 -0.1045032144
2.007825136 5.657369137 0.1040843576
2.007385492 5.64987278 0.31202811
2.013554811 5.664103031 0.5222118497
1.992942095 5.599925995 0.7246917486
1.989912868 5.585241795 0.9324010611
2.000598669 5.612136364 1.149877906
1.989280581 5.574234009 1.356451511
1.983968616 5.553216934 1.568495512
2.02140069 5.636257172 -1.592824459
2.038174391 5.676782131 -1.382545829
2.0760324 5.779062748 -1.185368419
2.039901733 5.672253609 -0.9480444789
2.078005075 5.771887302 -0.7480906248
2.08588028 5.790581703 -0.5347622633
2.089543104 5.79441452 -0.3206112087
2.09204793 5.795012474 -0.1068418324
2.039716959 5.684206009 0.1047126427
2.034521341 5.663508415 0.3131795228
2.055551767 5.718914032 0.5279641151
2.025920868 5.630291939 0.7295665145
2.026804209 5.626581669 0.9405356646
2.044807911 5.673455715 1.163997769
2.02856946 5.622248173 1.369948626
2.013837814 5.575330734 1.576777697
2.024600983 5.583762169 -1.579883575
2.04268074 5.627502441 -1.372198105
2.085471153 5.742255211 -1.179262519
2.077234507 5.713368893 -0.9561790824
2.10221529 5.775789738 -0.7495530844
2.113227129 5.79974556 -0.5363310575
2.117283344 5.807725906 -0.3217625916
2.121860504 5.813973904 -0.1073305011
2.105921507 5.804878235 0.1070861667
2.098596334 5.778394222 0.3199831843
2.100000143 5.779117107 0.5342393517
2.096457005 5.763098717 0.7478469014
2.094420195 5.75125885 0.9627493024
2.096859932 5.754826069 1.182315469
2.085579872 5.717654228 1.395143151
2.073709249 5.6789608 1.608353734
2.02908802 5.532775402 -1.567460299
2.045531034 5.57460165 -1.360950589
2.085517168 5.677445412 -1.167432308
2.109073639 5.735379219 -0.9611849785
2.128531694 5.785184383 -0.7517467141
2.132772207 5.790463924 -0.5361567736
2.144772768 5.816792488 -0.322704643
2.144219875 5.812159538 -0.1074352115
2.128235579 5.803124428 0.1071908846
2.126327038 5.791657448 0.3211345673
2.123228312 5.776991844 0.5347622633
2.117933035 5.75947094 0.7483343482
2.111755133 5.736497402 0.9614978433
2.124725819 5.765523434 1.186131597
2.110567808 5.72094202 1.397842526
2.09953928 5.687998772 1.613012314
2.053090572 5.538337708 -1.571083784
2.061201811 5.554277897 -1.357801199
2.086189508 5.618596554 -1.156746984
2.133206606 5.739093781 -0.9630622268
2.155953169 5.794087887 -0.7539403439
2.159919262 5.8016572 -0.5378998518
2.163670778 5.80552721 -0.3224953115
2.17077899 5.821504116 -0.1077493578
2.150883198 5.799034595 0.1072606966
2.152085781 5.799180984 0.3219719529
2.153096199 5.795692444 0.5372026563
2.13833499 5.749809265 0.7480906248
2.136590004 5.742050171 0.9636878967
2.146210432 5.761750221 1.186894774
2.139371872 5.737277508 1.403691173
2.123434544 5.691494465 1.616118193
2.070378542 5.525710106 -1.569530845
2.077558756 5.541937828 -1.356451511
2.096823692 5.587384701 -1.15178597
2.157088518 5.744932652 -0.9652522802
2.174458265 5.785047531 -0.7536966205
2.184369087 5.805270195 -0.5389457345
2.186430693 5.807665348 -0.3230186701
2.197435379 5.830731869 -0.1080635041
2.174313068 5.803104877 0.107470125
2.173720121 5.795372963 0.3221812844
2.178915262 5.803063393 0.5385971069
2.160181522 5.75012064 0.749065578
2.160791159 5.745651245 0.965565145
2.169452429 5.765627384 1.189184546
2.155639648 5.722856522 1.401891589
2.152832508 5.709353447 1.623365164
2.089370966 5.520621777 -1.570048451
2.094130754 5.52736187 -1.354651809
2.108377695 5.562044144 -1.147969723
2.184138775 5.755836487 -0.9683809876
2.200978994 5.794125557 -0.7558902502
2.212103605 5.820343018 -0.5410374999
2.211657524 5.813066483 -0.3237513602
2.2174716 5.825280666 -0.1080984101
2.20163393 5.814182281 0.1078191772
2.19434309 5.791867733 0.3223906159
2.202384949 5.806983471 0.5396429896
2.186583281 5.759247303 0.7512592077
2.182637453 5.745841026 0.9668166041
2.194451094 5.77086401 1.191855907
2.179764271 5.726223946 1.404590964
2.17587781 5.713015556 1.626470923
2.103109598 5.498859406 -1.565907359
2.113840342 5.524027824 -1.35555172
2.131293058 5.563817024 -1.149877906
2.206747055 5.757784367 -0.9699453115
2.224448919 5.797914028 -0.7573527098
2.233834505 5.816306591 -0.5413861275
2.235222101 5.816885948 -0.3243793845
2.239229441 5.821237564 -0.108168222
2.226618528 5.821790695 0.1080984101
2.220258951 5.799095154 0.3232280314
2.22692132 5.810422421 0.5406888723
2.212775707 5.770499706 0.7536966205
2.204806089 5.743719101 0.9677551985
2.22202158 5.785548687 1.196435332
2.205034018 5.73533535 1.408640146
2.195805788 5.705386162 1.626470923
2.119243383 5.486449242 -1.56435442
2.133108854 5.516615391 -1.35555172
2.15327239 5.5658741 -1.15178597
2.228971243 5.755573273 -0.9708839059
2.250415564 5.804920673 -0.7593026161
2.257005692 5.815903187 -0.542083323
2.26418972 5.831389904 -0.325635463
2.263156652 5.822705269 -0.1083427444
2.248370409 5.817712784 0.108168222
2.246251822 5.806211472 0.3240653872
2.247617245 5.80672121 0.5410374999
2.238641262 5.777549267 0.7556465268
2.229841232 5.74887991 0.9699453115
2.240071297 5.772266865 1.195290446
2.229273558 5.738502979 1.411339641
2.218509912 5.704887867 1.62854147
2.142852783 5.487641811 -1.566942573
2.147389889 5.496429443 -1.352402449
2.179379702 5.572571278 -1.15483892
2.253653526 5.756561756 -0.9724482894
2.276455402 5.811816692 -0.7612524629
2.281658411 5.8191185 -0.5431292057
2.285546303 5.823052406 -0.325635463
2.287121534 5.824076653 -0.1085172668
2.270117521 5.813554764 0.1082380265
2.275232792 5.820657253 0.3253214657
2.271787882 5.805866718 0.541734755
2.26169157 5.77709341 0.75662148
2.258545876 5.763131618 0.9736997485
2.262648344 5.767672539 1.196053743
2.258840322 5.75205946 1.416738391
2.241235018 5.704302311 1.630612135
2.15915823 5.472940922 -1.564872026
2.166087866 5.484897137 -1.351502538
2.204588652 5.579537868 -1.15789187
2.277365446 5.757844925 -0.9740126133
2.302127361 5.814507484 -0.7627149224
2.310760975 5.833346844 -0.5452209711
2.308804989 5.822464466 -0.3260541558
2.316285372 5.838363647 -0.1089361235
2.29581666 5.816355228 0.1084474549
2.294068098 5.808964729 0.3251121044
2.297901392 5.81272316 0.5431292057
2.280658007 5.76322794 0.7558902502
2.284467936 5.76990509 0.9762026668
2.288555622 5.774339199 1.199106574
2.280341148 5.747763157 1.417638183
2.268261909 5.714398861 1.63578856
2.186431646 5.483114243 -1.352852225
2.228417635 5.58274889 -1.160181522
2.302309275 5.764936924 -0.9765155911
2.319921732 5.803155899 -0.7622274756
2.337032557 5.840043068 -0.5466154218
2.334038019 5.829610348 -0.3268915117
2.336652517 5.83024168 -0.1089361235
2.321010828 5.823572636 0.1087267026
2.315813303 5.804631233 0.3253214657
2.324087858 5.819469929 0.544523716
2.308596849 5.777752399 0.7588151097
2.305327415 5.763730526 0.9765155911
2.313525677 5.781301498 1.202159643
2.30011487 5.741977692 1.418088078
2.293945789 5.72079134 1.639929533
2.197803974 5.461701393 -1.565907359
2.204100609 5.471834183 -1.351952553
2.245452166 5.571686268 -1.159418344
2.329810619 5.775183678 -0.9796442986
2.347596169 5.813429832 -0.7646648884
2.353669405 5.82261467 -0.5457438827
2.358864784 5.832537174 -0.3275195658
2.359992743 5.829463482 -0.1090757474
2.349541187 5.835839272 0.1091106459
2.342032194 5.811332703 0.3261588216
2.344861984 5.81542635 0.5448723435
2.333950758 5.782545567 0.7605212927
2.325433969 5.755647182 0.9765155911
2.338105202 5.784111023 1.204449296
2.323069334 5.741138935 1.419887662
2.313899755 5.712749481 1.639929533
2.20689249 5.426765919 -1.558142781
2.226124048 5.471327782 -1.353752136
2.270302773 5.574326992 -1.161707997
2.35245204 5.770263672 -0.9802699685
2.375373363 5.823579311 -0.7671022415
2.379253149 5.827274323 -0.5469641089
2.387781143 5.842341423 -0.328566283
2.388651133 5.841550827 -0.1094596982
2.369146347 5.825749397 0.1090757474
2.368329287 5.817920208 0.3269962072
2.367663383 5.810483932 0.5452209711
2.358619452 5.785391331 0.7619836926
2.352970839 5.765786648 0.9796442986
2.363745451 5.786406994 1.206738949
2.352208376 5.752428532 1.424836636
2.336754322 5.711789131 1.642000079
2.231692553 5.433325768 -1.562283754
2.246907473 5.464932442 -1.354202032
2.29497385 5.579078197 -1.164379358
2.374085665 5.765669823 -0.9808957577
2.401995897 5.827682018 -0.7688084245
2.407432795 5.835091591 -0.5485329032
2.410447836 5.839508057 -0.3288802803
2.418444157 5.853086472 -0.109843649
2.395802021 5.829975128 0.1093200818
2.400272846 5.83506012 0.3284616172
2.39551568 5.820608139 0.5469641089
2.382831573 5.784050465 0.7629587054
2.378610373 5.768079281 0.9815214872
2.385425806 5.781751156 1.207502246
2.37822628 5.758591175 1.428435802
2.363576651 5.717469692 1.646141291
2.313797951 5.574988842 -1.605765462
2.321267843 5.590239048 -1.387494802
2.32369709 5.590570927 -1.168577194
2.402788877 5.775168896 -0.9840244055
2.423850775 5.822926521 -0.7692958713
2.434684515 5.843203545 -0.5501016974
2.434139729 5.836164951 -0.3291943073
2.445022821 5.859372616 -0.1101228893
2.419205427 5.828963757 0.1094596982
2.420628071 5.826645851 0.3284616172
2.426012278 5.833865166 0.5490558147
2.403008699 5.775697231 0.7629587054
2.40556097 5.776154041 0.9843372703
2.411135197 5.78384161 1.209792018
2.400816202 5.753433704 1.429335713
2.387987137 5.719880104 1.649247169
2.308169603 5.512452602 -1.589718699
2.342054367 5.587901592 -1.388844371
2.341247797 5.58324337 -1.168577194
2.427035332 5.782164097 -0.9865274429
2.448531151 5.827666759 -0.7710021138
2.460998535 5.851627827 -0.5516704917
2.457889318 5.84137392 -0.3299269974
2.466767311 5.856761456 -0.1102276072
2.44933486 5.846731663 0.1099483594
2.441480398 5.82227087 0.3286709487
2.448951244 5.837238312 0.5501016974
2.429064512 5.784169197 0.7651523352
2.425469398 5.769965649 0.9846501946
2.439948082 5.801574707 1.215134621
2.418878078 5.745862961 1.429335713
2.41594553 5.733292103 1.655458689
2.329109669 5.505734921 -1.590236306
2.340279579 5.52944231 -1.376247168
2.362460136 5.576433182 -1.168958783
2.454379797 5.787778378 -0.9890303612
2.4766078 5.837360859 -0.773439467
2.479071856 5.837500572 -0.5511475205
2.487094641 5.850707054 -0.3309737146
2.487197638 5.848114491 -0.1102276072
2.472847223 5.845513344 0.1100879908
2.469575405 5.83210516 0.3297176659
2.474999189 5.83922863 0.5511475205
2.456213951 5.792103291 0.7673459649
2.448684454 5.768737316 0.9859016538
2.467335939 5.807048321 1.218187451
2.447550058 5.754891396 1.433834672
2.438965321 5.731935978 1.657529235
2.358939648 5.522442341 -1.597483277
2.370488644 5.544121742 -1.382095933
2.390406132 5.588006973 -1.1731565
2.477679968 5.786438942 -0.9902818203
2.500333786 5.833717346 -0.7741706967
2.502575874 5.836134911 -0.5518447757
2.513803244 5.856673241 -0.33181113
2.517063379 5.861446381 -0.1106464565
2.498969078 5.847443581 0.1102974117
2.494631052 5.834466934 0.3303456903
2.49536252 5.830555439 0.5511475205
2.482899904 5.795834064 0.7690521479
2.47658658 5.778311253 0.9890303612
2.489140987 5.802008629 1.218950748
2.472235918 5.757056713 1.436534166
2.46048522 5.726936817 1.658564568
2.388911724 5.539009571 -1.604730129
2.399668217 5.561280727 -1.388394594
2.416123867 5.5940485 -1.176209569
2.499987841 5.78544426 -0.9915332794
2.529908657 5.849079132 -0.77733922
2.529266834 5.841990471 -0.5532392859
2.536385059 5.85563612 -0.3322297931
2.545464516 5.870970726 -0.1109955087
2.51834774 5.839123726 0.1102974117
2.524482727 5.847727299 0.3316017687
2.523604631 5.840097904 0.5528906584
2.507621765 5.800322533 0.7707583308
2.504585743 5.787760735 0.992159009
2.50992918 5.797325134 1.219714046
2.502160311 5.773860455 1.442832708
2.485072374 5.728947639 1.661670446
2.421142817 5.562942505 -1.614047647
2.426072598 5.568949223 -1.392443657
2.44250679 5.604001999 -1.180025697
2.524118662 5.78573513 -0.9930976629
2.550311804 5.840211868 -0.77733922
2.559791565 5.85913229 -0.5556796193
2.556010962 5.844916344 -0.3321251273
2.572933674 5.880818367 -0.1113445535
2.545103073 5.844964504 0.110576652
2.545454979 5.842986584 0.33181113
2.550922632 5.84995985 0.5546337962
2.530234575 5.796992779 0.771489501
2.529300213 5.792095184 0.994349122
2.53643918 5.802919865 1.222766995
2.522301197 5.765090466 1.442832708
2.514903307 5.745450974 1.668917298
2.45142746 5.579217434 -1.621294618
2.455504656 5.585849285 -1.398742318
2.463634014 5.59903717 -1.180788994
2.551248789 5.795413017 -0.9962263107
2.570464134 5.833539963 -0.777583003
2.58505106 5.861099243 -0.556725502
2.584247589 5.856509209 -0.3332765102
2.593444586 5.871801853 -0.1113445535
2.572514534 5.854800224 0.1109257042
2.565833807 5.834065914 0.33181113
2.577747822 5.855608463 0.5560283065
2.5590446 5.810371399 0.7744144201
2.552691698 5.79046011 0.9956005812
2.564382315 5.814237118 1.226964712
2.546128988 5.767390251 1.445532203
2.542750359 5.754308224 1.674093723
2.480878353 5.595781803 -1.62854147
2.486846209 5.603961945 -1.405490875
2.483782291 5.594423771 -1.181552172
2.57868433 5.802717686 -0.9990421534
2.598071337 5.840856552 -0.7797766924
2.60549593 5.852039337 -0.556725502
2.613613129 5.867521763 -0.3344278932
2.615555286 5.866364956 -0.1114143655
2.601042747 5.86406517 0.111274749
2.594289064 5.843327522 0.3328578472
2.603620768 5.861595154 0.5574227571
2.582538128 5.808658123 0.7753893733
2.575296879 5.786928654 0.9965391159
2.591052055 5.819597721 1.230017662
2.572589874 5.772707939 1.44913137
2.56439662 5.748925209 1.675128937
2.566104889 5.73123312 -1.670987844
2.558174133 5.710847378 -1.434734464
2.513907671 5.606781006 -1.186131597
2.603168964 5.800436497 -1.000293612
2.624136925 5.844427586 -0.7814828157
2.630806684 5.853813171 -0.5577713847
2.641657591 5.872474194 -0.3352652788
2.641760349 5.869965076 -0.1116586998
2.626400709 5.86590004 0.1114841774
2.622837067 5.852462769 0.3339045644
2.62345767 5.848377228 0.5570741892
2.612550735 5.821341515 0.7783142328
2.602764845 5.794122219 0.9993549585
2.61316824 5.811852932 1.230399251
2.603326559 5.784565449 1.454530239
2.58762002 5.746984959 1.677199483
2.61632967 5.78913641 -1.690658092
2.631296158 5.816841602 -1.463978052
2.633839369 5.819758892 -1.23345232
2.625032187 5.794913292 -1.000919342
2.654556036 5.854658127 -0.7841639519
2.65781045 5.859109402 -0.559165895
2.66461587 5.868673325 -0.3355793059
2.669877529 5.874806404 -0.1119379401
2.649529219 5.859879017 0.1115539819
2.654153109 5.864644527 0.3351606131
2.650429487 5.853703976 0.5584686399
2.637148619 5.818958282 0.779289186
2.634594202 5.807929039 1.00342226
2.63830924 5.813421726 1.232689023
2.630757809 5.791410446 1.458579302
2.612663031 5.746255875 1.679787755
2.642934084 5.79403019 -1.694799185
2.653202057 5.81116724 -1.464877963
2.668819427 5.842673779 -1.240321398
2.650171041 5.796494007 -1.002796531
2.678282022 5.852575779 -0.785138905
2.683221579 5.860666275 -0.5602117777
2.689247131 5.868414402 -0.3361026645
2.693701744 5.872721672 -0.1120775566
2.676611185 5.865148067 0.1118332297
2.674607038 5.855344296 0.3351606131
2.679129362 5.862537384 0.5602117777
2.65909481 5.813328743 0.7797766924
2.66142869 5.813066483 1.005925179
2.661854744 5.811316967 1.234215498
2.652583361 5.7857337 1.459479094
2.639958143 5.752902031 1.684446454
2.671223164 5.802316189 -1.69997561
2.681625128 5.819569588 -1.469376922
2.694130898 5.844018936 -1.242611051
2.680319071 5.80873251 -1.006551027
2.700361252 5.846795082 -0.7856264114
2.713689804 5.872968197 -0.5623034835
2.716423988 5.873493195 -0.3369400501
2.717358828 5.872831821 -0.112252079
2.703759193 5.870299816 0.1121124625
2.697351933 5.853699684 0.3355793059
2.706251621 5.867624283 0.561606288
2.686860561 5.820230961 0.7819702625
2.684005499 5.811381817 1.007176757
2.69201088 5.823374271 1.238794923
2.6743958 5.779978752 1.460378885
2.665515184 5.758141041 1.688587546
2.692270756 5.794711113 -1.700493217
2.709945679 5.83008337 -1.474325895
2.716166258 5.838140965 -1.243374228
2.7079041 5.817719936 -1.009679675
2.729790688 5.85940218 -0.7885512114
2.735859156 5.867070198 -0.5626521111
2.743481636 5.88074398 -0.3378820717
2.740381956 5.868745327 -0.1123567969
2.730792999 5.877624035 0.1124266088
2.72450757 5.858735561 0.3364166617
2.730081558 5.865366459 0.5623034835
2.709496975 5.818487644 0.7829452157
2.709280729 5.812720299 1.009053946
2.71794343 5.828649998 1.241847873
2.701791763 5.788735867 1.464877963
2.690505981 5.759302139 1.691693425
2.714752674 5.792747021 -1.702563763
2.733592033 5.827644348 -1.476125479
2.744687557 5.848651409 -1.247572184
2.730716228 5.813595295 -1.010618329
2.756140947 5.862412453 -0.7902574539
2.759714842 5.864696503 -0.5633493662
2.772500992 5.889201164 -0.3389287889
2.772783279 5.884469986 -0.1128454655
2.75469017 5.875297546 0.1125662252
2.755122662 5.87088728 0.3376727402
2.749515533 5.856281757 0.5623034835
2.740765333 5.832351208 0.7861138582
2.736281872 5.817527294 1.011556864
2.741615295 5.826233387 1.243374228
2.729456663 5.795136452 1.468927026
2.712236643 5.753372192 1.692728639
2.741750956 5.79498148 -1.706187248
2.757248402 5.825114727 -1.477925062
2.773672104 5.854519367 -1.251006722
2.752850771 5.805333138 -1.010931134
2.78935194 5.879657745 -0.7939134836
2.787007809 5.869425297 -0.5647438765
2.79663825 5.884412289 -0.339242816
2.801895618 5.892814159 -0.1131945178
2.775183678 5.865644932 0.1125662252
2.780729532 5.87206459 0.3383007646
2.77778697 5.860568523 0.5636979938
2.763660192 5.828128815 0.7868450284
2.762497425 5.82043457 1.013746977
2.766322374 5.823238373 1.244900823
2.757371664 5.799173355 1.472526193
2.740603209 5.761313915 1.697905064
2.767787218 5.797579765 -1.709810734
2.780264854 5.818484306 -1.478824854
2.799170494 5.855430126 -1.253296375
2.782478809 5.815289497 -1.014372706
2.812597036 5.87297678 -0.79440099
2.818671942 5.883018494 -0.5670099258
2.82234478 5.885419369 -0.3398708403
2.83109951 5.901026249 -0.1135435626
2.805280685 5.873478889 0.11291527
2.80465579 5.869529724 0.3387194574
2.808544397 5.872404575 0.5657896996
2.785001755 5.817960739 0.7868450284
2.79047823 5.826789856 1.016562819
2.796814203 5.83479166 1.249480128
2.782656908 5.80005455 1.475225687
2.767383814 5.765646458 1.702046156
2.79303956 5.798325062 -1.712916493
2.809692383 5.830300808 -1.484223723
2.826417685 5.859768867 -1.256349325
2.808611631 5.820264339 -1.016875625
2.833785295 5.867191315 -0.7948884368
2.846990824 5.889290333 -0.5685787201
2.848804474 5.890411377 -0.340708226
2.856032848 5.900109291 -0.113718085
2.835157871 5.885762215 0.1133341342
2.826857567 5.863303661 0.3389287889
2.834219694 5.873332024 0.5668355823
2.810319424 5.821207523 0.7885512114
2.81423974 5.824127674 1.017814279
2.82640028 5.846696377 1.254059672
2.801874161 5.790795326 1.475225687
2.79591465 5.773337841 1.707222581
2.816471577 5.797719955 -1.715504766
2.836845398 5.834477425 -1.48782289
2.847550154 5.853895187 -1.257112503
2.841018677 5.835289001 -1.021255851
2.862942934 5.875109196 -0.7973257899
2.870871782 5.888770103 -0.5694502592
2.874602318 5.891200542 -0.3413362503
2.879245043 5.895493507 -0.1138227955
2.865299702 5.895614624 0.113718085
