# .PCD v0.7 - Point Cloud Data file format
VERSION 0.7
FIELDS x y z
SIZE 4 4 4
TYPE F F F
COUNT 1 1 1
WIDTH 1186
HEIGHT 1
VIEWPOINT 0 0 0 1 0 0 0
POINTS 1186
DATA ascii
-1.711482286 -0.6810814142 0.4819731116
-1.714108944 -0.6797022223 -0.482490778
-1.723207831 -0.6826142669 -0.417955637
-1.730079293 -0.684986949 -0.3534410894
-1.744190097 -0.6898697019 -0.290393889
-1.730469346 -0.6837439537 -0.2233211845
-1.749641657 -0.690966785 -0.1608641148
-1.735387087 -0.6846368313 -0.09556659311
-1.748809695 -0.6892273426 -0.03211063147
-1.745624185 -0.691847086 0.03207572922
-1.730835319 -0.6852862835 0.0953572467
-1.741748691 -0.6892551184 0.1601668745
-1.700812697 -0.6723695993 0.2194213718
-1.69861877 -0.6708168983 0.28257218
-1.739926219 -0.6867790222 0.3553491533
-1.707961798 -0.6734731197 0.4139065146
-1.717444301 -0.6765190959 0.4830084145
-1.727260709 -0.6779500246 -0.4855965972
-1.727394342 -0.677306354 -0.4184055328
-1.732459545 -0.6789440513 -0.3534410894
-1.742908716 -0.6823368073 -0.2897681594
-1.738391638 -0.6798686981 -0.2240523994
-1.750187159 -0.684129715 -0.160689801
-1.743347645 -0.6807548404 -0.09588060528
-1.738164186 -0.6780312061 -0.03186629713
-1.7517519 -0.6872095466 0.03214553744
-1.735076308 -0.6799694896 0.0954619199
-1.742288589 -0.6824447513 0.1599925607
-1.703149319 -0.666428566 0.2194213718
-1.68807137 -0.6598492861 0.2803820968
-1.731341124 -0.6764143109 0.3530594707
-1.710302353 -0.6675070524 0.4139065146
-1.705395937 -0.6649063826 0.4788672924
-1.704406381 -0.6621229649 -0.4783496559
-1.738831758 -0.6747975349 -0.4206550419
-1.732988715 -0.6721820235 -0.3530594707
-1.737912178 -0.6733939648 -0.2885166705
-1.737051606 -0.6723632812 -0.2235649228
-1.745131969 -0.6751407385 -0.1599925607
-1.749439359 -0.6761052608 -0.09608995914
-1.742385745 -0.6726803184 -0.0319012031
-1.742955327 -0.6767478585 0.03193610907
-1.739301562 -0.6746305823 0.09556659311
-1.72422576 -0.6684370041 0.1580751389
-1.716571927 -0.6647806764 0.2208838016
-1.699575901 -0.6575164199 0.2819464505
-1.730029464 -0.6689509749 0.3522962332
-1.708986282 -0.6601285934 0.4130067229
-1.70410192 -0.6575584412 0.4778320193
-1.712116957 -0.6582487822 -0.4799025953
-1.726623178 -0.6631347537 -0.4170558453
-1.735324621 -0.6661286354 -0.3530594707
-1.732874393 -0.6644946933 -0.2872652113
-1.743095636 -0.6677159071 -0.2240523994
-1.743756652 -0.667620182 -0.1596439332
-1.740595818 -0.6657134891 -0.0954619199
-1.752078414 -0.6697546244 -0.03204082325
-1.734107137 -0.6663559079 0.03172667697
-1.752715945 -0.673156023 0.0961946249
-1.730268955 -0.6638415456 0.1584237665
-1.709613919 -0.6552324891 0.2196651101
-1.703591704 -0.6525834203 0.2822593153
-1.725019693 -0.6601013541 0.3507697582
-1.722201824 -0.6583339572 0.4157061279
-1.702663898 -0.6505247951 0.4767967463
-1.721626401 -0.6550160646 -0.4819731116
-1.719705105 -0.6539419889 -0.4148063064
-1.74131 -0.6614615321 -0.3538227081
-1.73506856 -0.6587445736 -0.2872652113
-1.730451703 -0.6563002467 -0.222102493
-1.749802709 -0.662940979 -0.1599925607
-1.739058137 -0.6585231423 -0.09525258094
-1.756276011 -0.6643422246 -0.03207572922
-1.736307383 -0.6606016159 0.03172667697
-1.740119457 -0.6613568068 0.0953572467
-1.740026116 -0.6606268287 0.1591209918
-1.700641751 -0.6453339458 0.2182026803
-1.707706094 -0.647333324 0.28257218
-1.730870843 -0.6557683349 0.3515329957
-1.713439941 -0.6484809518 0.4130067229
-1.708538294 -0.6459437013 0.4778320193
-1.725597024 -0.6499843001 -0.482490778
-1.725625277 -0.6493076682 -0.4157061279
-1.732468128 -0.6515369415 -0.3515329957
-1.741055846 -0.654073 -0.2878909409
-1.734590292 -0.6509537101 -0.2223462313
-1.75199151 -0.6571347117 -0.1599925607
-1.737605572 -0.6510475278 -0.09504323453
-1.751093149 -0.6554036736 -0.03193610907
-1.734859705 -0.6531280875 0.03165686876
-1.731200695 -0.6510602832 0.09472922236
-1.747802258 -0.656956017 0.1596439332
-1.704742432 -0.6400914192 0.2184464186
-1.704406977 -0.6392867565 0.2816335857
-1.746017694 -0.6545464993 0.3542043269
-1.708393335 -0.6397618651 0.4112071097
-1.73068583 -0.6474217176 0.4835260212
-1.715183616 -0.6392346025 -0.4788672924
-1.727881432 -0.6432797313 -0.4157061279
-1.727371693 -0.6427472234 -0.3500065207
-1.752586365 -0.651432693 -0.2894552946
-1.734991074 -0.6442039013 -0.222102493
-1.754274845 -0.6510150433 -0.1599925607
-1.747358561 -0.6477546692 -0.0954619199
-1.743993759 -0.6458154917 -0.03176158294
-1.752120376 -0.6526524425 0.03193610907
-1.750309587 -0.6512823105 0.09567126632
-1.774361491 -0.6598793268 0.1619099826
-1.718131185 -0.6382849216 0.2199088484
-1.706628203 -0.6333333254 0.2816335857
-1.781424761 -0.6607372761 0.3610734642
-1.754472494 -0.6500435472 0.4220047593
-1.740182281 -0.6440582871 0.4855965972
-1.719217062 -0.6339119077 -0.4793849289
-1.755717158 -0.6466742158 -0.4220047593
-1.755398154 -0.6462088227 -0.3553491533
-1.769681573 -0.6507655978 -0.2919582427
-1.767043114 -0.64909482 -0.2260023206
-1.771499038 -0.6503812075 -0.1613870561
-1.785236597 -0.6547173262 -0.09745068848
-1.787546039 -0.6548569798 -0.03252948821
-1.782560945 -0.6562082171 0.09734601527
-1.778524041 -0.6543691754 0.1620842963
-1.770656109 -0.6507732272 0.2264897823
-1.745915413 -0.6409885287 0.2878909409
-1.789249539 -0.6565437317 0.3622182906
-1.76404953 -0.6465983987 0.4238043725
-1.753304362 -0.6419652104 0.4887024164
-1.75590229 -0.6404848695 -0.4892200232
-1.779935718 -0.648547411 -0.427403599
-1.794538021 -0.6535133123 -0.362981528
-1.779367805 -0.6472854018 -0.2932097316
-1.802881122 -0.6551264524 -0.230389595
-1.796231031 -0.6523551345 -0.1634787917
-1.800653696 -0.6532500386 -0.09818339348
-1.814261794 -0.6574698687 -0.03298325092
-1.786693811 -0.6513630748 0.03249458596
-1.799854279 -0.6554493308 0.09818339348
-1.810753107 -0.659060359 0.1648732871
-1.785976171 -0.6493364573 0.2281959504
-1.779706478 -0.6463537216 0.2932097316
-1.81367588 -0.6583319902 0.3667977154
-1.812096596 -0.657043457 0.435051918
-1.790045738 -0.6483412981 0.4985375404
-1.787202239 -0.6448422074 -0.4975022674
-1.789521813 -0.644973278 -0.4292031825
-1.82266736 -0.6565600634 -0.3683241904
-1.815073252 -0.6531088352 -0.2988413572
-1.823837876 -0.655543685 -0.2328270078
-1.820998073 -0.6541640759 -0.1655705273
-1.81796217 -0.652357161 -0.09902077168
-1.852311611 -0.6639534235 -0.033646442
-1.815292239 -0.6546193361 0.03298325092
-1.819042921 -0.6552544832 0.09912543744
-1.846785545 -0.6648837924 0.1680108905
-1.801307797 -0.647800684 0.2299021333
-1.817273974 -0.6528263092 0.299154222
-1.864004612 -0.6692462564 0.3767197728
-1.851065874 -0.6638714075 0.4440499544
-1.879594207 -0.6733625531 0.5233841538
-1.814914823 -0.6476901174 -0.5047491789
-1.817460537 -0.6478840113 -0.4355018139
-1.834194899 -0.6534882188 -0.3702322841
-1.847118378 -0.6573661566 -0.3038472533
-1.852301002 -0.6584821939 -0.2362393439
-1.858941197 -0.6604773402 -0.1688824445
-1.848461747 -0.6560274363 -0.1005908474
-1.886658907 -0.6688424349 -0.03423982486
-1.851468801 -0.6603709459 0.03361153975
-1.838251829 -0.6549335718 0.1000674888
-1.978604198 -0.7045493722 0.1800383776
-1.940090299 -0.6900721788 0.2476950586
-1.931224346 -0.6861593723 0.3179263771
-2.043936729 -0.7258040905 0.4133551419
-2.014995098 -0.7147344351 0.4836413562
-2.023965597 -0.7171216607 0.563759923
-1.864529252 -0.6580677629 -0.5182077885
-1.865657926 -0.6577339172 -0.4467493892
-1.912383676 -0.6738317609 -0.3858786225
-1.991015434 -0.7007566094 -0.3276253045
-2.010024548 -0.7066592574 -0.256469667
-2.009733915 -0.7061624527 -0.1826530397
-1.997735739 -0.7011628151 -0.1087552533
-2.038061619 -0.7145180106 -0.03699730709
-2.006513119 -0.7077864408 0.03643882647
-2.0138309 -0.7095769048 0.1096972972
-2.073135614 -0.7300668359 0.1885796487
-2.047353506 -0.7201837897 0.2613444328
-2.013746023 -0.7075721025 0.3313797414
-2.094618797 -0.7355778813 0.4232771695
-2.065288544 -0.724468112 0.4953388572
-2.062919855 -0.7228281498 0.5741126537
-1.961660147 -0.6846586466 -0.545124948
-1.998591185 -0.696765244 -0.4786924124
-2.000005007 -0.6968672872 -0.4034330547
-2.079267502 -0.7236706018 -0.342017293
-2.091229677 -0.7270157337 -0.2667066753
-2.08182168 -0.7233377695 -0.1891025752
-2.102061033 -0.7295478582 -0.1144075394
-2.116118431 -0.7335997224 -0.03839349747
-2.092049122 -0.7297574282 0.03797464073
-2.097395897 -0.7308014631 0.1141982004
-2.117065907 -0.7372403145 0.1924144924
-2.10047698 -0.7306420207 0.2679253519
-2.087109804 -0.7251752019 0.3432687521
-2.124992847 -0.7379227877 0.4290014803
-2.111991644 -0.7325814962 0.506136477
-2.083684444 -0.721947968 0.5792891383
-1.980473638 -0.6834790111 -0.5497837067
-1.993641734 -0.6872447133 -0.4768928289
-2.002425432 -0.6898816824 -0.4034330547
-2.115402222 -0.7279789448 -0.3476489186
-2.135055065 -0.7339080572 -0.2720689476
-2.12390399 -0.7296611667 -0.1927631199
-2.1348207 -0.7325779796 -0.1160822809
-2.164066553 -0.7417696714 -0.03923121467
-2.124830246 -0.7328822017 0.03853311762
-2.139588833 -0.7371376157 0.1163963005
-2.153535604 -0.7415216565 0.1955520958
-2.125540972 -0.7310531139 0.2708502412
-2.121387959 -0.7287967801 0.3485875428
-2.157265425 -0.7407009006 0.4351073205
-2.142185926 -0.7346881628 0.5128849745
-2.130053759 -0.7296959162 0.5917124152
-1.977362394 -0.6746895909 -0.5482307673
-1.973893642 -0.6727374792 -0.4714939892
-2.015972137 -0.6866852641 -0.4057227671
-2.157202482 -0.7339518666 -0.3542191386
-2.163917065 -0.7353937626 -0.2754812539
-2.169828653 -0.7369803786 -0.1967722923
-2.171409607 -0.7366715074 -0.1179663762
-2.215884209 -0.7508975863 -0.04013874009
-2.169014215 -0.7396604419 0.03930102289
-2.159164667 -0.7354599237 0.1173383594
-2.193832874 -0.7468419671 0.1990383416
-2.158150434 -0.7338536382 0.2747500539
-2.157586575 -0.7328223586 0.3542191386
-2.189583063 -0.743263185 0.4412132204
-2.176111937 -0.7378439307 0.5205333233
-2.171013117 -0.7352697849 0.6025828123
-1.987027645 -0.6702535152 -0.550301373
-1.983617067 -0.6683320403 -0.4732936025
-1.996029377 -0.672126174 -0.4011433423
-2.204687119 -0.7415305972 -0.3617280126
-2.204105377 -0.7404792905 -0.2803560197
-2.225273609 -0.7471580505 -0.2016530037
-2.215626955 -0.7430593371 -0.1202691719
-2.25451827 -0.7552263737 -0.04080192745
-2.228430271 -0.7512490153 0.04034816474
-2.199575186 -0.7406664491 0.1194317937
-2.239857912 -0.753795743 0.2030474991
-2.194568157 -0.737701416 0.2791373432
-2.190093994 -0.7353461385 0.3592250645
-2.240556717 -0.7518544793 0.4511353076
-2.206389904 -0.7395324707 0.5272818804
-2.21570015 -0.7417935133 0.6144884825
-1.983857036 -0.6614801288 -0.5487484336
-1.989635587 -0.6626353264 -0.4741933942
-1.994637728 -0.6639145613 -0.4003801048
-2.248500586 -0.7475410104 -0.3686111271
-2.255659342 -0.7490467429 -0.2866932452
-2.2694695 -0.7531924248 -0.2054878622
-2.282665253 -0.7566874027 -0.1238280237
-2.319786072 -0.7680947781 -0.04195378721
-2.274672985 -0.7580062151 0.04115097597
-2.243837833 -0.7468607426 0.121734567
-2.276504993 -0.7572926283 0.2061851174
-2.242341757 -0.7450588346 0.284987092
-2.217020035 -0.7357855439 0.3632923663
-2.28975296 -0.7594811916 0.4606757462
-2.247805119 -0.7446961999 0.5367298126
-2.251289129 -0.7449784875 0.6238059402
-1.965744972 -0.648586452 -0.5430544019
-1.988005996 -0.6551614404 -0.4732936025
-2.000442982 -0.6588736176 -0.4011433423
-2.286490679 -0.7522022724 -0.3745556474
-2.303262711 -0.7568290234 -0.292542994
-2.307922363 -0.7574670911 -0.2087997794
-2.334372997 -0.7656975985 -0.1265494823
-2.348792315 -0.7695186734 -0.04244245589
-2.307429075 -0.7608759999 0.04170945287
-2.291701317 -0.7548036575 0.1242467016
-2.307260275 -0.7594812512 0.2087997794
-2.284272909 -0.7510302663 0.2901056111
-2.269993305 -0.7454580665 0.3717398345
-2.323838711 -0.7626909018 0.4671632349
-2.300131321 -0.7540214658 0.5488771796
-2.282993555 -0.7475209236 0.6320881844
-1.973619342 -0.6431724429 -0.5446073413
-1.990280628 -0.6482184529 -0.4732936025
-2.002844572 -0.6515367031 -0.4011433423
-2.330563545 -0.7572460771 -0.3814387619
-2.351203442 -0.7634987831 -0.2983926833
-2.371198416 -0.7690768242 -0.214377746
-2.384665251 -0.7725242972 -0.1291662902
-2.414245367 -0.7816419601 -0.04359431565
-2.363306761 -0.7701656818 0.04268679023
-2.332305908 -0.7591625452 0.1263401359
-2.347923756 -0.7633404136 0.2122860104
-2.317087412 -0.7528675199 0.2940054238
-2.323312044 -0.7539940476 0.3801873028
-2.358367682 -0.7644604445 0.4736507833
-2.351083279 -0.7611925006 0.5605746508
-2.329701424 -0.7538207173 0.6445114613
-1.985046744 -0.6392405629 -0.5471955538
-1.981512427 -0.6373386383 -0.4705941975
-2.020059109 -0.6493484378 -0.4041962922
-2.39525938 -0.76903373 -0.3917634189
-2.391791821 -0.7669996023 -0.3032674789
-2.419404507 -0.7753887773 -0.2185612172
-2.421586275 -0.7751560807 -0.1310503632
-2.447432756 -0.7829586864 -0.04415279254
-2.417509556 -0.778039515 0.04362922162
-2.369165659 -0.7620244026 0.1282242388
-2.399893761 -0.7709836364 0.2168181092
-2.359524727 -0.7571069598 0.299123913
-2.359788418 -0.7567367554 0.3858189285
-2.400285482 -0.7687994838 0.481664747
-2.383423328 -0.762481451 0.5677731037
-2.382001162 -0.7615681887 0.6584877372
-1.989106774 -0.6328932047 -0.5477131605
-1.979900837 -0.6295831203 -0.4696944058
-1.988632679 -0.6315959692 -0.3973271549
-2.439218521 -0.7742341757 -0.3986465633
-2.443521023 -0.7746611238 -0.3096046746
-2.488576889 -0.7879891992 -0.2246621251
-2.486981869 -0.7870066762 -0.1345045567
-2.518792868 -0.7961062193 -0.04540936649
-2.475337505 -0.7876019478 0.0446414575
-2.411783695 -0.766453445 0.1304223388
-2.453843832 -0.7788764238 0.2215245068
-2.401758194 -0.7618831396 0.3042424321
-2.407610416 -0.7628141642 0.3933278024
-2.453356743 -0.7768369913 0.4919684231
-2.419383526 -0.7651506066 0.5758712888
-2.436224699 -0.7695415616 0.6729816198
-1.981980324 -0.6233953834 -0.545124948
-1.989522815 -0.6250047088 -0.4714939892
-1.99446249 -0.6261740327 -0.3980903924
-2.498452425 -0.7834462523 -0.4080326259
-2.510618448 -0.7862988114 -0.3178918064
-2.527441502 -0.7905996442 -0.2279740423
-2.53737092 -0.7932188511 -0.1371213496
-2.548280001 -0.7956529856 -0.04589803144
-2.529578924 -0.7951466441 0.04558388889
-2.458272219 -0.7717900872 0.1328298002
-2.500136375 -0.7844536304 0.2255336791
-2.468807697 -0.7736779451 0.3125295639
-2.44984746 -0.7667965889 0.3998980224
-2.514138699 -0.7864384651 0.5037985444
-2.479701757 -0.774715662 0.5898182392
-2.473935127 -0.7719662786 0.6828166842
-1.973182201 -0.6126896143 -0.5420191288
-1.999137282 -0.6203663349 -0.4732936025
-2.011746168 -0.6235089302 -0.4011433423
-2.548482895 -0.7888870239 -0.4158543348
-2.55696559 -0.7910238504 -0.323497802
-2.56254673 -0.7917705774 -0.2309373319
-2.610873699 -0.8057050109 -0.1409942061
-2.627477169 -0.810325861 -0.04729422554
-2.585811853 -0.8029162288 0.04656122625
-2.520087719 -0.7815440297 0.1360746324
-2.544864655 -0.7882543802 0.2293685228
-2.524590254 -0.7814909816 0.3193542361
-2.494028091 -0.7710772753 0.4067811668
-2.5563972 -0.7893818021 0.5118125677
-2.532803774 -0.7811281681 0.6019656062
-2.526461124 -0.778689146 0.6967929602
-1.980849862 -0.6074975133 -0.5435720682
-1.986491442 -0.6084685922 -0.4696944058
-2.010155916 -0.6153339148 -0.4003801048
-2.611671209 -0.7984677553 -0.4258661568
-2.633891106 -0.8042565584 -0.3330036104
-2.589777946 -0.7927634716 0.1397381425
-2.602852345 -0.7962689996 0.2344235629
-2.571101904 -0.7855744958 0.3249602318
-2.557297468 -0.780380249 0.416792959
-2.598572254 -0.7924804688 0.5198264718
-2.591440678 -0.7893162966 0.6154626608
-2.571807146 -0.7823554277 0.7086986303
-1.990353823 -0.6028190851 -0.5456426144
-1.986737728 -0.6009669304 -0.4692444801
-2.012291431 -0.6083133817 -0.4003801048
-2.642808199 -0.7979111671 -0.4305591881
-2.646185637 -0.7979224324 -0.3342222869
-2.661486864 -0.8020303845 -0.239478603
-2.654685497 -0.7989694476 -0.1430876404
-2.658103704 -0.7989872098 -0.04774798453
-2.648909807 -0.8017708063 0.0476083681
-2.630765438 -0.7952772975 0.1418315768
-2.66092658 -0.8038875461 0.239478603
-2.611837626 -0.7880632281 0.3298349977
-2.616746664 -0.7885479927 0.4261790216
-2.668997526 -0.8037855625 0.5335647464
-2.637101412 -0.793176055 0.6258104444
-2.633728027 -0.7911583781 0.7252629995
-1.985042691 -0.5936542153 -0.5435720682
-1.990690827 -0.5945859551 -0.4696944058
-2.006877661 -0.5990392566 -0.3988536596
-2.655042887 -0.7915029526 -0.4321235418
-2.660370111 -0.7920799851 -0.3356847465
-2.668089628 -0.7938714027 -0.2398272157
-2.659372568 -0.7902674079 -0.1431923211
-2.658959866 -0.7891342044 -0.04771308228
-2.667019844 -0.7971010804 0.04788760841
-2.66988802 -0.7969433069 0.1438203603
-2.724812508 -0.8128198981 0.2450565547
-2.675451279 -0.7970778346 0.3376346231
-2.668710232 -0.7940561175 0.4343136251
-2.732005596 -0.8123695254 0.545776546
-2.695897341 -0.800609231 0.6393074989
-2.703149557 -0.8017363548 0.7438979745
-1.979691625 -0.5845326781 -0.5415015221
-1.996492386 -0.5887358189 -0.4705941975
-2.008956432 -0.5920302272 -0.3988536596
-2.665369511 -0.784461081 -0.433375001
-2.649786711 -0.7788699269 -0.3339785635
-2.663197756 -0.7823070884 -0.2391299605
-2.664031506 -0.7815419436 -0.1432970017
-2.64058876 -0.77366364 -0.04732913151
-2.673621655 -0.788918376 0.04795741662
-2.730127573 -0.8045560122 0.1469605118
-2.769680262 -0.8156866431 0.2488914132
-2.741063118 -0.8062191606 0.3456780016
-2.732115269 -0.8025513887 0.4443254471
-2.787569761 -0.8183125257 0.5564618707
-2.754776716 -0.8076407909 0.6528045535
-2.752281666 -0.8058669567 0.7568389177
-1.970592141 -0.5743751526 -0.5383957028
-2.006019592 -0.5839422941 -0.4723938107
-2.011010885 -0.5850139856 -0.3988536596
-2.652916193 -0.7707434893 -0.4308720827
-2.66188693 -0.7728459835 -0.3351972401
-2.656344652 -0.7702316046 -0.2382584065
-2.666743517 -0.7722378373 -0.1432970017
-2.662348509 -0.7704616189 -0.04767817631
-2.655240297 -0.7734291553 0.04757346213
-2.797981262 -0.8144783378 0.1505193561
-2.810774088 -0.8171374202 0.2523776591
-2.801051855 -0.8132507801 0.3529901803
-2.787881374 -0.808899343 0.4530857801
-2.843208313 -0.8238766193 0.5671471357
-2.821081877 -0.8169313073 0.6681011915
-2.806901455 -0.8117631674 0.7713328004
-1.972486019 -0.5678372383 -0.5383957028
-1.996707797 -0.5740560293 -0.4696944058
-2.016713619 -0.579426229 -0.3996168673
-2.644064903 -0.7586734891 -0.4289948642
-2.672067881 -0.7662031651 -0.3361722231
-2.658884048 -0.7614191771 -0.2382584065
-2.661608458 -0.7611935139 -0.142878294
-2.668734312 -0.7627276778 -0.04774798453
-2.653947115 -0.7635139823 0.04750365391
-2.860171318 -0.8223029375 0.1537641883
-2.893898964 -0.8309054971 0.2596987188
-2.849529743 -0.8170895576 0.3588398993
-2.847517014 -0.8159745932 0.4624718428
-2.910099506 -0.8328089118 0.5801221728
-2.883731365 -0.8247184753 0.6824980974
-2.883881092 -0.8236724138 0.7920383811
-1.985507131 -0.564463079 -0.5415015221
-1.989227176 -0.5647702813 -0.4674448967
-2.014946222 -0.5713118911 -0.3988536596
-2.654168367 -0.7520552278 -0.4302463233
-2.663265705 -0.7536281943 -0.3347097635
-2.669195414 -0.7542998791 -0.2389556617
-2.658482313 -0.7502712607 -0.1425642818
-2.675229788 -0.7544929385 -0.04781780019
-2.656464338 -0.7547088861 0.04750365391
-2.920666933 -0.8286679387 0.1569043398
-2.956060171 -0.8381525278 0.2651023865
-2.913344145 -0.8249423504 0.3666395545
-2.922579527 -0.8264564276 0.4743608534
-2.99800992 -0.8466561437 0.5972949862
-2.952234268 -0.8331733346 0.6982446909
-2.957396269 -0.8335149288 0.8117086291
-1.987562656 -0.557182014 -0.5415015221
-1.993160605 -0.558000505 -0.4678947926
-2.009463787 -0.5618088841 -0.3973271549
-2.660712242 -0.7433845997 -0.4308720827
-2.654537678 -0.740660727 -0.3332473338
-2.671941996 -0.7445123196 -0.2389556617
-2.665063143 -0.741592586 -0.1427736282
-2.670270681 -0.7425402403 -0.04767817631
-2.66691494 -0.7471258044 0.04764327407
-2.99677372 -0.838406384 0.1608818769
-3.04162097 -0.8503809571 0.27259776
-3.040625334 -0.8489584923 0.3824825585
-3.04736805 -0.8496938348 0.4943844378
-3.091875315 -0.8609407544 0.6156126261
-3.064158201 -0.8526465893 0.7243390083
-3.100030184 -0.8614627719 0.8505314589
-1.978419542 -0.5468051434 -0.5383957028
-2.000827551 -0.5522472858 -0.4692444801
-2.007627487 -0.5537465811 -0.3965639174
-2.659609795 -0.7325790524 -0.4302463233
-2.657106876 -0.731390059 -0.3332473338
-2.666839838 -0.7330685258 -0.2382584065
-2.663783312 -0.7312284112 -0.1425642818
-2.661276102 -0.7300400734 -0.04746875167
-2.677345514 -0.7394754887 0.04778289422
-3.165255308 -0.8736403584 0.1698836535
-3.181091547 -0.8768164515 0.2849738896
-3.19491601 -0.8794263005 0.4017378986
-3.147451878 -0.8657714128 0.5103408098
-3.227380753 -0.8865450025 0.6423258781
-3.151680946 -0.8651599288 0.74458462
-3.250204563 -0.890984714 0.8914248347
-1.976494312 -0.5392249227 -0.5373603702
-2.008288622 -0.5471459031 -0.4705941975
-2.001875401 -0.5450234413 -0.3950374424
-2.658212185 -0.7227187753 -0.4296205938
-2.667180538 -0.7246565223 -0.3342222869
-2.661564589 -0.7221339345 -0.2375611663
-2.673904419 -0.7244800925 -0.1429829746
-2.669472456 -0.7227792144 -0.04757346213
-2.66820693 -0.7274369001 0.04757346213
-3.316515923 -0.9035644531 0.1779433936
-3.328169584 -0.9054917097 0.2980472445
-3.308922291 -0.8990138173 0.4158747792
-3.283750772 -0.8915604353 0.5322416425
-3.321255445 -0.9004977345 0.6606435776
-3.295601368 -0.8929255605 0.7783272266
-3.33332777 -0.9018977284 0.9136833549
-1.982002497 -0.5336722136 -0.5383957028
-1.998800874 -0.5374470949 -0.4678947926
-2.015142202 -0.5410869122 -0.3973271549
-2.649146795 -0.7108281851 -0.4277433455
-2.669693708 -0.7153425217 -0.3342222869
-2.667918205 -0.713868916 -0.2379097939
-2.668698788 -0.7130795717 -0.1425642818
-2.671979427 -0.7134559155 -0.04757346213
-2.666742802 -0.7175455689 0.04750365391
-3.412234306 -0.9168592691 0.1829676479
-3.425441504 -0.9197670817 0.3065885305
-3.373240471 -0.9044884443 0.4236744046
-3.37843442 -0.9046173096 0.5472593307
-3.402139664 -0.9096921086 0.676289916
-3.415425062 -0.9126057625 0.8062211871
-3.433516026 -0.9161549211 0.9406004548
-1.987679601 -0.52739501 -0.5394309759
-1.995105982 -0.5286201239 -0.466545105
-2.026601553 -0.5362082124 -0.3992352486
-2.659373522 -0.7031335235 -0.4289948642
-2.664619923 -0.703525722 -0.3332473338
-2.664737225 -0.7025617957 -0.2373868525
-2.659706116 -0.7002418637 -0.1419362575
-2.682311773 -0.7056936026 -0.04771308228
-2.66162324 -0.7057166696 0.04736403748
-3.459978104 -0.9161042571 0.1853750944
-3.494277239 -0.9245331287 0.3125151098
-3.437948704 -0.9083454609 0.4314740598
-3.456218004 -0.9118820429 0.559461236
-3.487085342 -0.9187242389 0.692699492
-3.469629288 -0.9134767652 0.8183684945
-3.453665972 -0.9079859257 0.9452592731
-1.974646807 -0.5161980391 -0.5352898836
-1.998915434 -0.5217962861 -0.466994971
-2.015162945 -0.5256624818 -0.3965639174
-2.665755749 -0.6943775415 -0.4296205938
-2.659496307 -0.6917557716 -0.3322723806
-2.68067193 -0.6967643499 -0.238607049
-2.6698668 -0.6929610968 -0.1423549354
-2.675080538 -0.6938160658 -0.04753855988
-2.67193079 -0.6979781389 0.04750365391
-3.490210056 -0.9110834002 0.1868405193
-3.532345772 -0.9207656384 0.3156527281
-3.498886824 -0.9107399583 0.4387862086
-3.501438856 -0.9107517004 0.5663443804
-3.509273529 -0.9114809632 0.6965156198
-3.4786129 -0.9022223353 0.8197182417
-3.469905138 -0.8993166089 0.948882699
-1.965212226 -0.5064091086 -0.5321840048
-2.002521992 -0.5156506896 -0.4674448967
-2.016985893 -0.5186244845 -0.3965639174
-2.668043613 -0.6855336428 -0.4296205938
-2.661775589 -0.6829327345 -0.3322723806
-2.673437119 -0.6849309206 -0.237735495
-2.670215607 -0.6836082935 -0.1422502697
-2.663924694 -0.681006372 -0.04729422554
-2.674230814 -0.6891137958 0.04750365391
-3.55139637 -0.9138268232 0.1899806708
-3.562554121 -0.9153712988 0.3180930614
-3.521115065 -0.9040696025 0.4412235916
-3.508423567 -0.8995049 0.5669701099
-3.542705536 -0.9076362848 0.7026215196
-3.493612289 -0.8924592733 0.9545767307
-1.965008497 -0.4994140267 -0.531666398
-2.006198645 -0.5091372132 -0.4678947926
-2.041530609 -0.5177246332 -0.4011433423
-2.666590691 -0.6752470136 -0.4289948642
-2.667992115 -0.6746103764 -0.3327598572
-2.662172079 -0.672645092 -0.2365152985
-2.672585487 -0.6742832661 -0.1422502697
-2.671985149 -0.6736364961 -0.04739893973
-2.67468214 -0.6792824864 0.04746875167
-3.571830273 -0.9064664245 0.1909227073
-3.569432735 -0.9045310616 0.318441689
-3.541569233 -0.8961547613 0.4434172213
-3.515217304 -0.8888339996 0.5675958395
-3.542045593 -0.8943023086 0.7018583417
-3.530024052 -0.889957428 0.8305159211
-3.496552706 -0.8808689713 0.9545767307
-1.974235773 -0.494428575 -0.5337369442
-2.011656761 -0.5034277439 -0.4687945843
-2.096656799 -0.5239213109 -0.4118286371
-2.657315731 -0.6635290384 -0.4271176159
-2.677919149 -0.6676801443 -0.3337348402
-2.67030406 -0.6647921801 -0.2370382249
-2.678683043 -0.6663811207 -0.1424596161
-2.678201914 -0.6652688384 -0.04746875167
-2.665281057 -0.667494297 0.04725931957
-3.588536024 -0.897384584 0.1916554272
-3.566769123 -0.8906186819 0.3179187477
-3.536817789 -0.8824840188 0.4424422681
-3.52213192 -0.8775140047 0.5682215691
-3.533560753 -0.8797064424 0.6995685697
-3.532956362 -0.8782455921 0.8305159211
-3.503355742 -0.8695890307 0.9556120038
-1.98336637 -0.4897317886 -0.5358074307
-2.005833387 -0.4945366383 -0.466994971
-2.147945404 -0.5291760564 -0.4217506945
-2.671125174 -0.6570804119 -0.4289948642
-2.664811134 -0.6545408368 -0.331784904
-2.676363707 -0.6568831801 -0.2373868525
-2.665474176 -0.653223455 -0.1416222453
-2.690104961 -0.6587626934 -0.04764327407
-2.669536114 -0.6586661935 0.04729422554
-3.572100401 -0.8806984425 0.1906087101
-3.573572159 -0.8797383308 0.318267405
-3.530237913 -0.8677626848 0.4412235916
-3.532696009 -0.8677139878 0.5694730282
-3.544237137 -0.8692362309 0.7010950446
-3.528428793 -0.8640545607 0.8287162781
-3.50059104 -0.8565890789 0.9540590644
-1.994449615 -0.4850883484 -0.5383957028
-2.016930342 -0.4901832938 -0.4692444801
-2.252804995 -0.5466762185 -0.4423580766
-2.669449806 -0.6472879052 -0.4283691347
-2.663108349 -0.6447654366 -0.3312974572
-2.678640366 -0.6475362182 -0.2373868525
-2.671508312 -0.645318687 -0.1418315768
-2.684612036 -0.6474923491 -0.04750365391
-2.683363914 -0.6526455283 0.04750365391
-3.571270704 -0.8672812581 0.1903993487
-3.584366322 -0.8691367507 0.3189646304
-3.531166792 -0.8555845022 0.4409798384
-3.531863689 -0.8544482589 0.5688472986
-3.545192003 -0.8570169806 0.7007134557
-3.512331247 -0.8477765918 0.8242172599
-3.507315636 -0.84526968 0.9550943375
-1.999804258 -0.4793728888 -0.5394309759
-2.056533575 -0.4922119379 -0.4782425463
-2.493281841 -0.5962834358 -0.4900603294
-2.67937851 -0.6398009062 -0.4296205938
-2.669204712 -0.6363868713 -0.331784904
-2.673131704 -0.6363365054 -0.2366896123
-2.683459759 -0.6383008957 -0.1423549354
-2.679073811 -0.6362689734 -0.04736403748
-2.681736469 -0.6423431635 0.0474338457
-3.578161716 -0.8557389975 0.1906087101
-3.575601816 -0.8544671535 0.3179187477
-3.539924622 -0.8446344137 0.4417110682
-3.519451857 -0.8384521008 0.5663443804
-3.540522337 -0.8428179622 0.6991869807
-3.448911905 -0.8197391629 0.8084706664
-3.30536294 -0.7844015956 0.8986718059
-1.982745528 -0.4676051736 -0.5342546105
-2.096174955 -0.4939704239 -0.4872405827
-2.48780632 -0.5853425264 -0.4885338843
-2.666321039 -0.6263621449 -0.4271176159
-2.679139853 -0.6288801432 -0.3327598572
-2.671457052 -0.6260929704 -0.2363409996
-2.674113035 -0.6257302165 -0.1417269111
-2.683225393 -0.627369225 -0.04739893973
-2.678123474 -0.6316011548 0.04732913151
-3.585015059 -0.8441591263 0.1908180416
-3.570951462 -0.839533031 0.3172215223
-3.535121441 -0.830457449 0.440736115
-3.453122616 -0.8099220991 0.5550810695
-3.340964317 -0.7823862433 0.6587354541
-3.298190832 -0.7711552978 0.772028625
-3.266694784 -0.7631899118 0.887283802
-2.003183365 -0.4650503397 -0.5394309759
-2.132142782 -0.4942041934 -0.4953388572
-2.290920734 -0.5305862427 -0.4488455653
-2.662717581 -0.6157159209 -0.4261790216
-2.681427002 -0.6190564036 -0.3327598572
-2.671684742 -0.6163160801 -0.2361666709
-2.680173397 -0.6172890663 -0.1419362575
-2.691245079 -0.6193445325 -0.04750365391
-2.672628403 -0.6199735403 0.04718951136
-3.587939739 -0.8316398263 0.1908180416
-3.515627861 -0.8135858774 0.3119921684
-3.2886374 -0.7598474026 0.4092938006
-3.282701254 -0.7578715086 0.5269228816
-3.28436923 -0.7570492029 0.646905303
-3.276174307 -0.7539560795 0.7661799192
-3.242980957 -0.7457204461 0.8800368309
-2.03116107 -0.464079231 -0.5466778874
-2.156568289 -0.4923357069 -0.5007376671
-2.332956553 -0.5317477584 -0.4568595588
-2.670522928 -0.6081985235 -0.4271176159
-2.683465004 -0.6101609468 -0.3327598572
-2.681591749 -0.6087506413 -0.2368639261
-2.676362514 -0.607072413 -0.1416222453
-2.69534111 -0.6103881598 -0.04753855988
-2.676618814 -0.6115533113 0.0472244136
-3.35131073 -0.7644760013 0.1779433936
-3.324181795 -0.7570661902 0.2945610285
-3.25436306 -0.740567863 0.4046627879
-3.252579927 -0.7389681339 0.5216041207
-3.260058165 -0.7400688529 0.6415626407
-3.233043432 -0.7327497005 0.7553822398
-3.228606224 -0.7305592895 0.8753781319
-2.087346077 -0.4696385264 -0.5616893768
-2.196300745 -0.4933472574 -0.5097357035
-2.401752949 -0.5390569568 -0.4702161849
-2.674557447 -0.5993048549 -0.4274305105
-2.6700809 -0.59732306 -0.3308099508
-2.683595657 -0.5998547077 -0.2368639261
-2.678465366 -0.5977264047 -0.1416222453
-2.687696218 -0.5988016129 -0.04736403748
-2.67873764 -0.6022057533 0.0472244136
-3.283802509 -0.7370269299 0.1741752028
-3.276127338 -0.7347028852 0.2900289297
-3.229808092 -0.7231322527 0.401250422
-3.212728024 -0.7181298137 0.5147209764
-3.254957438 -0.7269727588 0.6400361657
-3.239385605 -0.7223079205 0.7562820315
-3.268850803 -0.7276803255 0.8857308626
-2.115379572 -0.4681940377 -0.5689362884
-2.317888498 -0.5121663809 -0.5380795002
-2.42470789 -0.53532511 -0.474413991
-2.676632881 -0.5899658203 -0.4274305105
-2.672149658 -0.5879990458 -0.3308099508
-2.681781054 -0.5896283984 -0.2365152985
-2.684436798 -0.5892294645 -0.1418315768
-2.68195653 -0.5877038836 -0.0472244136
-2.6925385 -0.5954428315 0.0474338457
-3.257101297 -0.7191002369 0.1726051271
-3.255324841 -0.7181122303 0.2879371941
-3.214864969 -0.7080103159 0.3990567923
-3.215214968 -0.7069116235 0.5147209764
-3.303495884 -0.7257162333 0.6491950154
-3.283764124 -0.7201809883 0.7661799192
-3.273257732 -0.7166785598 0.8862484694
-2.13021493 -0.4636827707 -0.5725598335
-2.510091782 -0.5454534292 -0.5830697417
-2.47452569 -0.5372719169 -0.4839544296
-2.672884226 -0.5793635845 -0.4264918864
-2.681946754 -0.580347836 -0.331784904
-2.672239542 -0.577270329 -0.2354694307
-2.690381765 -0.5806987882 -0.1420409232
-2.685946703 -0.5787596703 -0.04725931957
-2.67896843 -0.5826406479 0.04715460539
-3.238121748 -0.7030647993 0.1714537293
-3.255864143 -0.7063229084 0.2877628803
-3.259999514 -0.7060278654 0.4044190347
-3.285239935 -0.7102938294 0.5256714225
-3.307927847 -0.7145949006 0.6495766044
-3.291973114 -0.7099456787 0.7675296068
-3.296513796 -0.7097216845 0.8919425011
-2.175350189 -0.4651636779 -0.5844655037
-2.662533283 -0.5688533783 -0.6186119914
-2.487998486 -0.5306564569 -0.4862441719
-2.673057556 -0.5691516399 -0.4261790216
-2.682014465 -0.5705695152 -0.3315411508
-2.683983088 -0.5700090528 -0.2363409996
-2.682723045 -0.5687622428 -0.1415175647
-2.701644421 -0.5722817779 -0.04750365391
-2.673163891 -0.571613133 0.04701498896
-3.271808147 -0.6984294057 0.1731284857
-3.289609432 -0.7010281086 0.2905518711
-3.281859636 -0.6987787485 0.4068564177
-3.299292564 -0.7012860179 0.5275486112
-3.318206787 -0.7040967345 0.6511031389
-3.302178621 -0.6994912624 0.7693291903
-3.283851147 -0.6950094104 0.8878014088
-2.250691652 -0.4730651379 -0.6046533585
-2.655064344 -0.5570905805 -0.6163624525
-2.578224421 -0.5404974818 -0.5037985444
-2.671161413 -0.5590081215 -0.425553292
-2.684087753 -0.5607355237 -0.3315411508
-2.685956478 -0.5606366992 -0.2363409996
-2.682736874 -0.5589875579 -0.1414128989
-2.705583096 -0.5632552505 -0.04753855988
-2.683069229 -0.5634555221 0.04715460539
-3.305501223 -0.6935664415 0.1748032421
-3.303737164 -0.6919924617 0.291597724
-3.276626825 -0.6851194501 0.4058814943
-3.280450106 -0.6853221655 0.524107039
-3.322566271 -0.6929095984 0.6514847279
-3.289337397 -0.6847827435 0.7657299638
-3.291931629 -0.6847226024 0.8893542886
-2.373412132 -0.4902142286 -0.6377821565
-2.664531231 -0.5498583317 -0.6181620955
-2.676239014 -0.5513005257 -0.5228794217
-2.669130564 -0.5493506193 -0.4249275625
-2.680098772 -0.5506330132 -0.3308099508
-2.695703983 -0.5528579354 -0.2370382249
-2.682619095 -0.5496871471 -0.1413082182
-2.695778131 -0.5514024496 -0.04732913151
-2.686881304 -0.5549594164 0.04718951136
-3.296165228 -0.6796039343 0.1741752028
-3.327598572 -0.6848740578 0.2935151458
-3.276936054 -0.6738507748 0.4056377411
-3.280887365 -0.6734698415 0.5237941742
-3.3190763 -0.6807043552 0.6503398418
-3.280135393 -0.6715258956 0.7630305886
-3.296194315 -0.6736149192 0.8898719549
-2.043714046 -0.4150559604 -0.5471955538
-2.67025423 -0.541328311 -0.6190618873
-2.66073513 -0.5389150977 -0.5194448829
-2.682649374 -0.542378962 -0.426804781
-2.680058956 -0.5408816338 -0.3305662274
-2.687757015 -0.5419470668 -0.2361666709
-2.690395594 -0.5415019393 -0.1416222453
-2.68984437 -0.5404141545 -0.04718951136
-2.696640968 -0.5471675396 0.04732913151
-3.304390192 -0.66928339 0.1744892299
-3.310323238 -0.669883728 0.2917720377
-3.277322769 -0.6620149016 0.4053940177
-3.263854265 -0.6581086516 0.5206654668
-3.321431875 -0.6691151857 0.6503398418
-3.286280632 -0.6608403325 0.7639303803
-3.277690649 -0.6579227448 0.8841779232
-2.024310589 -0.4037623107 -0.5415015221
-2.683594704 -0.5342877507 -0.621761322
-2.610610485 -0.519282639 -0.5091412067
-2.676775694 -0.5314732194 -0.425553292
-2.685825109 -0.532294929 -0.331053704
-2.679860115 -0.5306267142 -0.2352951169
-2.686391115 -0.5309455395 -0.1413082182
-2.693676233 -0.5314084888 -0.0472244136
-2.682845354 -0.5346246362 0.0470498912
-3.296911955 -0.6557964683 0.1739658713
-3.300916433 -0.6559942365 0.2907261848
-3.279613733 -0.6505708694 0.4053940177
-3.270007133 -0.6474789977 0.5212911963
-3.308340073 -0.6544691324 0.6472869515
-3.292390823 -0.6501199007 0.7648301721
-3.270490408 -0.6446094513 0.8815897703
-2.021916151 -0.395951122 -0.540466249
-2.654842854 -0.5189348459 -0.6145628691
-2.570016623 -0.5018883944 -0.5007455945
-2.666981459 -0.5198580027 -0.4236761034
-2.695460796 -0.5244333744 -0.3320286274
-2.685607433 -0.5220292807 -0.2356437296
-2.690188885 -0.5219460726 -0.1414128989
-2.701404333 -0.5231431127 -0.04732913151
-2.672920227 -0.5229533911 0.04684046283
-3.307021856 -0.6458152533 0.1743845493
-3.297319651 -0.6433240175 0.2902032435
-3.27017355 -0.636842072 0.4039315581
-3.266430378 -0.6349297762 0.5203526616
-3.29518652 -0.6399226189 0.6442340016
-3.363512993 -0.6519733667 0.7810266614
-3.519289017 -0.6808932424 0.948882699
-2.017594337 -0.3877973855 -0.5389133096
-2.572428942 -0.4935093224 -0.5947671533
-2.648878813 -0.5076972246 -0.516010344
-2.674600363 -0.5116587281 -0.4246146679
-2.6855762 -0.5127868056 -0.3305662274
-2.685456276 -0.5122781396 -0.2354694307
-2.678260326 -0.5099366903 -0.140680179
-2.709107637 -0.5148307681 -0.0474338457
-2.682584763 -0.5151283145 0.04698008299
-3.293563604 -0.6312606931 0.1735471785
-3.299545288 -0.6318094134 0.2902032435
-3.256778002 -0.6224426031 0.4019816518
-3.272507191 -0.6242641211 0.5209783912
-3.591669083 -0.68319875 0.8341151476
-3.728520632 -0.7078819275 1.00530529
-2.005646944 -0.3782461286 -0.5352898836
-2.547324657 -0.4794807136 -0.5884685516
-2.685364962 -0.5049786568 -0.5228794217
-2.678311586 -0.502684474 -0.4249275625
-2.679544926 -0.5019471645 -0.3295912445
-2.689186335 -0.5032681227 -0.2356437296
-2.68591404 -0.5016847849 -0.1409942061
-2.699093342 -0.5031715631 -0.0472244136
-2.692227364 -0.5072414875 0.04711970314
-3.287895441 -0.6182836294 0.1731284857
-3.317395687 -0.6232308745 0.291597724
-3.284295082 -0.6158263683 0.4051502645
-3.734841585 -0.698957324 0.5951282978
-3.832202673 -0.7164848447 0.7495605946
-3.582537889 -0.6685132384 0.8314157128
-3.749961138 -0.698399663 1.010481596
-2.003155947 -0.370539993 -0.5342546105
-2.556648016 -0.4720010459 -0.5902681351
-2.671665668 -0.4927524924 -0.5198264718
-2.691706657 -0.4954779744 -0.426804781
-2.673471212 -0.4911565781 -0.3286163211
-2.694846392 -0.4945973456 -0.235992372
-2.687648773 -0.4923066795 -0.1409942061
-2.677228212 -0.4894314706 -0.04680555686
-2.693981409 -0.4978413284 0.04711970314
-3.313603401 -0.6111491919 0.1743845493
-3.823117971 -0.704433322 0.3363957703
-3.872131348 -0.7120659947 0.4782718718
-3.764459372 -0.6909082532 0.5995084643
-3.850128889 -0.7059360743 0.7526135445
-3.584849596 -0.6560037136 0.8314157128
-3.75617671 -0.6860005856 1.011516929
-1.981627107 -0.3594082892 -0.5280429125
-2.565950394 -0.4644621313 -0.5920677185
-2.677233219 -0.4841228724 -0.5205897689
-2.683699846 -0.4843249023 -0.4252404273
-2.686891317 -0.4839325845 -0.3300787508
-2.682830095 -0.482717067 -0.2347721756
-2.701145887 -0.4850399792 -0.1416222453
-2.696551323 -0.4837284684 -0.04711970314
-2.687831879 -0.4870083928 0.04698008299
-3.749948263 -0.6787772775 0.1975170523
-3.802026033 -0.6868334413 0.3343040347
-3.837475061 -0.6918541789 0.4736408293
-3.766729832 -0.6784209013 0.5995084643
-3.835178614 -0.6893671155 0.749178946
-3.594790459 -0.6448616385 0.8332153559
-3.743218899 -0.6708136201 1.007375836
-1.980967641 -0.352150768 -0.5275253057
-2.550208092 -0.4528838396 -0.5880186558
-2.680840015 -0.4751171768 -0.5209713578
-2.667784929 -0.4723232687 -0.4224245846
-2.688481331 -0.475019753 -0.3300787508
-2.686460733 -0.4736958444 -0.2349465042
-2.687003613 -0.4733080268 -0.1407848597
-2.70019269 -0.4746589363 -0.04715460539
-2.68155694 -0.4766924679 0.04684046283
-3.439612865 -0.6102113724 0.1808742136
-3.773010254 -0.668000102 0.3315150738
-3.857340574 -0.6822362542 0.4758344889
-3.767129898 -0.6649250388 0.5991955996
-3.814242363 -0.6725543141 0.7445995212
-3.600747347 -0.6336135268 0.8341151476
-3.732217789 -0.6554051042 1.003752351
-1.972608805 -0.3439205885 -0.5249370933
-2.657367468 -0.462351948 -0.612763226
-2.690138102 -0.4675692618 -0.5224978328
-2.675256252 -0.4640207887 -0.4233632088
-2.682298899 -0.4642779231 -0.3291037679
-2.691943407 -0.465462774 -0.2352951169
-2.682734728 -0.4629068673 -0.1404708475
-2.711686373 -0.4669278264 -0.04732913151
-2.691084623 -0.4687015712 0.04698008299
-3.307914495 -0.5749441385 0.1737565249
-3.785019875 -0.6571886539 0.3323866129
-3.814712048 -0.6609725356 0.4702284932
-3.785000324 -0.6544627547 0.6016985774
-3.814632416 -0.658901751 0.7442178726
-3.59141469 -0.6190536022 0.8314157128
-3.747810364 -0.6446655989 1.007375836
-1.983318806 -0.3386585712 -0.5275253057
-2.676254988 -0.4560185373 -0.616812408
-2.684011698 -0.4568582177 -0.5209713578
-2.692439556 -0.4573257864 -0.4258661568
-2.679988861 -0.454249233 -0.3286163211
-2.699445248 -0.4570617676 -0.2358180583
-2.690242529 -0.454537034 -0.1407848597
-2.71132803 -0.4571269453 -0.04729422554
-2.694675684 -0.4596419036 0.04701498896
-3.237050295 -0.5509935021 0.1698836535
-3.801039934 -0.6463112235 0.3336067796
-3.85418129 -0.6539620757 0.4748595357
-3.771680355 -0.6386092901 0.5991955996
-3.830459356 -0.6478739381 0.7468892336
-3.585867405 -0.60521698 0.8296161294
-3.748132706 -0.6312574744 1.00685811
-1.976866961 -0.3304597437 -0.5254547
-2.675908089 -0.4463531375 -0.6163624525
-2.675907373 -0.4458736777 -0.5190632939
-2.697916746 -0.4485725462 -0.4264918864
-2.681558371 -0.4448908865 -0.3286163211
-2.702989817 -0.4479618669 -0.235992372
-2.687871695 -0.4444924295 -0.1405755281
-2.683311939 -0.4427762032 -0.04677065089
-2.69626379 -0.4502328634 0.04701498896
-3.286236286 -0.5475698709 0.1723957807
-3.795411825 -0.6317296028 0.3329095542
-3.84664917 -0.6388790607 0.4736408293
-3.76804018 -0.62447083 0.5982570052
-3.840445042 -0.6357826591 0.7484157085
-3.591803551 -0.5933313966 0.8305159211
-3.763656378 -0.6203703284 1.010481596
-1.958943486 -0.320438534 -0.5202783346
-2.687066317 -0.4385798872 -0.6186119914
-2.685198307 -0.4377938807 -0.5205897689
-2.68386817 -0.4366154075 -0.4239889383
-2.687013626 -0.4361638129 -0.3291037679
-2.684869528 -0.4353355467 -0.2342492491
-2.70517993 -0.4376590848 -0.1414128989
-2.71050477 -0.4375497997 -0.0472244136
-2.695845366 -0.4404951632 0.04698008299
-3.327552319 -0.5425230861 0.1744892299
-3.793660641 -0.6178367138 0.3325609267
-3.848855734 -0.6254477501 0.4736408293
-3.776046515 -0.6122633219 0.5991955996
-3.809695005 -0.617035985 0.7419282198
-3.593852997 -0.5807899237 0.8305159211
-3.754355907 -0.6053836346 1.007375836
-1.963865161 -0.3142084479 -0.5213136077
-2.677034855 -0.4273543656 -0.6159126163
-2.686710119 -0.4284174442 -0.5205897689
-2.681474447 -0.4266234636 -0.4233632088
-2.688519955 -0.4267816544 -0.3291037679
-2.690308809 -0.4265849292 -0.2345978767
-2.692881823 -0.4260287881 -0.140680179
-2.700164557 -0.4262149334 -0.04701498896
-2.685518742 -0.4291893542 0.04677065089
-3.321536541 -0.5296455622 0.1740705371
-3.803664684 -0.6058449745 0.3332581818
-3.847094774 -0.611384809 0.4731533825
-3.785964727 -0.6003160477 0.6004470587
-3.82346034 -0.6055765748 0.7442178726
-3.607407331 -0.5700672865 0.8332153559
-3.760262728 -0.5928764343 1.00841105
-1.964949965 -0.3073517978 -0.5213136077
-2.668883085 -0.4165046513 -0.6136630774
-2.690129042 -0.4193393588 -0.5209713578
-2.682947159 -0.4172600508 -0.4233632088
-2.686069965 -0.4167861938 -0.3286163211
-2.697688103 -0.4181061387 -0.235120818
-2.678562164 -0.414185226 -0.1398428231
-2.713493586 -0.4186162055 -0.0472244136
-2.692927599 -0.4207384884 0.04687536508
-3.3016572 -0.5146648884 0.1729191393
-3.809693575 -0.5931769609 0.3336067796
-3.825666428 -0.5942953825 0.4702284932
-3.7880373 -0.5870959163 0.6004470587
-3.829430819 -0.5928270221 0.7449811101
-3.597819805 -0.5556859374 0.8305159211
-3.76421833 -0.5800420642 1.008928776
-1.958372355 -0.2993234098 -0.5192430615
-2.68187952 -0.4089484513 -0.6163624525
-2.691576242 -0.4099464417 -0.5209713578
-2.696105242 -0.4096727371 -0.4252404273
-2.681620121 -0.4065148532 -0.3278850913
-2.705040693 -0.4095816314 -0.2356437296
-2.687891245 -0.4060252905 -0.1402615011
-2.710983515 -0.408546418 -0.04715460539
-2.70031023 -0.4122411013 0.04698008299
-3.275790691 -0.4989264905 0.1714537293
-3.823559046 -0.5816727877 0.3346526623
-3.794353008 -0.5758747458 0.4660849273
-3.786157131 -0.5732780695 0.5998213291
-3.831476927 -0.5794570446 0.7449811101
-3.59202981 -0.5419607759 0.8287162781
-3.768130541 -0.5671854615 1.009446383
-1.949851751 -0.2910594642 -0.5166548491
-2.687145472 -0.4001584351 -0.6172622442
-2.679397821 -0.3985267282 -0.5183000565
-2.701426506 -0.4008394778 -0.4258661568
-2.702659845 -0.4000577629 -0.3303224742
-2.694628239 -0.3983889818 -0.2345978767
-2.693243742 -0.3972230554 -0.1404708475
-2.698544264 -0.3970431089 -0.04691027477
-2.705688238 -0.4034031034 0.0470498912
-3.297267675 -0.4904270768 0.1725004464
-3.807829618 -0.5656865835 0.333083868
-3.827758789 -0.5672827363 0.4699847698
-3.784227133 -0.5594813824 0.5991955996
-3.841245174 -0.5672262907 0.7465076447
-3.597755671 -0.5299877524 0.8296161294
-3.764353514 -0.553186059 1.007893443
-1.935562611 -0.2820235193 -0.5125137568
-2.684669018 -0.3902154267 -0.6163624525
-2.678829432 -0.3888899386 -0.5179184079
-2.691079378 -0.3897085488 -0.4239889383
-2.69421649 -0.3892028034 -0.3291037679
-2.696002722 -0.3889805079 -0.2345978767
-2.702521563 -0.3889581561 -0.1408895403
-2.707763433 -0.3892302215 -0.0470498912
-2.699164629 -0.392803371 0.04691027477
-3.336429358 -0.4849484861 0.1744892299
-3.792035103 -0.5498191118 0.3315150738
-3.821856737 -0.5527819991 0.4690097868
-3.784106255 -0.5466468334 0.5988827348
-3.843201876 -0.5538133383 0.7465076447
-3.603441715 -0.5179803967 0.8305159211
-3.764255285 -0.5404253602 1.007375836
-1.940360427 -0.2758086324 -0.5135490298
-2.670513153 -0.379119277 -0.612763226
-2.689890146 -0.3809123635 -0.5198264718
-2.680621624 -0.3791226447 -0.4221117496
-2.695492268 -0.3802662194 -0.3291037679
-2.69339776 -0.3790119588 -0.2342492491
-2.691929579 -0.3783262372 -0.1402615011
-2.724948168 -0.3819968402 -0.04732913151
-2.684614182 -0.3815990686 0.04663103446
-3.349966526 -0.4749822617 0.1751172543
-3.788012743 -0.5357419252 0.3309921324
-3.823668957 -0.5401042104 0.4690097868
-3.789903402 -0.5339854956 0.5995084643
-3.823632002 -0.5380572677 0.7423098087
-3.612858534 -0.5071114898 0.8323155046
-3.779510736 -0.5291581154 1.010999322
-1.947004914 -0.2701695859 -0.5151019692
-2.664098978 -0.3687269986 -0.6109636426
-2.696972609 -0.3727972507 -0.5209713578
-2.685842276 -0.3703027368 -0.4227374792
-2.696803331 -0.370854795 -0.3291037679
-2.702535391 -0.371162504 -0.2349465042
-2.685318708 -0.3678430319 -0.1398428231
-2.732143879 -0.3737715185 -0.0474338457
-2.695833683 -0.3735981286 0.04680555686
-3.307998419 -0.4578464925 0.1728144735
-3.823320866 -0.5278092623 0.3339554071
-3.910091877 -0.538397193 0.4794905484
-3.793610573 -0.5216838121 0.5998213291
-3.844937325 -0.5273747444 0.7461259961
-3.606884003 -0.4934405088 0.8305159211
-3.781244755 -0.5166217685 1.010999322
-1.953679442 -0.2641476691 -0.5166548491
-2.673031807 -0.360932827 -0.612763226
-2.692420483 -0.3625940084 -0.5198264718
-2.690971136 -0.361920625 -0.4233632088
-2.690148592 -0.3608540893 -0.3281288445
-2.705789328 -0.3619914055 -0.235120818
-2.702361107 -0.3610520065 -0.140680179
-2.713610172 -0.3615909517 -0.04708479717
-2.704984188 -0.3657279611 0.04694517702
-3.311555624 -0.4465634823 0.1729191393
-3.833038568 -0.5155223608 0.3346526623
-4.039738655 -0.5426055789 0.495333612
-3.787576914 -0.5073892474 0.59856987
-3.825259924 -0.5117586851 0.7419282198
-3.600773811 -0.480445832 0.8287162781
-3.758130789 -0.5001067519 1.004269958
-1.941137791 -0.255900532 -0.5130314231
-2.678139687 -0.3521086574 -0.6136630774
-2.68582201 -0.3526418507 -0.5183000565
-2.7000525 -0.3535516262 -0.4246146679
-2.687454939 -0.3509472907 -0.3276413381
-2.69512105 -0.3514707088 -0.2340749502
-2.69964385 -0.3511015773 -0.1404708475
-2.704940319 -0.3508303463 -0.04691027477
-2.710209846 -0.3568055928 0.04701498896
-3.301212788 -0.4334411323 0.1722911149
-3.811021328 -0.4997002482 0.3325609267
-3.933349609 -0.5143435001 0.4819279611
-3.779531002 -0.4928886294 0.5970055461
-3.832863331 -0.4991624951 0.7430730462
-3.602428913 -0.467874676 0.8287162781
-3.767516851 -0.4879778028 1.006340504
-1.934354544 -0.2481393963 -0.5109608173
-2.679352522 -0.3427579701 -0.6136630774
-2.683141708 -0.3427661061 -0.517536819
-2.697350979 -0.3436251879 -0.4239889383
-2.700479031 -0.3430658281 -0.3291037679
-2.696331501 -0.3420607448 -0.2340749502
-2.708778858 -0.3426792026 -0.1408895403
-2.718052387 -0.3428878784 -0.04711970314
-2.707471371 -0.346835345 0.04694517702
-3.318555117 -0.42393893 0.1731284857
-3.832505941 -0.4889163673 0.3343040347
-3.895736694 -0.4955999851 0.4770531654
-3.787107468 -0.4804382622 0.5979440808
-3.84042573 -0.4865203798 0.7442178726
-3.607907057 -0.4557845592 0.8296161294
-3.773030519 -0.4753074646 1.007375836
-1.942877054 -0.2423426062 -0.5130314231
-2.676664829 -0.3329214156 -0.612763226
-2.699908018 -0.3353345692 -0.5205897689
-2.692652941 -0.3334784806 -0.4230503142
-2.733181953 -0.3375299871 -0.3330036104
-2.762822866 -0.3402113914 -0.2398272157
-3.580649853 -0.439014852 -0.06226839125
-2.698744059 -0.3361465335 0.04677065089
-3.431008339 -0.4261388183 0.1789901108
-3.83221221 -0.4752900898 0.3341297209
-3.800908566 -0.4700606465 0.4651100039
-3.800524712 -0.4686654508 0.5998213291
-3.83430624 -0.472152859 0.7426914573
-3.621081114 -0.4446126521 0.8323155046
-3.774666786 -0.4621341527 1.007375836
-1.947587848 -0.2356841117 -0.5140666962
-2.695222855 -0.3256806433 -0.616812408
-2.849255085 -0.3432843387 -0.5495927334
-3.556818724 -0.4272736609 -0.5607126951
-3.570032597 -0.4282281101 -0.4363488257
-3.575093031 -0.4275702536 -0.3112949133
-3.569891214 -0.4256842732 -0.1862124801
-3.572232485 -0.4253311753 -0.06209386885
-3.601187468 -0.4357917309 0.0626174435
