# .PCD v0.7 - Point Cloud Data file format
VERSION 0.7
FIELDS x y z
SIZE 4 4 4
TYPE F F F
COUNT 1 1 1
WIDTH 1205
HEIGHT 1
VIEWPOINT 0 0 0 1 0 0 0
POINTS 1205
DATA ascii
1.778970838 -0.2983359993 -0.3423741758
1.791283131 -0.3010437191 -0.2810078263
1.793704867 -0.3020945489 -0.2182026803
1.795966029 -0.3031201065 -0.1556347758
1.809944034 -0.305804193 -0.09399650991
1.806028485 -0.30579108 -0.03127291799
1.820418119 -0.3046334982 0.0315172486
1.800467491 -0.3019410372 0.09347315133
1.804089427 -0.3028721809 0.156332016
1.782011986 -0.2998054326 0.2167402357
1.77359426 -0.2990258932 0.2781920135
1.798016191 -0.3034661412 0.3461903334
1.77757144 -0.3006536663 0.4062581658
1.768501639 -0.2997546494 0.4690321684
1.729996681 -0.2957137525 -0.4586794078
1.771228433 -0.3030798137 -0.4049084783
1.758515477 -0.3015362918 -0.3385579884
1.764858723 -0.3032581806 -0.2769405246
1.776988506 -0.3056617975 -0.2162527591
1.77722609 -0.3063413799 -0.1540659666
1.789129853 -0.3090363741 -0.09294979274
1.789186358 -0.3093677163 -0.03099367768
1.791748166 -0.3062691092 0.03102858365
1.791528106 -0.3068751693 0.09305446595
1.775475979 -0.3047635257 0.1538916528
1.751608372 -0.3009813726 0.2130841613
1.727764964 -0.2975052595 0.2709960043
1.767871857 -0.3050467372 0.3404660821
1.761095643 -0.3045105636 0.4026589692
1.733180523 -0.299995333 0.4597146809
1.715632319 -0.299425751 -0.4550559223
1.74898994 -0.3058767915 -0.3999595344
1.741981149 -0.3049643636 -0.3355050385
1.736550093 -0.3046383262 -0.272560358
1.760215282 -0.3094232082 -0.2143028527
1.748674512 -0.3077091575 -0.1516256034
1.760503411 -0.3104242682 -0.0914843902
1.776280046 -0.3135257661 -0.03078424931
1.763035417 -0.308016032 0.03053991497
1.778641701 -0.3110625148 0.09242643416
1.764588833 -0.3092396557 0.1530200988
1.74071753 -0.3056825995 0.2118654698
1.71504271 -0.301482439 0.2691188157
1.745528102 -0.3074695468 0.336268276
1.740831137 -0.3072687984 0.398159951
1.720708489 -0.3040266931 0.4566088617
1.706969023 -0.3040574789 -0.4529853761
1.721107364 -0.3068858385 -0.3936609328
1.721579671 -0.3075901568 -0.3316888511
1.721918702 -0.3079608381 -0.2703702748
1.724008083 -0.3089556098 -0.2099155486
1.737784624 -0.3120506108 -0.1507540494
1.728012323 -0.3106071055 -0.08980964124
1.74762249 -0.3147617877 -0.03029558249
1.74428606 -0.3107046485 0.03022577241
1.742153645 -0.3109523356 0.09054233879
1.739963293 -0.311188072 0.1509283632
1.692797661 -0.3030575216 0.2060157359
1.700369477 -0.3050256968 0.2669287026
1.729040027 -0.3104803264 0.3332153261
1.716787338 -0.3088987768 0.3927611411
1.702525973 -0.3069463372 0.451950103
1.690745115 -0.3069556653 -0.4488442838
1.706604719 -0.3104503453 -0.390511632
1.689646244 -0.3076700866 -0.3255829513
1.705286741 -0.3111331463 -0.2678673267
1.697533607 -0.310330838 -0.2067469507
1.724981308 -0.3156597614 -0.1497081816
1.707272291 -0.3130350709 -0.08876291662
1.719033122 -0.3155016005 -0.02980691381
1.727451086 -0.3139310777 0.0299465321
1.709672928 -0.3110084832 0.08886758983
1.729121327 -0.3151699603 0.1500568092
1.680012703 -0.3068247736 0.2045532912
1.677973628 -0.3067550361 0.2634871602
1.704772115 -0.3122691512 0.3286359012
1.685030937 -0.309261024 0.3855626881
1.68059814 -0.308750689 0.4462560713
1.663069248 -0.307931453 -0.4415973425
1.672991991 -0.3100707233 -0.3828632832
1.675050378 -0.3110570014 -0.3229116499
1.684824705 -0.3131763339 -0.2647386491
1.680883169 -0.3130507469 -0.2047970444
1.688614368 -0.3151005507 -0.1465705782
1.690518618 -0.3157612085 -0.08792554587
1.68057549 -0.3145111203 -0.02914372273
1.706737757 -0.3160170317 0.02959748544
1.690903068 -0.3136956394 0.08792554587
1.704504728 -0.3168344796 0.1479650736
1.667276382 -0.3102155328 0.2030908763
1.657473564 -0.3089902103 0.2603584826
1.69600749 -0.3164801002 0.3271094263
1.668671846 -0.3119820058 0.3819634914
1.660521984 -0.3110581934 0.441079706
1.635461569 -0.30843243 -0.4343504012
1.664240003 -0.31446141 -0.3810636699
1.650860906 -0.3122318387 -0.3183322251
1.654608607 -0.3135388792 -0.2600456178
1.668078542 -0.3166945875 -0.2033345997
1.660157204 -0.3154909015 -0.144130215
1.675671935 -0.3190453649 -0.08719284087
1.665717483 -0.3177525997 -0.02889938839
1.685974479 -0.3182634115 0.02924843691
1.681947947 -0.3181114197 0.08750685304
1.664292216 -0.3150729835 0.1444788426
1.650580764 -0.3130740821 0.2011409551
1.638919115 -0.3114548624 0.2575426698
1.660176277 -0.3157947361 0.3202403188
1.648429751 -0.3141566217 0.3774644434
1.627167344 -0.310693115 0.4322798848
1.600226879 -0.3075758815 -0.4250329435
1.630601168 -0.314004302 -0.3734153211
1.607350111 -0.3098177612 -0.3099366426
1.595317721 -0.3080761433 -0.2506595254
1.620187998 -0.3134655654 -0.1974848807
1.60818851 -0.3114351928 -0.1395981163
1.639255524 -0.3180451989 -0.0853087455
1.627302051 -0.3163154721 -0.02823619731
1.635761142 -0.3147018552 0.02837581746
1.659254432 -0.319822371 0.08635546267
1.614274502 -0.3114446998 0.1401210576
1.602701664 -0.3097921908 0.195291236
1.602913618 -0.3104136884 0.2519110143
1.572331786 -0.3047760427 0.3030675054
1.59375906 -0.3095066845 0.3648671806
1.559702635 -0.303458035 0.4141625166
1.555539012 -0.3046208024 -0.4131272733
1.56065309 -0.3061879277 -0.3572188616
1.586994052 -0.3116434813 -0.3061204553
1.57485044 -0.3098297715 -0.2475308627
1.585974336 -0.3125933111 -0.1933413148
1.589499235 -0.3135762811 -0.1380293071
1.583273411 -0.3129222691 -0.08237793297
1.59676373 -0.316167742 -0.02771262452
1.581669092 -0.3100244701 0.02743338794
1.595413446 -0.3132968247 0.08300595731
1.603402734 -0.3151563704 0.1392495036
1.566552043 -0.3084811866 0.1909039319
1.572750092 -0.3102720082 0.2472179979
1.571258426 -0.3102626503 0.3030675054
1.571640372 -0.3109081089 0.3599182665
1.560528874 -0.3092760742 0.4146801531
1.562044501 -0.3115602732 -0.4151977897
1.565307617 -0.3127793074 -0.3585685492
1.580121279 -0.316026181 -0.3049755991
1.581506848 -0.3168774843 -0.2487823516
1.573196054 -0.3157835007 -0.191878885
1.592301726 -0.3199076653 -0.1383779347
1.58217144 -0.3184470236 -0.08237793297
1.591729879 -0.320949018 -0.02764281631
1.588421106 -0.3171095848 0.02757300623
1.578642368 -0.3157303929 0.08216858655
1.60619998 -0.321533531 0.1395981163
1.569358468 -0.3147282898 0.1913914233
1.565847278 -0.3145927489 0.2462793738
1.585563421 -0.318841815 0.3061204553
1.564814329 -0.3152377009 0.3585685492
1.568908095 -0.3166323304 0.4172683358
1.553374529 -0.3154729605 -0.4131272733
1.569935083 -0.3194068968 -0.3599182665
1.569389582 -0.319581151 -0.3030675054
1.593939662 -0.3251599073 -0.2509723902
1.579863548 -0.3228629231 -0.1928538531
1.587214589 -0.3249423504 -0.1380293071
1.592789769 -0.3263734281 -0.08300595731
1.5866822 -0.325699091 -0.02757300623
1.593183398 -0.3238472641 0.02767772041
1.59514451 -0.3248257339 0.08311063796
1.60702014 -0.3275361359 0.1397724301
1.560470343 -0.318615973 0.1904164553
1.533774734 -0.3137229681 0.2412734926
1.605598092 -0.3287059069 0.3103182614
1.565613508 -0.3210895658 0.3590184748
1.571578145 -0.3228845 0.4183036387
1.548424244 -0.320381403 -0.4120919704
1.587893128 -0.3288368583 -0.3644172847
1.57205236 -0.3261286914 -0.3038307428
1.571462512 -0.3265785575 -0.2475308627
1.576783538 -0.3279714584 -0.1926101148
1.580219269 -0.3292615712 -0.1375063807
1.59744823 -0.3334333897 -0.08331997693
1.585535645 -0.3312356472 -0.02757300623
1.599876165 -0.3310272396 0.02781733871
1.595956683 -0.3307972252 0.08321530372
1.599956632 -0.332208842 0.1392495036
1.557405114 -0.323657155 0.1901727319
1.542339921 -0.3210879862 0.2428378314
1.592851043 -0.3321836591 0.308028549
1.573964 -0.328818202 0.3612679839
1.557204604 -0.3256006539 0.4146801531
1.535954118 -0.3233963251 -0.4089861512
1.563795924 -0.3298285306 -0.3590184748
1.565141678 -0.3303977251 -0.3026858866
1.549054027 -0.3275665343 -0.2440893203
1.565860987 -0.3316916227 -0.1913914233
1.571264029 -0.3331226707 -0.1368091404
1.576737761 -0.3348583579 -0.08227325976
1.56670773 -0.3332997859 -0.02725886367
1.586911917 -0.3344147801 0.02760791034
1.602550268 -0.3382945955 0.08363399655
1.58514154 -0.3349086344 0.1380293071
1.532903552 -0.3244308233 0.1872478575
1.529558063 -0.3242806196 0.2409606129
1.564794779 -0.3320365548 0.3026858866
1.553744912 -0.3302586973 0.3567689359
1.538995266 -0.3276850581 0.4100214243
1.527259827 -0.327137351 -0.4069156051
1.543581247 -0.331196934 -0.3545194268
1.552461863 -0.333385855 -0.3003961742
1.524726748 -0.3279866576 -0.2403348833
1.527823091 -0.3292107284 -0.1867603809
1.560353637 -0.3365053236 -0.1359375864
1.554084897 -0.3357211649 -0.08112186939
1.561625838 -0.3379207551 -0.02718905173
1.564226866 -0.3353411555 0.0272239577
1.56621027 -0.3363382816 0.08174990118
1.564483881 -0.336253196 0.1362861991
1.516236663 -0.3264372051 0.1852979362
1.522624016 -0.3283685446 0.2400220186
1.54443562 -0.3333545327 0.2988696992
1.535440207 -0.3319739103 0.3527198434
1.526513577 -0.3306016922 0.4069156051
1.512895465 -0.3295879662 -0.4032921195
1.515760541 -0.3307663798 -0.3482207954
1.530190229 -0.334194988 -0.2961983979
1.510064483 -0.3303518295 -0.2381448001
1.499517441 -0.3285929859 -0.1833480448
1.539708018 -0.3376817107 -0.1341944486
1.539248228 -0.3381440341 -0.08038916439
1.52918911 -0.33649382 -0.0266305767
1.543508887 -0.3365393579 0.02687490918
1.539660215 -0.3362632692 0.08038916439
1.545782685 -0.337883085 0.1347173899
1.503452897 -0.3291804194 0.1838355213
1.500243664 -0.3290265799 0.2365804464
1.531756878 -0.3362181485 0.2965800166
1.501916289 -0.3302176893 0.3450714946
1.508370519 -0.3321887851 0.4022568464
1.481557846 -0.3281821609 -0.3950099051
1.501279473 -0.3331005573 -0.3450714946
1.500265718 -0.3331503868 -0.2904741168
1.503117442 -0.3343342543 -0.2372061908
1.494486094 -0.3329619169 -0.1828605533
1.515184283 -0.3378509283 -0.1321027279
1.518566132 -0.3391614854 -0.07934244722
1.516296387 -0.3392102718 -0.02642114647
1.540372372 -0.3414923549 0.02684000507
1.522878766 -0.3381718695 0.07955178618
1.521254659 -0.3380898237 0.1326256692
1.488731146 -0.3314070404 0.1821293384
1.474021673 -0.3286726177 0.2325131595
1.511412859 -0.3372868598 0.2927638292
1.489343524 -0.3329077065 0.3423720896
1.490235209 -0.3336532414 0.3975981176
1.459671855 -0.3286835551 -0.3893159032
1.481097698 -0.3340514302 -0.3405724764
1.476112843 -0.3331978619 -0.2858946919
1.492307425 -0.3374009132 -0.235641852
1.479762316 -0.3351075053 -0.1811544001
1.488735318 -0.337412715 -0.1298366785
1.497895956 -0.3400387168 -0.07829573005
1.4956038 -0.3400673568 -0.02607209794
1.50795877 -0.3398331702 0.02628152817
1.508051515 -0.3404072523 0.07881908864
1.500630975 -0.3390075266 0.1308825463
1.481756926 -0.3352873623 0.1813981235
1.453600168 -0.3294495642 0.2293844521
1.487250805 -0.3373491764 0.2881844044
1.476770401 -0.335514009 0.3396726549
1.458922386 -0.3319946229 0.3893159032
1.441567183 -0.3298981488 -0.3846571743
1.464726806 -0.3357362747 -0.3369732499
1.469200134 -0.3370315433 -0.2847498357
1.462242484 -0.3359727859 -0.2309488207
1.470845342 -0.3384900093 -0.180179432
1.47589922 -0.3399242759 -0.1287908107
1.477238536 -0.3407758176 -0.07724901289
1.490510941 -0.3443855643 -0.02600228973
1.48532176 -0.3401840925 0.02589757368
1.489333868 -0.3416501582 0.07787703723
1.481961727 -0.3402312994 0.1293137372
1.453492999 -0.3342295587 0.1779857874
1.446666479 -0.3331914842 0.2284458578
1.470759392 -0.3390108347 0.2851314545
1.464197636 -0.3380366564 0.3369732499
1.450225949 -0.335344255 0.387245357
1.434761882 -0.3336155713 -0.3831042349
1.440770507 -0.3355428874 -0.3315744102
1.45654273 -0.3394841254 -0.2824601233
1.462984443 -0.3415239453 -0.2312616855
1.458057046 -0.3409104645 -0.1787169874
1.463063598 -0.3423503637 -0.127744928
1.458538771 -0.3418286145 -0.07630696148
1.473725557 -0.3459305763 -0.02572305128
1.470491648 -0.34219414 0.0256532412
1.464790702 -0.3414065242 0.07662097365
1.474944234 -0.3440444767 0.1287908107
1.431053996 -0.33433339 0.1753046513
1.441647649 -0.3373391032 0.2278201133
1.450451732 -0.3396662474 0.2813152671
1.436447263 -0.336915642 0.3306746185
1.443404436 -0.3390790522 0.3856924176
1.427948236 -0.3372895122 -0.3815513253
1.428212047 -0.337878257 -0.3288750052
1.43433392 -0.3395908773 -0.278262347
1.44064045 -0.3416150808 -0.2278201133
1.431750417 -0.3400349617 -0.1755484045
1.450229406 -0.3446910381 -0.1266990602
1.449564815 -0.3450677097 -0.0758882761
1.447221756 -0.3450437784 -0.02526928857
1.455665708 -0.3441047966 0.02540890686
1.449985385 -0.3432964683 0.0758882761
1.462101936 -0.3464346826 0.127744928
1.424083948 -0.3379516304 0.1745734513
1.417399406 -0.3368879855 0.2240656912
1.445437312 -0.3438186049 0.2805520594
1.420096874 -0.3383147717 0.327075392
1.427179217 -0.3405285478 0.3815513253
1.408035517 -0.3375196457 -0.3763749301
1.415714502 -0.3398829997 -0.3261756003
1.417928457 -0.3406762481 -0.2752093971
1.431817651 -0.3445419967 -0.2265686542
1.419035912 -0.3419903517 -0.1740859598
1.429649711 -0.3450763822 -0.1249559522
1.436764002 -0.3470589519 -0.07526023686
1.426633358 -0.3451389372 -0.02492024004
1.452572107 -0.3484635949 0.02537400275
1.439128995 -0.3457699418 0.07536491752
1.43769896 -0.3456917703 0.1256531924
1.413305879 -0.3403484225 0.1733547598
1.398991585 -0.33741799 0.2212498784
1.432838559 -0.3458460867 0.278262347
1.40381372 -0.3393589556 0.3234761953
1.401633382 -0.3393497467 0.3748220503
1.380511403 -0.3362771273 -0.3691280186
1.406946182 -0.3429765105 -0.3243759871
1.405227065 -0.3430771232 -0.2729196846
1.407518864 -0.3441573083 -0.2228142172
1.413977146 -0.3459979892 -0.1735984832
1.411020279 -0.3457965255 -0.123387143
1.425783873 -0.3499422669 -0.07473687828
1.415709972 -0.3477317095 -0.02474571578
1.42997539 -0.3483259678 0.02499005012
1.430151939 -0.3488979042 0.07494622469
1.424809575 -0.3481215835 0.1246073395
1.400539398 -0.342450738 0.1718923151
1.386293173 -0.3394802213 0.2193726599
1.416307449 -0.3473542929 0.2752093971
1.394990683 -0.3426425457 0.3216765821
1.381680131 -0.3396288753 0.3696456254
1.377453804 -0.3406302333 -0.3686103821
1.384872079 -0.3429777026 -0.319427073
1.398303986 -0.3465632796 -0.2717748284
1.381385326 -0.342881918 -0.2187469155
1.397287726 -0.3473469913 -0.1716485769
1.394336939 -0.3468718827 -0.1219926476
1.40517354 -0.3500886261 -0.07369016111
1.414487481 -0.352671355 -0.02474571578
1.409277439 -0.3487609029 0.0246410016
1.421170473 -0.3519673645 0.07452753931
1.406181693 -0.3487762213 0.1230385303
1.381936073 -0.3432746828 0.1696986556
1.38126564 -0.3433640897 0.2187469155
1.380794406 -0.3437588215 0.2683402598
1.391895056 -0.3470384479 0.3212266862
1.369239926 -0.3416436911 0.3665398061
1.366887808 -0.3430848718 -0.3660221994
1.368607044 -0.3437702954 -0.3158278763
1.389469981 -0.3495263755 -0.2702483535
1.372578382 -0.3455319703 -0.2174954414
1.376879573 -0.3471258879 -0.1692111939
1.383458853 -0.3492982388 -0.1211211011
1.382704496 -0.3493644893 -0.07253877074
1.407432079 -0.3561350703 -0.0246410016
1.400355101 -0.3514850736 0.0245013833
1.402500272 -0.3525439501 0.0735854879
1.39336288 -0.3507642448 0.1219926476
1.365390539 -0.3439759016 0.1677487642
1.378143311 -0.3477003276 0.2184340507
1.375839829 -0.3473745883 0.2675770521
1.371843815 -0.3468751013 0.316727668
1.362420678 -0.3449984789 0.3649868965
1.360126019 -0.3461861908 -0.36446926
1.359845161 -0.3466201723 -0.3140282631
1.359768271 -0.3468533158 -0.2645241022
1.363708138 -0.3483653665 -0.2162439674
1.352581501 -0.3460260034 -0.1662863195
1.378432751 -0.3528957665 -0.120772481
1.381476521 -0.3541889191 -0.07253877074
1.386873841 -0.3558306694 -0.02429195307
1.395244002 -0.3553839028 0.02443157323
1.376163483 -0.3507796824 0.07222475111
1.380609155 -0.3524261117 0.1209467873
1.346872211 -0.3443150222 0.1655551195
1.342535377 -0.3434559107 0.2128024101
1.368913412 -0.3507132828 0.2664321959
1.344198227 -0.3448813558 0.3104290366
1.353784561 -0.3475928009 0.3629163802
1.336463571 -0.3451352715 -0.3582576215
1.353028059 -0.3496649265 -0.3126785457
1.339542985 -0.3466787636 -0.2607079148
1.358720899 -0.3518951833 -0.2156182379
1.343740821 -0.3485160172 -0.1653113812
1.352123141 -0.3511938751 -0.1185064316
1.364830136 -0.3547486067 -0.07170139253
1.364336014 -0.3551286459 -0.02390800044
1.378568411 -0.3560086787 0.02415233292
1.363328934 -0.3525808454 0.07159672678
1.363940597 -0.3532469869 0.1195522919
1.334193349 -0.3457912803 0.1640926749
1.339416146 -0.3476438522 0.2124895453
1.363942266 -0.3542637229 0.2656689286
1.343047142 -0.3493370116 0.3104290366
1.333868265 -0.3474466503 0.3577399552
1.32036078 -0.3456513286 -0.3541164994
1.35179925 -0.3543857336 -0.3126785457
1.334587812 -0.350122571 -0.2599446774
1.340289354 -0.3521184027 -0.2128024101
1.33483696 -0.3511841297 -0.164336428
1.335475802 -0.3518506885 -0.1171119362
1.363583565 -0.3595105708 -0.07170139253
1.343753695 -0.3547841311 -0.02355895378
1.35410428 -0.3547374308 0.02373347618
1.354362369 -0.3553103209 0.07117803395
1.35119915 -0.3547325432 0.1185064316
1.336818099 -0.3514558673 0.1645801514
1.309540391 -0.3447732329 0.207796514
1.345611334 -0.3545210361 0.26223436
1.330514073 -0.3510401845 0.3077296317
1.313969731 -0.3471657634 0.3525635898
1.313483715 -0.3490001261 -0.3525635898
1.324187756 -0.3520916402 -0.3063799143
1.321912646 -0.3519808054 -0.2576549649
1.319902778 -0.3519391119 -0.2096737176
1.32976687 -0.3548178673 -0.1638489366
1.326540112 -0.354452908 -0.1164146885
1.333315969 -0.356762141 -0.07013131678
1.34637022 -0.3605069816 -0.02362876199
1.333531499 -0.3543269336 0.02338442951
1.360834241 -0.3620899916 0.07159672678
1.338338614 -0.3566046655 0.1174605638
1.306811929 -0.3484485745 0.160924077
1.300694823 -0.3473038673 0.20654504
1.317750096 -0.3523506522 0.2568917274
1.325453639 -0.3549062908 0.3068298101
1.301553845 -0.3487502933 0.3494577706
1.308526874 -0.3525776863 -0.3515283167
1.307836652 -0.3528814316 -0.3027806878
1.320675969 -0.356592983 -0.2576549649
1.311038733 -0.3544819355 -0.2084222436
1.301632166 -0.3524261713 -0.1604366004
1.327217817 -0.3596023321 -0.1165890023
1.312786818 -0.3561842442 -0.06908459961
1.333524704 -0.3620606959 -0.02341933362
1.324500918 -0.3571297526 0.02324480936
1.328709245 -0.3585132658 0.06992197037
1.329391956 -0.3591953814 0.1167633161
1.294028878 -0.3501251042 0.1594616324
1.291847706 -0.3497769535 0.205293566
1.312722445 -0.3559208512 0.25612849
1.305400133 -0.354424715 0.302330792
1.292871356 -0.3512653708 0.3473872244
1.30542469 -0.3566340506 -0.3510106802
1.295380831 -0.3541330695 -0.3000812829
1.300487399 -0.3560170531 -0.2538387775
1.298424959 -0.3556960523 -0.20654504
1.288970113 -0.3535896838 -0.1589741707
1.312505841 -0.3605387211 -0.1153688207
1.307746768 -0.3594768941 -0.0688752532
1.30911684 -0.3603450358 -0.02300047502
1.315593243 -0.3594120145 0.02310519107
1.312037945 -0.3589329422 0.06908459961
1.320443749 -0.3617279828 0.1160660684
1.275630474 -0.3496909738 0.1572679877
1.288714051 -0.3537613451 0.2049807012
1.30396235 -0.3581918478 0.254602015
1.281670213 -0.3525495231 0.296931982
1.287912488 -0.354750216 0.3463519514
1.266997576 -0.3506551683 -0.3406579196
1.290380836 -0.3576117456 -0.2991814911
1.280381083 -0.3550811112 -0.25002262
1.300982118 -0.3612833619 -0.2071707696
1.280077815 -0.3559595644 -0.1579992175
1.29786694 -0.3611503541 -0.1141486466
1.308407903 -0.3645756841 -0.06897991896
1.292442083 -0.3606131673 -0.02272123657
1.310476303 -0.362934649 0.02303537913
1.299229264 -0.3603081703 0.06845656037
1.303878188 -0.3618424535 0.114671573
1.280139923 -0.3557361066 0.1579992175
1.2589252 -0.3503142297 0.2002876401
1.291356444 -0.3595815599 0.2523123026
1.276677489 -0.3559744358 0.2960321605
1.279223442 -0.3571656048 0.3442814052
1.258325577 -0.3529885411 -0.3385873437
1.275991797 -0.3584248126 -0.2960321605
1.271573782 -0.3574232757 -0.2484961301
1.28069818 -0.3604704142 -0.2040420771
1.278827429 -0.3604257405 -0.1579992175
1.281257629 -0.3613520265 -0.1127541512
1.297516942 -0.3664266467 -0.06845656037
1.275781512 -0.3607693017 -0.02244199812
1.293799281 -0.3631832898 0.02275614254
1.290272593 -0.3626792729 0.068037875
1.283427596 -0.3609969318 0.1129284576
1.269336581 -0.3575116396 0.1567805111
1.251991034 -0.3530980051 0.1993490458
1.278756618 -0.3608876169 0.25002262
1.267925978 -0.3583088815 0.2942325473
1.25566256 -0.3553166687 0.3380697072
1.234787226 -0.3510394692 -0.3323757052
1.26348722 -0.3596753776 -0.2933327556
1.262765884 -0.3597082794 -0.2469696552
1.260435939 -0.3595203459 -0.2009133995
1.269926429 -0.3627067804 -0.1570242494
1.274241447 -0.3641797304 -0.1122312099
1.275108099 -0.3649089038 -0.06730517745
1.278359056 -0.36632213 -0.0225118082
1.261749506 -0.3589426875 0.02219766378
1.277473807 -0.3638979197 0.06740984321
1.270663261 -0.362197727 0.1118825972
1.245174527 -0.355402261 0.1538556516
1.246952295 -0.3563804328 0.1987233013
1.258613348 -0.3599508405 0.2462063879
1.259173632 -0.3605866134 0.292432934
1.246986508 -0.3575676382 0.335999161
1.229841471 -0.3542779982 -0.3313404322
1.247244716 -0.3597628772 -0.2897335291
1.25395751 -0.3619362414 -0.2454431802
1.251582384 -0.3617240191 -0.1996619105
1.251490951 -0.3621709943 -0.1548306048
1.263393521 -0.3658544719 -0.1113596559
1.254644036 -0.3637955189 -0.06625845283
1.269390941 -0.3685519099 -0.02237218805
1.264331818 -0.3644526005 0.02226747572
1.264682174 -0.3650317788 0.06678181887
1.269391179 -0.3666309118 0.1118825972
1.224856973 -0.3542316556 0.1514182687
1.241905808 -0.3596320152 0.1980975717
1.253577828 -0.3632491827 0.2454431802
1.250421166 -0.3628076911 0.2906333506
1.242020607 -0.3608402908 0.3349638879
1.230451941 -0.3591100872 -0.3318580687
1.234758258 -0.3608346879 -0.2870341241
1.245149136 -0.3641070426 -0.2439167053
1.246520519 -0.3649804592 -0.1990361661
1.231169939 -0.3609524965 -0.1523932219
1.252549648 -0.3674580157 -0.1104881018
1.245701432 -0.3659212291 -0.06583976746
1.252749324 -0.3684665859 -0.02209295146
1.259212971 -0.3677425385 0.02219766378
1.244230628 -0.3638384342 0.06573509425
1.266191602 -0.3705002367 0.1117082834
1.215992928 -0.3562724888 0.1504433006
1.217896938 -0.3572920263 0.1943431348
1.244767189 -0.3654107749 0.2439167053
1.222972155 -0.3594764471 0.2843347192
1.233340502 -0.3629918098 0.3328933418
1.212517619 -0.3584735692 -0.3271993399
1.229753971 -0.364036262 -0.2861343026
1.219399214 -0.3612025082 -0.2389556617
1.23387599 -0.3659592867 -0.1971589625
1.226096749 -0.3641177118 -0.1519057453
1.239800453 -0.3684227467 -0.109442234
1.240587711 -0.369128108 -0.06563042104
1.228458047 -0.3659858108 -0.02167409286
1.248333931 -0.3692994416 0.02202314138
1.239122868 -0.3670449257 0.06552574784
1.243877769 -0.3686895669 0.1097908542
1.207129717 -0.3582556844 0.1494683474
1.203387737 -0.3576022387 0.1921530664
1.24348402 -0.369753629 0.2439167053
1.221709847 -0.3637432456 0.2843347192
1.217255116 -0.3628794849 0.3287522197
1.192752242 -0.3571622074 -0.3220229447
1.215409279 -0.3644090891 -0.2829850018
1.218130946 -0.3654567599 -0.2389556617
1.217456102 -0.3657175899 -0.1946559995
1.224818349 -0.3683953583 -0.1519057453
1.219428301 -0.3670063019 -0.1076991186
1.235467196 -0.3723038137 -0.06542108208
1.227237582 -0.3700574934 -0.02167409286
1.231712699 -0.3690629303 0.02174390107
1.237898827 -0.3711519837 0.06552574784
1.223500609 -0.3673005402 0.1080477387
1.205871701 -0.3624671996 0.1494683474
1.19652009 -0.3598839343 0.1912144572
1.227146864 -0.3695628941 0.2408637553
1.21670115 -0.3668803573 0.2834348977
1.201249123 -0.3624496758 0.3246111274
1.180405974 -0.3579597473 -0.3189171255
1.203005672 -0.3650423884 -0.2802855968
1.213091016 -0.3685652316 -0.2381924391
1.193557143 -0.3628579378 -0.1909015924
1.212195396 -0.368986547 -0.1504433006
1.208610415 -0.3683562875 -0.1068275571
1.218942404 -0.3717377186 -0.06458370388
1.218288302 -0.3720031083 -0.0215344727
1.217086673 -0.3690831959 0.0214995686
1.232773542 -0.3743102252 0.06531640887
1.220304847 -0.3709896207 0.1078734323
1.183772445 -0.3601090014 0.1467872262
1.197146297 -0.3646339774 0.1915273219
1.207134962 -0.3679066002 0.237047568
1.208022356 -0.3686379194 0.2816352844
1.190738797 -0.3638181686 0.3220229447
1.18659997 -0.3641391695 -0.3209876716
1.181233287 -0.3629434705 -0.275336653
1.208108902 -0.3714320362 -0.2374291867
1.192283273 -0.3670220077 -0.1909015924
1.195723891 -0.3685380816 -0.1484934092
1.203574538 -0.3711878359 -0.106478937
1.204279065 -0.3718655109 -0.06385099888
1.213161469 -0.375072211 -0.02146466449
1.204321265 -0.3698074818 0.02129014023
1.208550572 -0.3715678155 0.06406034529
1.219067931 -0.3750342429 0.1078734323
1.173022628 -0.3613170981 0.1455685347
1.180764914 -0.3641532362 0.189024359
1.198339581 -0.3698023856 0.235521093
1.191833138 -0.3682502508 0.2780360878
1.182079554 -0.3656886816 0.3199523985
1.185321569 -0.3682789803 -0.3209876716
1.174376845 -0.3653279841 -0.2739869654
1.188059688 -0.3698118925 -0.2336130142
1.172135711 -0.3653040528 -0.1877728999
1.179270387 -0.3679792881 -0.1465434879
1.202271581 -0.3753868341 -0.106478937
1.197254777 -0.3742791414 -0.06353698671
1.192760825 -0.3733313382 -0.0211156141
1.203023076 -0.374009043 0.02129014023
1.191990137 -0.3710353374 0.06322296709
1.208240032 -0.3763248622 0.1070018709
1.169859171 -0.3648186028 0.1453247964
1.166287422 -0.3641514778 0.1868342906
1.197041392 -0.3739831746 0.235521093
1.171941638 -0.3665904403 0.2735370398
1.180795908 -0.3698126674 0.3199523985
1.163757563 -0.3660382926 -0.3152936697
1.173094511 -0.369425118 -0.2739869654
1.171781659 -0.3692364693 -0.2305600643
1.178388715 -0.37177068 -0.189024359
1.174192786 -0.3708975613 -0.1460560113
1.185755849 -0.3747776747 -0.1050844416
1.186419964 -0.3754431605 -0.06301362813
1.180012465 -0.3738687038 -0.02090618573
1.195987821 -0.3764051497 0.02118542604
1.186877847 -0.3739934266 0.06301362813
1.186017156 -0.3739497662 0.1050844416
1.161006451 -0.3665095568 0.1443498433
1.146173954 -0.3622671664 0.1837055981
1.193856835 -0.3775672913 0.2351394892
1.159507871 -0.3671494424 0.2708376348
1.168448567 -0.3704292476 0.3168465495
1.147746205 -0.3654098511 -0.3111525476
1.168084383 -0.3723340631 -0.2730871439
1.163003922 -0.3709383011 -0.2290336043
1.158266306 -0.3698726594 -0.1858956665
1.172890902 -0.3749940395 -0.1460560113
1.169259191 -0.3740578294 -0.1036899537
1.17749393 -0.3771453798 -0.0625949353
1.174892068 -0.3767642081 -0.02083637752
1.185139894 -0.3775427639 0.02101090178
1.181759477 -0.3769203424 0.06280428171
1.182806492 -0.3774816692 0.1049101278
1.154047251 -0.3687473536 0.1436186284
1.139258027 -0.3644601107 0.1827669889
1.173833609 -0.3757471144 0.2313233167
1.158219218 -0.3711946607 0.2708376348
1.152432442 -0.3697837293 0.3127054572
1.139108658 -0.3670440614 -0.3090820014
1.1556499 -0.3728192747 -0.2703877389
1.157965302 -0.3737893999 -0.2282703668
1.145690203 -0.3702686727 -0.1840184629
1.160242796 -0.3754191995 -0.1445935816
1.156573176 -0.3744548261 -0.1026440784
1.159070849 -0.375710547 -0.06165288761
1.167863488 -0.3790112138 -0.02073166333
1.164782643 -0.3755411208 0.02066185325
1.17283392 -0.3785889745 0.06238559261
1.170105934 -0.3779339492 0.1038642675
1.133865237 -0.3666656315 0.1411812454
1.136099577 -0.3678262532 0.1824541241
1.153837919 -0.3737917244 0.2275071293
1.156916499 -0.3752353489 0.2708376348
1.132760763 -0.3678376973 0.307529062
1.134147167 -0.3698202968 -0.3080467284
1.139521241 -0.3720127344 -0.2667885125
1.1529212 -0.3766100407 -0.2275071293
1.140635729 -0.3730375767 -0.1833927333
1.140059829 -0.3732898235 -0.1421561986
1.155259013 -0.3784897029 -0.1026440784
1.142570257 -0.3747742772 -0.06081551686
1.158933878 -0.380589813 -0.02059204318
1.159662366 -0.3783641458 0.02059204318
1.160113931 -0.378959626 0.06175755337
1.168779612 -0.3820160627 0.1038642675
1.12503171 -0.3681517541 0.1402062774
1.132931471 -0.3711746931 0.1821412593
1.148794889 -0.3765939772 0.2267438769
1.137084007 -0.3731945753 0.2663386166
1.135140538 -0.3729957342 0.3085643649
1.132849336 -0.3737769127 -0.3080467284
1.134514928 -0.3747656643 -0.2658887208
1.144143224 -0.3781676292 -0.2259806544
1.135575891 -0.375775665 -0.1827669889
1.134981275 -0.3760185242 -0.141668722
1.153930783 -0.3825200498 -0.1026440784
1.139359355 -0.3781311512 -0.0607108362
1.136723876 -0.3776970804 -0.02020809054
1.152637959 -0.3805291951 0.02048732899
1.139820576 -0.3767388761 0.0607108362
1.159872532 -0.3835911453 0.1031670198
1.118086457 -0.3702047467 0.1394750774
1.118503571 -0.3707761765 0.1799511611
1.147473335 -0.3806017041 0.2267438769
1.124677777 -0.3734765351 0.2636392117
1.126498818 -0.3745179176 0.306493789
1.113213301 -0.371611923 -0.3028703332
1.129503369 -0.3774881661 -0.2649888992
1.124197125 -0.3759329319 -0.2221644819
1.134257197 -0.3797372878 -0.1827669889
1.133661747 -0.3799780607 -0.141668722
1.12614274 -0.377676487 -0.1002037227
1.134245753 -0.3808345497 -0.06050149724
1.127816677 -0.3791140318 -0.02006847039
1.153199434 -0.385183841 0.02052223496
1.134710312 -0.3794485331 0.06050149724
1.147189975 -0.3838443756 0.102121152
1.114905 -0.3734747767 0.1392313242
1.098474026 -0.3683971763 0.1768224835
1.142415404 -0.3833557069 0.2259806544
1.115978122 -0.3749177456 0.2618395984
1.110536218 -0.3735209703 0.3023526967
1.093606353 -0.3693145514 -0.297693938
1.11894834 -0.3783078492 -0.2627393901
1.113579392 -0.376709193 -0.2202563882
1.121698976 -0.3798923492 -0.1808897704
1.12480855 -0.3813832104 -0.1406937689
1.1134969 -0.3777645528 -0.09915785491
1.125344872 -0.3822222054 -0.06008280814
1.117020249 -0.379829675 -0.01989394799
1.127219796 -0.3808850944 0.02006847039
1.137162566 -0.3846870959 0.0607108362
1.123196483 -0.3801810145 0.1000294089
1.104194283 -0.3741787672 0.1380126327
1.09718132 -0.3722293377 0.1768224835
1.11876142 -0.3797683418 0.2214012295
1.107282162 -0.3763027489 0.2600399852
1.098252296 -0.3736616671 0.2992468774
1.092310548 -0.3731296659 -0.297693938
1.102869868 -0.3771666586 -0.2591401637
1.1122576 -0.3805940151 -0.2202563882
1.111022234 -0.3806045949 -0.1793254316
1.11408174 -0.3820872903 -0.1394750774
1.108402491 -0.3803556859 -0.09880922735
1.112670541 -0.3822544813 -0.05945478007
1.113796592 -0.3830761015 -0.01985904388
1.114530087 -0.3809370399 0.01985904388
1.120695472 -0.3834812939 0.05987346545
1.118092656 -0.3828086853 0.09968078882
1.091614366 -0.3741688728 0.136550203
1.088401675 -0.3734922409 0.1755709946
1.102574229 -0.3785708547 0.2183483094
1.105961919 -0.3801655769 0.2600399852
1.089634299 -0.3749784529 0.2971763015
1.080045819 -0.3731551468 -0.2945881188
1.086813092 -0.3759180009 -0.255540967
1.099790573 -0.3806216419 -0.2179666758
1.091021776 -0.3780134022 -0.176196754
1.090301633 -0.3779770434 -0.136550203
1.114597082 -0.3868354857 -0.09950647503
1.096236348 -0.3808920085 -0.05861740187
1.108742476 -0.3854541481 -0.01978923194
1.113193512 -0.38482517 0.01985904388
1.108092308 -0.3832782507 0.05924542993
1.116749644 -0.3867092431 0.09968078882
1.077172399 -0.3734255433 0.1348440349
1.081558347 -0.3751574755 0.1746324003
1.101246119 -0.3824172318 0.2183483094
1.089968681 -0.3787142932 0.2564407587
1.088384867 -0.3785897791 0.2971763015
1.075154543 -0.3754608035 -0.2935528457
1.081881404 -0.3782336712 -0.2546411455
1.091109753 -0.3816736341 -0.2164402008
1.089762211 -0.3816292882 -0.176196754
1.081548452 -0.3789648116 -0.1355752498
1.102027774 -0.3865725398 -0.09846060723
1.091198444 -0.3832016289 -0.05840805918
1.092365384 -0.3838255405 -0.01950999536
1.102472425 -0.3852165043 0.01968451962
1.091732502 -0.3816776574 0.05840805918
1.107938886 -0.3877776265 0.09898354113
1.060940981 -0.3717441261 0.1328941286
1.072851777 -0.3761277795 0.1733809263
1.096266866 -0.3847666085 0.217585057
1.073997617 -0.3771611154 0.2528415322
1.08347857 -0.3809154332 0.2961410582
1.066616893 -0.3764522672 -0.2914822996
1.073271513 -0.3792223334 -0.2528415322
1.071328163 -0.3787460029 -0.2126240134
1.088490725 -0.385240972 -0.176196754
1.076476812 -0.3814119101 -0.1350877732
1.08564949 -0.3850884736 -0.09706611186
1.086157203 -0.3854820132 -0.05819871277
1.083481669 -0.3849583268 -0.0193703752
1.101188898 -0.3888702691 0.01968451962
1.094159484 -0.3868175745 0.05861740187
1.095376849 -0.3874630034 0.09793766588
1.059702396 -0.3752603233 0.1328941286
1.047328234 -0.3712898791 0.1693136245
1.094984889 -0.3883998096 0.217585057
1.065329075 -0.3782993555 0.2510419488
1.071220636 -0.3808126152 0.2930352092
1.043397665 -0.3725635409 -0.2852706313
1.075611591 -0.3842777312 -0.2537413538
1.066235781 -0.3813478053 -0.2118607908
1.072193265 -0.3839007318 -0.173693791
1.078876376 -0.3865061402 -0.1355752498
1.061793566 -0.3808044791 -0.09497438371
1.077217937 -0.3867607713 -0.05778002366
1.070839524 -0.3846816719 -0.01916094497
1.092291832 -0.3900220394 0.01954489946
1.085279822 -0.3879454434 0.05819871277
1.078942299 -0.3861048222 0.09654318541
1.058386087 -0.3789570332 0.1328941286
1.044166446 -0.3742769361 0.1690007597
1.078770876 -0.387105763 0.2145321071
1.063935399 -0.382201463 0.2510419488
1.051704884 -0.3780151308 0.287858814
1.045724869 -0.377515316 -0.2863059044
1.059534073 -0.3829185963 -0.2501421571
1.061205387 -0.3837320805 -0.2110975385
1.059702277 -0.3836068809 -0.1718165874
1.066254735 -0.386399895 -0.13411282
1.064203978 -0.3858668208 -0.09532299638
1.0721066 -0.3891556561 -0.0575706847
1.069490194 -0.3884172142 -0.01916094497
1.068285823 -0.3858707249 0.01912604086
1.083918929 -0.3917313814 0.05819871277
1.066346645 -0.3858015835 0.09549731016
1.042058349 -0.3774255812 0.1309442222
1.048425078 -0.3799385726 0.1699393541
1.058957577 -0.3841736317 0.2107159346
1.058931231 -0.3845824301 0.2501421571
1.046747804 -0.3803644478 0.2868235707
1.040771365 -0.3798386753 -0.2852706313
1.036292195 -0.3784089386 -0.2447433174
1.059859514 -0.3874340653 -0.2110975385
1.043582797 -0.381690532 -0.1693136245
1.053783059 -0.3858383298 -0.1326503754
1.059109211 -0.388207823 -0.09497438371
1.063309669 -0.3899579942 -0.0571519956
1.071882248 -0.3935265243 -0.01923075691
1.06887877 -0.390096724 0.01916094497
1.067537189 -0.3900294304 0.05736133456
1.068735838 -0.3908902705 0.09584593773
1.027751684 -0.376103729 0.1292380393
1.035963416 -0.3795188665 0.1680621505
1.057677746 -0.3876831532 0.2107159346
1.046673417 -0.3840640783 0.2474427521
1.045413613 -0.3840159774 0.2868235707
1.035880923 -0.3819512427 -0.284235388
1.029480577 -0.379999578 -0.2433936298
1.04383564 -0.3855052888 -0.2080446184
1.051508069 -0.3887559772 -0.1708779633
1.037536383 -0.3840022385 -0.1307004839
1.054011106 -0.3905180395 -0.09462574869
1.050705671 -0.3895019293 -0.05652396381
1.061128259 -0.3937869966 -0.01905623265
1.060006142 -0.3910568953 0.01902132668
1.05118072 -0.3882179558 0.05652396381
1.05995822 -0.3916698694 0.09514869004
1.028294444 -0.3803776801 0.1294817924
1.029075027 -0.381074816 0.1671235412
1.052636147 -0.3900086284 0.2099526972
1.034363627 -0.3836492598 0.2447433174
1.040444613 -0.386317879 0.2857882679
1.014562726 -0.3783206642 -0.2785413265
1.031799436 -0.3849531412 -0.2442934215
1.031380653 -0.3852071166 -0.205754891
1.044525266 -0.3905320168 -0.1699393541
1.036189675 -0.3876215816 -0.1307004839
1.035848856 -0.3879063129 -0.09305694699
1.045530558 -0.3919481337 -0.0563146174
1.046640992 -0.3925727606 -0.01881189831
1.058634639 -0.3947546482 0.01902132668
1.046076894 -0.3904879391 0.0563146174
1.047317505 -0.3913676441 0.09410282224
1.021382332 -0.3818792105 0.1287505627
1.005538225 -0.3763554394 0.1633691192
1.051199675 -0.3938640952 0.2099526972
1.022002816 -0.3833315372 0.2420439124
1.026429176 -0.3851960897 0.2821648121
1.00058198 -0.3770908713 -0.2749178708
1.03038156 -0.3887323141 -0.2442934215
1.02635622 -0.3874183595 -0.2049916685
1.024677277 -0.3871932328 -0.1668106765
1.034762025 -0.3914167881 -0.1307004839
1.027034879 -0.3886987865 -0.09235969931
1.046023726 -0.3963029683 -0.05641928688
1.035915017 -0.3926798403 -0.01863737404
1.049696445 -0.395810008 0.01888170838
1.044707417 -0.3941370547 0.0563146174
1.034761548 -0.3907974064 0.09305694699
1.016262174 -0.3842161596 0.128263101
1.007913589 -0.3812608719 0.1639948487
1.031458139 -0.3905786574 0.2061365247
1.024303079 -0.3882781863 0.2429437339
1.016046762 -0.3853513002 0.2795766294
1.001064897 -0.3812688887 -0.2754355073
1.009055734 -0.3845139444 -0.2393444926
1.017660379 -0.388199687 -0.2034651935
1.006777883 -0.384249717 -0.1639948487
1.029749513 -0.3934290409 -0.1302129924
1.021950006 -0.3908579946 -0.09201107919
1.031646371 -0.394772917 -0.05568658933
1.028935671 -0.3941474259 -0.018532658
1.029690504 -0.3921713233 0.018532658
1.039592862 -0.3963582814 0.05610527471
1.022222638 -0.3901444376 0.09201107919
1.005710006 -0.3840433061 0.1270444095
1.002886176 -0.3833661675 0.1633691192
1.02282238 -0.3911916614 0.2046100497
1.01936996 -0.390279144 0.2420439124
1.011087537 -0.3875128329 0.2785413265
0.9997950196 -0.3845863938 -0.2754355073
1.000433087 -0.3852327764 -0.2375448793
1.012703538 -0.3901606798 -0.2027019709
1.012802601 -0.390604943 -0.1652463228
1.013555169 -0.3913015723 -0.128263101
1.024365306 -0.395680517 -0.09235969931
1.017222166 -0.3933294713 -0.05495388061
1.027622938 -0.397557348 -0.018532658
1.030181766 -0.396481514 0.01856756583
1.027089596 -0.3954972923 0.05547723919
1.028359413 -0.3963985145 0.09270832688
0.9858433008 -0.380405277 0.1246069968
0.9979237914 -0.3852668107 0.1627433747
1.017788053 -0.3933441043 0.2038467973
1.007096648 -0.3896163106 0.2393444926
1.006193876 -0.3894689381 0.2775060833
0.9948452115 -0.3866742849 -0.2744002342
0.9900689125 -0.3850167394 -0.2352953702
1.004017353 -0.3908444941 -0.201175496
1.004139066 -0.3910937011 -0.1639948487
0.9974558949 -0.3888917863 -0.1263131797
1.01926589 -0.3978050947 -0.09201107919
1.008470535 -0.3937946558 -0.05453519896
1.00760448 -0.39386186 -0.01818361133
1.015814185 -0.3948244452 0.01832322963
1.010812163 -0.3932864964 0.05463986844
1.01954329 -0.3970934153 0.09201107919
0.9882757664 -0.3851138651 0.1250944883
0.9818503261 -0.3830048442 0.1602404267
1.012820363 -0.3952895105 0.2030835748
0.9876477718 -0.3858623207 0.2348454744
1.004828215 -0.392978847 0.2775060833
0.9755746126 -0.3829129338 -0.269223839
0.9869052172 -0.3877577484 -0.2348454744
0.9989927411 -0.3929095864 -0.2004122436
1.002767801 -0.3945963979 -0.1639948487
0.9923983216 -0.3909160793 -0.1258257031
1.010457039 -0.3984370828 -0.09131383151
1.018167019 -0.4018879533 -0.05516322702
0.9913442135 -0.3915005624 -0.01790437289
1.018152475 -0.3998297453 0.01839304157
1.005715609 -0.3953510225 0.05443052202
1.010804296 -0.3975551724 0.09131383151
0.9850783348 -0.3878341019 0.12485075
0.9639672041 -0.3799111545 0.1574246138
1.011364818 -0.3989990056 0.2030835748
0.9862948656 -0.3893074989 0.2348454744
0.996263504 -0.3936442733 0.2754355073
0.9651861191 -0.3829238713 -0.2666356564
0.9909107089 -0.3935301602 -0.2361951619
0.9902485013 -0.3936673999 -0.1988857836
0.986630559 -0.3924284875 -0.1614918858
0.9983360767 -0.397487998 -0.1268006563
0.9904819131 -0.3947614729 -0.08957072347
1.014832139 -0.4048769474 -0.05505855754
0.9861881137 -0.3936487138 -0.01783456281
0.9980937839 -0.396181196 0.01804399118
1.004259825 -0.3990345001 0.05443052202
0.9908260107 -0.3938969672 0.08957072347
0.9891834259 -0.3936438859 0.1255819649
0.9625683427 -0.3834417164 0.1574246138
0.9953064919 -0.3968856931 0.2000306249
0.9848614335 -0.3929198384 0.2348454744
0.9804614782 -0.3915612698 0.271294415
0.9655691981 -0.3871778846 -0.2671532929
0.9768023491 -0.3920780122 -0.2330458611
0.9815810323 -0.39419505 -0.1973593086
0.9705229998 -0.3901477456 -0.1589889526
1.000625968 -0.4024519622 -0.1272881329
0.9780085683 -0.3937518895 -0.08852485567
0.9930353165 -0.4002046287 -0.05390716344
0.9903720021 -0.3993321657 -0.01793927886
0.9817878008 -0.3938801587 0.01776475459
1.002860785 -0.4025376141 0.05443052202
0.9893756509 -0.3975258768 0.08957072347
0.9674751759 -0.3891187012 0.1229008436
0.9612239599 -0.3867993653 0.1574246138
0.9829887748 -0.3959562778 0.1977409273
0.9834837914 -0.3963552713 0.2348454744
0.9647561312 -0.3891993165 0.2671532929
0.9606987238 -0.3889278769 -0.2661180198
0.9646603465 -0.3909236789 -0.2303464562
0.9802684188 -0.3974479437 -0.1973593086
0.9655631781 -0.3918782473 -0.1583632082
0.9772149324 -0.3968058527 -0.1243632734
0.9803888798 -0.3984933496 -0.08887347579
0.9732028842 -0.3959683776 -0.05286044627
0.9834858179 -0.4003522992 -0.01783456281
0.9878900051 -0.4001366496 0.01790437289
0.9867121577 -0.3998600245 0.05359315127
0.9898982048 -0.4015535414 0.08974502981
0.9422693253 -0.3826158941 0.1197322309
0.9544456601 -0.3877542615 0.1564859897
0.9780329466 -0.3977346122 0.196977675
0.9641135931 -0.3922702074 0.2303464562
0.963460207 -0.3923964202 0.2671532929
0.9629801512 -0.3935732245 -0.2671532929
0.9507331848 -0.3889552057 -0.2271971405
0.9716772437 -0.3977216482 -0.1958328336
0.9642584324 -0.3950780332 -0.1583632082
0.9611307979 -0.3941884339 -0.1224133521
0.9753057361 -0.4003998339 -0.08852485567
0.975579381 -0.400711149 -0.05306978524
0.9783834219 -0.4022620618 -0.01776475459
0.9865577221 -0.4034103751 0.01790437289
0.9705230594 -0.397249192 0.05275577307
0.9848735929 -0.4033237994 0.08939640969
0.9483423829 -0.3887501955 0.1207071841
0.9348112345 -0.3835846484 0.1533573121
0.976708591 -0.400975734 0.196977675
0.9519234896 -0.3911888301 0.2276470363
0.9656579494 -0.3972269893 0.2681885958
0.9472466707 -0.3912007511 -0.2630122006
0.9565739036 -0.3952482343 -0.2289967537
0.9593277574 -0.3967781961 -0.1935431212
0.9591536522 -0.3970983028 -0.1577374786
0.9560809731 -0.3960217535 -0.1219258904
0.9628593326 -0.3992231488 -0.08747898042
0.9685701728 -0.4019872844 -0.05275577307
0.9585053325 -0.3980062008 -0.01741570607
0.9814468622 -0.4053249955 0.01783456281
0.9691304564 -0.400634557 0.05275577307
0.9760248065 -0.4038836062 0.08869916201
0.9451455474 -0.3912988305 0.1204634607
0.9206924438 -0.3815515935 0.1511672139
0.978859365 -0.4060574174 0.1977409273
0.9432843328 -0.3916859031 0.2258474231
0.9499932528 -0.3946660757 0.2640474737
0.9351773858 -0.3900429904 -0.2599063516
0.9479255676 -0.3957484961 -0.2271971405
0.9506907463 -0.3970977962 -0.1920166612
0.9468266964 -0.3958720267 -0.1558602601
0.9546231627 -0.399523288 -0.1219258904
0.9503637552 -0.3981305659 -0.08643311262
0.9690030217 -0.4061378539 -0.05286044627
0.9607279897 -0.4030638635 -0.01748551428
0.9725729227 -0.405839175 0.01769494265
0.9639695883 -0.4026443064 0.05254642665
0.9525490999 -0.3980692923 0.0866074264
0.9455363154 -0.3955263793 0.1207071841
0.9283983111 -0.3887382448 0.1527315676
0.9557065964 -0.4003688097 0.1931615025
0.9419113398 -0.3949761689 0.2258474231
0.9378525615 -0.3936591744 0.2609416544
0.926620543 -0.3904672861 -0.2578358352
0.9447427392 -0.3982979059 -0.2267472446
0.9492288828 -0.4005795717 -0.1920166612
0.9326314926 -0.3939589858 -0.1536701769
0.953222692 -0.4028531015 -0.1219258904
0.9489681721 -0.4014455378 -0.08643311262
0.9564729929 -0.4050139785 -0.05223241448
0.9593152404 -0.4064149559 -0.01748551428
0.9564082026 -0.4030194581 0.01741570607
0.9662387967 -0.4075591564 0.05275577307
0.9620967507 -0.4062077105 0.08765330166
0.9258634448 -0.391100049 0.1182698086
0.9233968854 -0.3904380202 0.1521058381
0.9433847666 -0.3992776573 0.190871805
0.9476348162 -0.4014665186 0.2276470363
0.9293580651 -0.393914938 0.2588711083
0.9217650294 -0.3920256793 -0.2568005323
0.9254162908 -0.3939600885 -0.2222482264
0.9442826509 -0.4021864533 -0.1912534088
0.9349541664 -0.3985989392 -0.1542959064
0.937204361 -0.3999448717 -0.1199759692
0.9403021932 -0.4014608562 -0.08573586494
0.9441051483 -0.4034742117 -0.05160437897
0.9579622149 -0.4095939398 -0.01748551428
0.9549955726 -0.4063554704 0.01741570607
0.9465053082 -0.4029379189 0.0517090559
0.9534127116 -0.4062716961 0.08695605397
0.9044074416 -0.3857624531 0.1155886799
0.9220970869 -0.3934979439 0.1521058381
0.942055583 -0.4024038613 0.190871805
0.9283800125 -0.3969455361 0.2231480181
0.9209418893 -0.3939554095 0.2568005323
0.9274914861 -0.3982900381 -0.2588711083
0.9312667251 -0.4001037478 -0.2240478396
0.939266026 -0.4039289653 -0.1904901862
0.9245545268 -0.3977935314 -0.1527315676
0.9249337316 -0.398339361 -0.1185135394
0.93157655 -0.4015857875 -0.08503861725
0.9354262352 -0.4034389257 -0.05118569732
0.9381673336 -0.4050096273 -0.01713646762
0.9426180124 -0.4047858119 0.01720627584
0.9267436266 -0.3983521461 0.05066233128
0.9519887567 -0.409597218 0.08695605397
0.9049464464 -0.3895442784 0.1158324108
0.9025763869 -0.388897568 0.1489771307
0.9407159686 -0.4055256248 0.190871805
0.9127443433 -0.3938454092 0.2195487916
0.9231082797 -0.3986997008 0.2578358352
0.9084399343 -0.3936819434 -0.2536947131
0.9191377163 -0.398699075 -0.2213484049
0.9271155 -0.4023518562 -0.1882004589
0.9267839193 -0.40259251 -0.1533573121
0.923537612 -0.4015656114 -0.1185135394
0.9265857935 -0.4030832946 -0.08469000459
0.9321809411 -0.4059042931 -0.05108102039
0.9276527762 -0.4041251838 -0.01696194336
0.9522075057 -0.412846446 0.01741570607
0.9199207425 -0.3990387321 0.05034831911
0.9360048175 -0.4064038098 0.0855615586
0.9054017663 -0.3934919834 0.116076149
0.892224133 -0.3879500926 0.1474127918
0.9356945157 -0.4072399437 0.1901085675
0.90421772 -0.3939158618 0.2177491784
0.9111552835 -0.3971273899 0.2547299862
0.9052903652 -0.3960762322 -0.2531770766
0.9231662154 -0.404089123 -0.2226981223
0.9221089482 -0.4040099978 -0.1874372363
0.918207109 -0.4024914503 -0.1521058381
0.9222009182 -0.4046259224 -0.1185135394
0.9142279029 -0.4015082717 -0.08364413679
0.9363154173 -0.4114036262 -0.05139504001
0.9244059324 -0.4065557718 -0.01692703739
0.9398409724 -0.4111925662 0.01720627584
0.9276698232 -0.4062533975 0.0508716777
0.9236318469 -0.4048693478 0.0845156908
0.9059098959 -0.3972895443 0.1163198948
0.8854381442 -0.3886801302 0.1464741826
0.9199585319 -0.404025048 0.1870556176
0.9100423455 -0.4000491202 0.2195487916
0.9062269926 -0.3987494409 0.2536947131
0.9004372358 -0.3975156546 -0.2521418035
0.9092726707 -0.4017955363 -0.2195487916
0.9153773785 -0.4046840966 -0.1862923801
0.9095708728 -0.4024966359 -0.1508543491
0.9280430079 -0.4110582769 -0.1194885001
0.912820816 -0.4046970904 -0.08364413679
0.9275707603 -0.4114302397 -0.0509763509
0.9248088598 -0.4105915427 -0.01696194336
0.9237661958 -0.4080073535 0.01692703739
0.9298994541 -0.4111042619 0.05108102039
0.9259283543 -0.4095418155 0.08486431092
0.8918115497 -0.3948240876 0.1146137193
0.8768520355 -0.3885673583 0.1452227086
0.909568727 -0.4032552838 0.1851475388
0.9015154243 -0.4000614882 0.2177491784
0.8960020542 -0.3979892433 0.2511065304
0.9042675495 -0.4031732976 -0.2536947131
0.8954066634 -0.3994099796 -0.2163994908
0.9174733162 -0.409637183 -0.1870556176
0.900875628 -0.4026038051 -0.1496028751
0.9030438662 -0.4037618935 -0.1163198948
0.9077653289 -0.4062532187 -0.08329550922
0.9078291655 -0.4066621959 -0.04992963001
0.9142459631 -0.4097281694 -0.0167874191
0.9296419621 -0.4144866168 0.01706665568
0.9102199674 -0.4062081873 0.05003430322
0.9207828045 -0.4113076031 0.0845156908
0.874116838 -0.390645206 0.1124200746
0.8754903078 -0.391625762 0.1452227086
0.9027090669 -0.4041794837 0.1840026677
0.8929299116 -0.400175184 0.215949595
0.8946073055 -0.4011144638 0.2511065304
0.8958080411 -0.4031559825 -0.251624167
0.8921599984 -0.4018887579 -0.215949595
0.8981389999 -0.4047707021 -0.1832394451
0.8994647861 -0.4057459533 -0.1496028751
0.8907026052 -0.4021676183 -0.1148574576
0.9063417912 -0.4094194174 -0.08329550922
0.904584229 -0.4090057611 -0.0498249568
0.910988152 -0.4120928347 -0.01675251313
0.9171761274 -0.4129651785 0.01685722917
0.8996914029 -0.4052813947 0.04951094463
0.9157088995 -0.412881285 0.08416706324
0.8726791739 -0.3938463628 0.1124200746
0.8669165373 -0.391427815 0.1439712346
0.9030817151 -0.4081366062 0.1843842864
0.8773233294 -0.396864295 0.2123503685
0.8949617147 -0.4050312936 0.251624167
0.8838419914 -0.401486665 -0.2485183477
0.8854999542 -0.4024261832 -0.2145998776
0.8913594484 -0.4054645896 -0.1820945889
0.8981143236 -0.4087264836 -0.1496028751
0.8929770589 -0.4067648947 -0.1153449342
0.8867785931 -0.4043152034 -0.08155239373
0.9104915857 -0.4153188169 -0.05024364963
