# .PCD v0.7 - Point Cloud Data file format
VERSION 0.7
FIELDS x y z
SIZE 4 4 4
TYPE F F F
COUNT 1 1 1
WIDTH 1252
HEIGHT 1
VIEWPOINT 0 0 0 1 0 0 0
POINTS 1252
DATA ascii
-2.123753548 4.673113346 -0.806314826
-2.153725147 4.743458271 -0.6345083714
-2.162324905 4.766818523 -0.4542303383
-2.173288107 4.793209553 -0.2736135423
-2.439913273 5.38625288 -0.1025136411
-2.441962719 5.363359451 0.1021645889
-2.437160015 5.357768536 0.3062711358
-2.43603301 5.360254288 0.5114045143
-2.413987875 5.314208508 0.7115297914
-2.407845497 5.305603504 0.9161318541
-2.407773018 5.307905674 1.124691129
-2.390814066 5.275413513 1.327207923
-2.378134251 5.252310276 1.533296108
-1.153475046 2.555852175 -0.7397568822
-1.072641373 2.378956556 -0.592517674
-1.07349062 2.381949425 -0.4996007979
-2.113917351 4.694907665 -0.8088178039
-2.12982583 4.734653473 -0.632314682
-2.145673513 4.774336815 -0.4542303383
-2.155725956 4.798943996 -0.2735088468
-2.41127038 5.372844696 -0.1020947844
-2.42322731 5.371850014 0.1021645889
-2.411879301 5.351675987 0.30543378
-2.414972067 5.361036301 0.5107073188
-2.39460969 5.320792198 0.711286068
-2.385262012 5.304968357 0.9145675302
-2.38762188 5.312695503 1.123927832
-2.369991541 5.278393269 1.325858116
-2.358203173 5.257054806 1.532260895
-1.138581395 2.547716856 -0.7361334562
-1.095327258 2.452079058 -0.6100638509
-1.064752579 2.385868311 -0.4996007979
-2.095889568 4.700820446 -0.8085048795
-2.114900827 4.745686531 -0.6328021884
-2.12737298 4.778158188 -0.4538817406
-2.139744759 4.810463428 -0.2737182081
-2.390877247 5.37757349 -0.1020249724
-2.40609169 5.383927822 0.1022344008
-2.393184662 5.360062122 0.30543378
-2.392058611 5.362573624 0.510010004
-2.37602067 5.329119205 0.711286068
-2.3586905 5.295217991 0.9114388824
-2.369728804 5.324999332 1.124691129
-2.347461224 5.279922009 1.324058533
-2.333563089 5.251130581 1.528119683
-1.12498951 2.54107666 -0.7330275774
-1.083179951 2.448948145 -0.6082642078
-1.055624604 2.387774706 -0.499219209
-2.078670979 4.706300259 -0.8081920743
-2.097493649 4.753405571 -0.6328021884
-2.106662035 4.77643919 -0.4530101717
-2.124549389 4.821558952 -0.2739275098
-2.367256403 5.374905586 -0.1018155366
-2.383107185 5.385395527 0.1020947844
-2.372842789 5.364730358 0.3052244186
-2.366883993 5.356311321 0.5086155534
-2.356473684 5.337790966 0.711286068
-2.338598251 5.299803734 0.9108130932
-2.346376181 5.322459698 1.122401357
-2.325875759 5.280949593 1.322258949
-2.312106609 5.252171516 1.526049137
-1.116113186 2.544987917 -0.7330275774
-1.073487639 2.448957205 -0.6073644161
-1.056734443 2.413025141 -0.5037985444
-2.061467409 4.70954895 -0.8075663447
-2.081720352 4.760334492 -0.6328021884
-2.08997488 4.783764362 -0.4530101717
-2.103756666 4.817595005 -0.2732995152
-2.350078106 5.386802673 -0.101885356
-2.357204914 5.3749547 0.1017457321
-2.357306719 5.380298615 0.3056431413
-2.344975471 5.357240677 0.5079182982
-2.330005884 5.325572014 0.7086049914
-2.320082903 5.307935238 0.9108130932
-2.322424173 5.31581974 1.119348526
-2.308349133 5.2886343 1.322258949
-2.293757677 5.260210991 1.526049137
-1.106126904 2.545131922 -0.7319923043
-1.063380957 2.449114323 -0.6064646244
-1.065921068 2.456137657 -0.5121941566
-2.046588182 4.720340252 -0.8081920743
-2.060355663 4.756642818 -0.6313397884
-2.07484746 4.794687748 -0.4533587992
-2.085340023 4.821242809 -0.2730901539
-2.328881741 5.389465809 -0.1017806381
-2.336833715 5.379482746 0.1016759202
-2.328971148 5.366508007 0.3043870628
-2.330369711 5.372297764 0.5086155534
-2.305877924 5.320922375 0.7068988085
-2.299971819 5.312375069 0.910187304
-2.303075552 5.322091579 1.118966818
-2.286782265 5.289504051 1.320459366
-2.273851395 5.264638424 1.525013924
-1.019675374 2.369937897 -0.6797109246
-1.047127247 2.434908867 -0.6019656062
-1.076285601 2.505123615 -0.5217345953
-2.030053377 4.729624271 -0.8085048795
-2.042955637 4.761982441 -0.631096065
-2.061238766 4.809225559 -0.4540560246
-2.070012569 4.834362507 -0.273404181
-2.304545641 5.384694099 -0.1015363038
-2.318040133 5.387607574 0.1016759202
-2.305493116 5.363595009 0.3037590384
-2.309092522 5.377140999 0.5082669258
-2.285725594 5.325289726 0.7064113021
-2.278301477 5.313108921 0.9089358449
-2.2843256 5.332302094 1.119348526
-2.261244535 5.283518314 1.31686008
-2.25697875 5.276096344 1.526049137
-1.00079453 2.348601341 -0.6724639535
-1.053461432 2.474591255 -0.6109636426
-1.069072485 2.512478352 -0.5224978328
-2.158042908 5.076637268 -0.8670114279
-2.027041197 4.77309227 -0.6315835714
-2.040544987 4.807221889 -0.4531844556
-2.054685354 4.845235348 -0.2736135423
-2.282615423 5.385340691 -0.1013966873
-2.29671216 5.39238739 0.1016061157
-2.288319826 5.375285625 0.30396837
-2.287188292 5.377835274 0.5075696707
-2.266190529 5.333631992 0.7064113021
-2.250473976 5.299211502 0.9051814079
-2.265699387 5.34024334 1.119348526
-2.24126792 5.287790298 1.315960288
-2.232520103 5.269711971 1.521908164
-0.9993508458 2.368098974 -0.6771227121
-1.039191127 2.463706255 -0.6073644161
-1.063345671 2.523431063 -0.5240243077
-2.14426446 5.091047287 -0.8682629466
-2.013512373 4.785276413 -0.632314682
-2.021434546 4.808804989 -0.4526615143
-2.034739256 4.842815399 -0.2730901539
-2.263801575 5.393276215 -0.1013966873
-2.276486158 5.394446373 0.1015014052
-2.269543648 5.383240223 0.30396837
-2.262216806 5.371097088 0.50617522
-2.251570702 5.348436832 0.7073862553
-2.231963634 5.307034492 0.9051814079
-2.244933367 5.340487957 1.117821932
-2.222210169 5.291601181 1.315060496
-2.208133936 5.263220787 1.517766953
-1.040675163 2.489034414 -0.7112868428
-1.035090804 2.478108168 -0.6100638509
-1.063291192 2.546872616 -0.5282221437
-2.122676849 5.089385509 -0.8666985631
-1.997558713 4.794108868 -0.632558465
-2.008542299 4.82283926 -0.4533587992
-2.019355774 4.853577614 -0.2732995152
-2.2457304 5.402991295 -0.1014315933
-2.249159098 5.382064819 0.101117447
-2.249198437 5.387444019 0.3037590384
-2.241322279 5.371214867 0.5054779649
-2.225250244 5.337940693 0.7049488425
-2.214942694 5.318440437 0.9058071971
-2.221752644 5.337416649 1.115532279
-2.208215952 5.310121059 1.317759871
-2.19271183 5.278033257 1.519837618
-1.025330067 2.476587296 -0.7066280246
-1.030903578 2.492510796 -0.612763226
-1.052895069 2.54693985 -0.5274589062
-2.10791564 5.104067326 -0.8679500222
-1.977782369 4.793712616 -0.6315835714
-1.991696119 4.829820633 -0.4533587992
-1.999356866 4.853209972 -0.2728807926
-2.224574566 5.405249596 -0.1013268754
-2.232653379 5.395425797 0.1012221575
-2.224276304 5.380496502 0.3029216528
-2.224082232 5.382687569 0.5058265924
-2.200545788 5.330996037 0.7029989958
-2.196365356 5.32613945 0.9058071971
-2.201612711 5.341508865 1.114769101
-2.182248116 5.299776554 1.313260913
-2.169863462 5.274935722 1.516731739
-1.015213966 2.47657609 -0.7055928111
-1.0458287 2.55380249 -0.6271601319
-1.039536476 2.539697647 -0.5251691937
-2.092328072 5.11687994 -0.8688886166
-1.958035231 4.793235779 -0.6306085587
-1.971810579 4.829365253 -0.4526615143
-1.981650472 4.858309746 -0.2727761269
-2.20191884 5.40372324 -0.101152353
-2.209255934 5.392084599 0.1010127291
-2.202455997 5.380833626 0.3025029898
-2.200751781 5.379354477 0.5047807097
-2.184175253 5.344158173 0.7037302256
-2.170291901 5.315486431 0.9026784897
-2.182952404 5.349162102 1.114769101
-2.157848358 5.292926788 1.309661746
-2.15435338 5.289634228 1.518802285
-1.016006708 2.50337553 -0.7123220563
-1.740570068 4.292953014 -1.059516072
-2.02756691 5.00331068 -1.041116714
-2.076678991 5.129644871 -0.8698272705
-1.942781448 4.803721905 -0.631096065
-1.957182288 4.841760159 -0.4531844556
-1.96692431 4.870752811 -0.2730901539
-2.177807331 5.398395061 -0.1009080261
-2.191173553 5.401616096 0.1010476425
-2.180657864 5.381084919 0.3020842671
-2.180466175 5.383310318 0.5044320822
-2.163274765 5.346229076 0.7029989958
-2.145062685 5.306546688 0.8998626471
-2.164268255 5.356749058 1.114769101
-2.14081955 5.304040432 1.310561538
-2.131542206 5.286371231 1.515696406
-1.000779271 2.490773916 -0.7076632977
-1.729204655 4.308043957 -1.061765552
-1.982310534 4.941119194 -1.026615262
-2.137392998 5.333057404 -0.9033042789
-1.926000237 4.810474873 -0.631096065
-1.935828924 4.837462902 -0.4521385729
-1.950650096 4.879444122 -0.2731948197
-2.159149885 5.403729916 -0.1008731127
-2.165596485 5.392531872 0.1007334962
-2.164290667 5.391993523 0.3022936285
-2.154245138 5.372397423 0.5026890039
-2.14533639 5.35559082 0.7032427192
-2.128186464 5.31546545 0.9001755714
-2.142638683 5.356979847 1.113242626
-2.119397879 5.304242611 1.308761835
-2.106833935 5.275470734 1.510520101
-1.717787743 4.320999146 -1.063565254
-1.968674898 4.957130909 -1.028523326
-1.911501884 4.820525169 -0.6315835714
-1.917462468 4.840487003 -0.4517899752
-1.930783629 4.876600742 -0.2726714909
-2.141746283 5.414953232 -0.1009429246
-2.144747019 5.392250061 0.1005938798
-2.143979549 5.395803452 0.3020842671
-2.136950016 5.38358736 0.5030375719
-2.120977402 5.346068382 0.7010490298
-2.109620094 5.322861195 0.9001755714
-2.117633104 5.345802784 1.109426379
-2.104666471 5.318490028 1.310561538
-2.088407516 5.282792091 1.510520101
-1.009998798 2.56403327 -0.7268159389
-1.702695012 4.326968193 -1.063565254
-1.953661442 4.967287064 -1.029286623
-2.111155748 5.373222351 -0.9076843858
-2.075984955 5.289131165 -0.6925182343
-2.033826351 5.184388161 -0.4835146666
-1.909377813 4.872152805 -0.2720434368
-2.124505758 5.42388773 -0.1009778306
-2.126645565 5.401564598 0.1006287783
-2.121687412 5.391731739 0.3014562428
-2.120544434 5.394352436 0.5033861995
-2.095771313 5.336810589 0.6988554597
-2.09340167 5.333504677 0.900801301
-2.098958492 5.353162766 1.109426379
-2.078979492 5.307659149 1.30606246
-2.070876122 5.289689064 1.510520101
-1.013674498 2.599941015 -0.7361334562
-1.68550539 4.325327873 -1.061765552
-1.838740587 4.723431587 -0.9770048857
-2.097266912 5.395900249 -0.7056800723
-2.098422766 5.407256126 -0.3017702699
-2.101224184 5.420083523 -0.1007683948
-2.105087996 5.399271965 0.1004542559
-2.098503351 5.387939453 0.3008282185
-2.101700306 5.401721954 0.5033861995
-2.078783035 5.345580578 0.6990991235
-2.071193695 5.331573963 0.8992369771
-2.081196308 5.360093594 1.109426379
-2.058549643 5.307256222 1.304262877
-2.052400112 5.296885014 1.510520101
-1.041676998 2.700970888 -0.7640858889
-1.669586778 4.333586693 -1.062215567
-1.812951088 4.708153248 -0.9724254012
-1.804522514 4.698486328 -0.4366248548
-2.079077244 5.419003487 -0.3019796014
-2.075386286 5.415041447 -0.1005240604
-2.088657379 5.418509483 0.1006636843
-2.077801228 5.395956993 0.3008282185
-2.077595234 5.398231506 0.5023403168
-2.058240652 5.353523731 0.6990991235
-2.045042038 5.324734211 0.8967339993
-2.06200552 5.371711254 1.110189557
-2.036761761 5.311481953 1.303363085
-2.027901411 5.29390192 1.507414222
-1.047396541 2.744297743 -0.7754738927
-1.655142426 4.341209412 -1.062665462
-1.782522559 4.677762032 -0.9647930861
-2.055763721 5.4203825 -0.1004891619
-2.064740181 5.412689686 0.10041935
-2.061085224 5.40877676 0.3011422455
-2.051646471 5.38683176 0.5005972385
-2.041659594 5.366241455 0.6998303533
-2.026441336 5.331840515 0.8967339993
-2.03836298 5.366028309 1.107518315
-2.01820755 5.318560123 1.303363085
-2.00393033 5.286497593 1.503273129
-1.039176345 2.75155139 -0.7765091658
-1.635164499 4.334197521 -1.059516072
-1.801678777 4.795826435 -0.2662864923
-2.037778616 5.4271698 -0.1004891619
-2.042304039 5.410509586 0.1002448276
-2.039613485 5.406237602 0.3006188869
-2.032831669 5.393960476 0.5005972385
-2.016622066 5.356615067 0.6976367235
-2.007359028 5.334833145 0.8961082697
-2.012713432 5.354733467 1.103702068
-2.00193119 5.32887125 1.304262877
-1.986389875 5.293113708 1.503273129
-0.9989241362 2.671744823 -0.7526978254
-1.618056536 4.332293034 -1.057716489
-1.774624825 4.771822929 -0.264611721
-2.021549463 5.409759998 0.1001052111
-2.017482996 5.401744843 0.2999908328
-2.016324759 5.404406071 0.5009458661
-1.994686604 5.352112293 0.696174264
-1.989655614 5.341461658 0.8961082697
-1.996997833 5.366898537 1.104846954
-1.981530309 5.328175068 1.302463293
-1.968824863 5.299672127 1.503273129
-0.900206387 2.432268858 -0.6833343506
-1.573270321 4.255383015 -1.037470937
-1.645256639 4.452480793 -0.9144195318
-1.757644057 4.761741161 -0.7972416282
-1.762414217 4.779799938 -0.6203715801
-1.994578481 5.424023151 -0.1001750156
-2.002212524 5.412682533 0.1000353992
-1.994459987 5.397513866 0.2993628085
-1.997012615 5.407324314 0.5005972385
-1.979676723 5.366146564 0.6971492171
-1.970316291 5.346519947 0.8957953453
-1.978512168 5.371648788 1.104465365
-1.958883286 5.324085712 1.299763799
-1.951647401 5.310138226 1.504308343
-0.8892945051 2.430109262 -0.6817814112
-1.566440225 4.282810688 -1.042869806
-1.624884963 4.447416782 -0.9121297598
-1.730697155 4.742172718 -0.7928614616
-1.745720029 4.78592205 -0.6203715801
-1.718978882 4.717732906 -0.4355790317
-1.977682233 5.436590672 -0.1002797335
-1.986056447 5.427149296 0.1001750156
-1.975605607 5.404443741 0.2993628085
-1.974447966 5.407121181 0.4998999536
-1.958209753 5.365565777 0.696174264
-1.945550799 5.336662769 0.8929796219
-1.95746851 5.375174522 1.103702068
-1.936023951 5.32207346 1.297514319
-1.927820206 5.302393913 1.500167251
-0.8663393855 2.393235922 -0.6703934073
-0.9039635658 2.499897718 -0.6037651896
-1.606013298 4.44383049 -0.9102217555
-1.728165627 4.792289257 -0.6203715801
-1.954631925 5.432171345 -0.1000702977
-1.962068319 5.423110008 0.09996558726
-1.956050515 5.40942812 0.2992581427
-1.952852726 5.406485558 0.4992026985
-1.938531995 5.372706413 0.696174264
-1.926911592 5.343421459 0.8929796219
-1.934034705 5.369045734 1.101030827
-1.917435884 5.328798771 1.297514319
-1.904068112 5.294548512 1.496026278
-0.8612367511 2.405339241 -0.6729816198
-0.8956691623 2.502881289 -0.6037651896
-1.589829683 4.447561264 -0.9098401666
-1.712263107 4.79799366 -0.6203715801
-1.938341141 5.44649601 -0.1002099216
-1.938682199 5.414525509 0.0996863544
-1.941865563 5.429386616 0.2999908328
-1.932629228 5.409515858 0.4988540709
-1.918035746 5.371626854 0.6951993108
-1.908249021 5.350114346 0.8929796219
-1.911606073 5.362483978 1.098359466
-1.902370334 5.342470169 1.299313903
-1.885573864 5.301163197 1.496026278
-0.8539001346 2.410002947 -0.6734992266
-0.8817248344 2.491296053 -0.6001659632
-1.576382518 4.456510067 -0.9106033444
-1.689671636 4.782093048 -0.7966158986
-1.695505619 4.80394125 -0.6203715801
-1.920267582 5.452894211 -0.1002099216
-1.91976881 5.421260357 0.0996863544
-1.913853407 5.407555103 0.2984207869
-1.914678454 5.415895462 0.4988540709
-1.89530623 5.367059231 0.6937369108
-1.894439936 5.367589951 0.894856751
-1.89417994 5.372828007 1.099122643
-1.878530025 5.334373951 1.295714617
-1.869267821 5.311030388 1.497061491
-0.8448441625 2.411145687 -0.6729816198
-0.879899919 2.512598276 -0.6046649814
-1.58804369 4.539817333 -0.9266313314
-1.665982485 4.765293121 -0.7928614616
-1.656006098 4.742069244 -0.6115969419
-1.653770685 4.74098444 -0.4355790317
-1.897277355 5.448233604 -0.1000004932
-1.901781678 5.427596092 0.0996863544
-1.891667962 5.404776573 0.2978973985
-1.89576292 5.42254591 0.4988540709
-1.877498984 5.373314857 0.6937369108
-1.866580009 5.348058701 0.8904765844
-1.875060558 5.375371933 1.098359466
-1.859549165 5.336893559 1.294814944
-1.850715995 5.317523479 1.497061491
-0.8355787992 2.410283327 -0.6719462872
-0.8647466898 2.497240067 -0.6001659632
-1.658372641 4.797217369 -0.7972416282
-1.645920873 4.766584873 -0.6140343547
-1.637210131 4.74672842 -0.4355790317
-1.723406911 5.002300739 -0.2750789225
-1.874340177 5.443478584 -0.09979106486
-1.882168174 5.432312965 0.09965144843
-1.875404239 5.418896198 0.2983160913
-1.873861432 5.417505264 0.4978081882
-1.857435822 5.37608242 0.693249464
-1.846610188 5.350807667 0.8898509145
-1.854704976 5.380352974 1.097977877
-1.838368058 5.3359828 1.293015361
-1.828372478 5.312990665 1.493955612
-0.8211036921 2.39688158 -0.6672875881
-0.8694686294 2.54095602 -0.6100638509
-1.61204505 4.719143867 -0.7831625938
-1.622030139 4.753798008 -0.6115969419
-1.619802713 4.752697468 -0.4355790317
-1.851801157 5.442739487 -0.09965144843
-1.85771203 5.425930977 0.09940710664
-1.85165143 5.414395332 0.297688067
-1.853994012 5.424336433 0.4978081882
-1.839000344 5.386611938 0.6937369108
-1.830812693 5.368757248 0.8917280436
-1.830542684 5.374104977 1.095306516
-1.820055485 5.346373558 1.293915033
-1.806398034 5.312340736 1.491885066
-0.8141718507 2.405364513 -0.6688404679
-1.587790012 4.704431534 -0.779720962
-1.600789428 4.748425007 -0.610134542
-1.603203773 4.758321762 -0.4355790317
-1.719419122 5.109151363 -0.2803125083
-1.831838608 5.449490547 -0.09965144843
-1.835247993 5.425127029 0.09926749021
-1.834350109 5.428714275 0.2981067598
-1.831548929 5.423544884 0.4971109927
-1.815436721 5.382030487 0.6922744513
-1.807339907 5.364199638 0.8898509145
-1.809891462 5.374881268 1.094161749
-1.800446391 5.353009224 1.293915033
-1.785685778 5.315262794 1.490849733
-0.8186426759 2.446664333 -0.6797109246
-1.697793007 5.103751183 -0.279684484
-1.813436866 5.457748413 -0.0996863544
-1.815032482 5.427706718 0.09919768572
-1.814124942 5.431294918 0.2978973985
-1.812607288 5.429904938 0.4971109927
-1.792872667 5.377035141 0.6908119917
-1.78922689 5.372349739 0.8901637793
-1.789259553 5.375576973 1.093016863
-1.779291987 5.351864338 1.29211545
-1.765904784 5.317796707 1.48981452
-0.9004791975 2.722795248 -0.7568389177
-1.78688705 5.418908119 -0.897046864
-1.781227112 5.408081532 -0.6939805746
-1.789845347 5.437450409 -0.4971109927
-1.783521652 5.424604893 -0.2970600426
-1.787510276 5.443147659 -0.09930240363
-1.798586369 5.441603661 0.09933730215
-1.79139936 5.426214695 0.2972693741
-1.793643355 5.436198235 0.4971109927
-1.776576281 5.390803337 0.6917870045
-1.767373443 5.36918211 0.8885993958
-1.771096587 5.383655548 1.093398452
-1.756948233 5.346934795 1.289416075
-1.748534799 5.327599525 1.490849733
-1.367512465 4.183909416 -1.167843699
-1.491821766 4.572339535 -0.9266313314
-1.772858143 5.440137386 -0.8995497823
-1.766638041 5.427479744 -0.6956868172
-1.767773747 5.43419075 -0.4962393939
-1.772597194 5.455491543 -0.2984207869
-1.769734859 5.453157902 -0.09937220812
-1.778337479 5.444047451 0.09926749021
-1.768109322 5.419143677 0.2965366542
-1.770949125 5.431061268 0.4960650802
-1.755290031 5.389420986 0.6908119917
-1.746788621 5.369681835 0.8876607418
-1.753508568 5.393538952 1.094161749
-1.738274336 5.353034973 1.289416075
-1.727544546 5.326320171 1.488779187
-0.9247937202 2.863214254 -0.794626534
-1.747804046 5.427489758 -0.8964211345
-1.745248914 5.426054955 -0.6947118044
-1.750624418 5.446018696 -0.4967623055
-1.749268055 5.448334217 -0.297688067
-1.751642942 5.458995819 -0.09937220812
-1.756864786 5.442610264 0.09912787378
-1.750743508 5.426877975 0.29664132
-1.748312712 5.425832272 0.4950192273
-1.737684369 5.399294376 0.6912994981
-1.727761388 5.371685505 0.8870350718
-1.731068969 5.388411045 1.091871977
-1.71957922 5.359069347 1.289416075
-1.705151558 5.317303658 1.484638214
-0.9130321145 2.860903263 -0.7930736542
-1.542100906 4.840790272 -0.9792945981
-1.726798296 5.423844814 -0.894856751
-1.729051709 5.437487125 -0.6954430342
-1.728586674 5.442602634 -0.4958907962
-1.731192112 5.4541049 -0.297688067
-1.728949428 5.453640461 -0.0991627723
-1.736378789 5.440784931 0.09898825735
-1.73542738 5.444374084 0.2972693741
-1.729363561 5.431901932 0.4950192273
-1.717962861 5.399352551 0.6905682683
-1.70780468 5.37391758 0.8864092827
-1.708435059 5.379153728 1.088819027
-1.701797009 5.364742756 1.289416075
-1.686581492 5.323223114 1.484638214
-0.9029579163 2.862073183 -0.7925559878
-1.36234653 4.323439121 -1.036571026
-1.497144938 4.754119873 -0.9605953097
-1.707087159 5.434020042 -0.6942243576
-1.712320209 5.454007149 -0.4964137375
-1.708558917 5.448679924 -0.2970600426
-1.709303021 5.457734108 -0.09912787378
-1.716773272 5.444905758 0.09895334393
-1.71041441 5.431347847 0.296222657
-1.711342216 5.437606335 0.4950192273
-1.696725249 5.397741318 0.6895933151
-1.690811992 5.385499954 0.8873479366
-1.690822124 5.388831139 1.089582324
-1.681895971 5.366931438 1.288516283
-1.669144869 5.332765102 1.485673308
-0.8929625154 2.865207434 -0.7925559878
-1.333347082 4.283512115 -1.025773406
-1.45561862 4.684971809 -0.7703348994
-1.690242767 5.463667393 -0.09912787378
-1.697160482 5.448956966 0.09891844541
-1.686104178 5.42012167 0.2952806056
-1.693532586 5.447352886 0.4953678548
-1.678460598 5.405527115 0.6898370385
-1.669075966 5.381936073 0.8857836127
-1.672002316 5.394700527 1.089582324
-1.659692526 5.361599922 1.285816908
-1.650518417 5.338559151 1.485673308
-0.8784080148 2.853536606 -0.7884148359
-1.314949393 4.276964188 -1.023074031
-1.424131632 4.634965897 -0.9342636466
-1.524263263 4.973216534 -0.6335334182
-1.547579408 5.052437782 -0.4585881531
-1.666854382 5.452030659 -0.0988137275
-1.678130984 5.454847336 0.09891844541
-1.669296026 5.429501057 0.2954899371
-1.672169328 5.445612431 0.4946706295
-1.659582615 5.411352634 0.6898370385
-1.650063038 5.383663654 0.8851578236
-1.654311538 5.404257774 1.090345502
-1.638689041 5.359906197 1.284017324
-1.629420161 5.33291769 1.482567668
-0.8639457822 2.841799021 -0.7842737436
-1.293962002 4.258925915 -1.017675161
-1.345235229 4.433255672 -0.8922857046
-1.353186965 4.462255478 -0.7318520546
-1.508912444 4.98204422 -0.6340209246
-1.532239795 5.065437794 -0.4592853785
-1.651857376 5.471216679 -0.09905806184
-1.658867955 5.456556797 0.09884864092
-1.651492596 5.439117908 0.2956992984
-1.649682403 5.439975739 0.4936247468
-1.640475869 5.413027763 0.6893495917
-1.630689144 5.387499809 0.8848450184
-1.63410604 5.402197838 1.088819027
-1.623161197 5.372772217 1.285816908
-1.607445121 5.327476025 1.479461789
-0.8545178175 2.844648123 -0.7842737436
-1.274606824 4.248485088 -1.014075994
-1.334474564 4.450856209 -0.8949570656
-1.332501292 4.449920654 -0.729036212
-1.493788719 4.994887829 -0.6349958777
-1.504024029 5.03231144 -0.4557991624
-1.370490551 4.591362476 -0.2489109784
-1.63027668 5.465167046 -0.09884864092
-1.635212302 5.446990967 0.09856939316
-1.633447886 5.444563866 0.2956992984
-1.63163209 5.445416927 0.4936247468
-1.619864583 5.413014889 0.6886184216
-1.614511132 5.398555756 0.8857836127
-1.611307025 5.394700527 1.086147666
-1.603838444 5.376538277 1.285366893
-1.588666916 5.329074383 1.478426456
-0.8462315798 2.85316968 -0.785826683
-1.2660501 4.271371841 -1.018574953
-1.324503422 4.474311829 -0.8987731934
-1.320540428 4.463786125 -0.7306005955
-1.473843098 4.988391399 -0.6335334182
-1.492086172 5.056641102 -0.4575422704
-1.615142703 5.484252453 -0.09909296781
-1.617710114 5.454300404 0.09860429913
-1.612162352 5.442573071 0.2952806056
-1.614876151 5.458721161 0.4943219721
-1.600215673 5.412646294 0.6878871918
-1.593420386 5.396579742 0.884532094
-1.595073938 5.40566349 1.087292552
-1.584346414 5.376220226 1.284017324
-1.57332921 5.34570694 1.481532335
-0.8394806385 2.865230083 -0.7884148359
-1.258793116 4.301949978 -1.024873614
-1.303369045 4.460063934 -0.8949570656
-1.304949641 4.46836853 -0.7306005955
-1.455308437 4.989694595 -0.6330459118
-1.471083999 5.050340652 -0.4564963877
-1.58984983 5.468734264 -0.09870900959
-1.598659754 5.459914684 0.09860429913
-1.589792252 5.436665535 0.2946525812
-1.595646143 5.460221291 0.4939733446
-1.580201149 5.41438818 0.6873996854
-1.574571609 5.402109623 0.884532094
-1.574154377 5.407702923 1.086529255
-1.559039235 5.35926342 1.278618455
-1.554658175 5.351166725 1.481532335
-0.8268285394 2.860863924 -0.7863443494
-1.246260643 4.317768097 -1.027572989
-1.283751607 4.453491688 -0.8926672935
-1.28965795 4.476917744 -0.7312262654
-1.419449091 4.93394804 -0.625246346
-1.447060704 5.036549568 -0.4547532797
-1.349075317 4.701682091 -0.2541445494
-1.567038059 5.464914322 -0.09853449464
-1.580858231 5.47342205 0.09874392301
-1.570963264 5.446292877 0.2948619127
-1.57452023 5.462203979 0.4936247468
-1.561445355 5.423957825 0.6878871918
-1.550396085 5.392656326 0.8820291758
-1.55649209 5.420984268 1.088055849
-1.540462255 5.36868763 1.279518247
-1.530778646 5.341971397 1.477391243
-0.8147479296 2.858302116 -0.78479141
-1.226691127 4.309187889 -1.024423718
-1.269271493 4.461723328 -0.8934305906
-1.270000458 4.47021389 -0.7293490767
-1.361011744 4.79374218 -0.6067221761
-1.422950149 5.018567562 -0.4526615143
-1.33265388 4.706363201 -0.2541445494
-1.549042463 5.474198818 -0.09860429913
-1.558593631 5.471487045 0.09860429913
-1.55084765 5.447902679 0.2946525812
-1.551219225 5.456439495 0.4925788641
-1.541553617 5.429645061 0.6878871918
-1.532639742 5.401836872 0.8826549053
-1.534347057 5.415050983 1.085766077
-1.522773027 5.377782345 1.280418038
-1.508966923 5.336129189 1.474285364
-0.8078825474 2.870285749 -0.7873796225
-1.211868048 4.311355591 -1.023973823
-1.256593585 4.473467827 -0.8949570656
-1.254636884 4.47249794 -0.729036212
-1.408336759 5.023774147 -0.6354833245
-1.420266509 5.073142529 -0.4571936131
-1.294454098 4.62996912 -0.2497483343
-1.530881763 5.479305267 -0.09860429913
-1.535027623 5.457374573 0.09825524688
-1.53493607 5.460705757 0.295071274
-1.532040715 5.457716942 0.4922302365
-1.519254088 5.419435501 0.6859372258
-1.514719248 5.406889439 0.8826549053
-1.514267087 5.412547112 1.084239602
-1.504932284 5.38280201 1.280418038
-1.492303252 5.344824314 1.475320578
-0.8019797802 2.88597846 -0.7910030484
-1.218409657 4.390460968 -1.041969895
-1.242799997 4.481394291 -0.8957202435
-1.240854144 4.48044157 -0.7296620011
-1.381265879 4.994221687 -0.631096065
-1.30547893 4.726621628 -0.4252946377
-1.282280445 4.645788193 -0.2503763437
-1.513338804 5.490399361 -0.09870900959
-1.519060731 5.470143318 0.09839487821
-1.512661219 5.454483032 0.2944432199
-1.516060829 5.470448494 0.4929274917
-1.499154806 5.416791439 0.6849622726
-1.495837569 5.412143707 0.8826549053
-1.4952631 5.413754463 1.083476424
-1.483023286 5.376751423 1.277718544
-1.474661827 5.353726387 1.47635591
-0.7959911227 2.905667067 -0.7956618071
-1.209250093 4.417243004 -1.047368765
-1.224296689 4.478343964 -0.8941937685
-1.224423051 4.484959602 -0.7296620011
-1.360690475 4.987521648 -0.6296336055
-1.369102955 5.02526474 -0.4519642889
-1.272585869 4.677437305 -0.2518417537
-1.491542578 5.485999584 -0.09853449464
-1.501014829 5.479268551 0.0984646827
-1.491505384 5.452023983 0.2940245569
-1.494951367 5.472123623 0.4925788641
-1.480238676 5.421990871 0.6849622726
-1.473817587 5.405897141 0.8807777166
-1.475411892 5.419198036 1.083476424
-1.461262822 5.374628544 1.275918961
-1.456979275 5.362569809 1.477391243
-1.19711411 4.436696529 -1.050967932
-1.204569101 4.467425823 -0.8911408782
-1.208247423 4.487298965 -0.7293490767
-1.318173647 4.902376652 -0.6181778908
-1.315363407 4.8953228 -0.4397625029
-1.246932745 4.647129059 -0.2499576956
-1.466688037 5.46992588 -0.09815053642
-1.479878426 5.480873585 0.09839487821
-1.474027395 5.462981701 0.2943385541
-1.474802732 5.473461151 0.4922302365
-1.460873008 5.429296494 0.685205996
-1.45288527 5.403378487 0.8795261383
-1.456484914 5.424315453 1.083476424
-1.442494035 5.379696369 1.275918961
-1.435250044 5.35642767 1.474285364
-1.435728431 5.388293266 -1.482567668
-1.186404824 4.455707073 -1.054567099
-1.19098413 4.479192734 -0.8926672935
-1.190315485 4.47982645 -0.7274718881
-1.288673997 4.856834412 -0.6118406653
-1.287039876 4.857514381 -0.4359276295
-1.24531889 4.70336771 -0.2527838051
-1.448606372 5.478879929 -0.09822034836
-1.459636569 5.478020668 0.09825524688
-1.454947591 5.468093872 0.2943385541
-1.451596022 5.463171482 0.4908357561
-1.444387674 5.43986702 0.6859372258
-1.435028791 5.412235737 0.8801519275
-1.437484622 5.425319195 1.082713127
-1.425641775 5.388218403 1.276818871
-1.414570928 5.353932858 1.472214937
-1.416870952 5.389287949 -1.481532335
-1.165896893 4.440972328 -1.05006814
-1.174132347 4.475521564 -0.8911408782
-1.173169971 4.47822094 -0.7265332937
-1.275732875 4.876666069 -0.6137905717
-1.270074844 4.861978054 -0.4359276295
-1.240494847 4.752133846 -0.2551912665
-1.430984378 5.489708424 -0.09832505882
-1.437458277 5.471477985 0.09804582596
-1.435852647 5.473139286 0.2943385541
-1.433472514 5.467954636 0.4908357561
-1.42136693 5.429513454 0.6839873195
-1.414130569 5.409566879 0.8789004683
-1.415559292 5.418907642 1.080423474
-1.4068259 5.393161774 1.276818871
-1.395872235 5.358838558 1.472214937
-1.396138549 5.390704632 -1.480497003
-1.151363373 4.448788643 -1.050967932
-1.161649466 4.495001316 -0.8941937685
-1.157241106 4.48440361 -0.7268461585
-1.256222725 4.871479511 -0.6125718951
-1.259058595 4.88953495 -0.4380193949
-1.214614868 4.723764896 -0.2534118295
-1.411814213 5.494669914 -0.09832505882
-1.417847753 5.474526882 0.09801091999
-1.414737344 5.470383644 0.2939198911
-1.41541326 5.480888367 0.4915329814
-1.400422931 5.426753044 0.6830124259
-1.397209406 5.422122478 0.8801519275
-1.397646666 5.431664467 1.081949949
-1.384138346 5.386957645 1.274119377
-1.378119946 5.367420673 1.473250031
-1.379225373 5.403032303 -1.482567668
-1.135050893 4.452978611 -1.050967932
-1.141106963 4.480003357 -0.8903775811
-1.142068267 4.490330219 -0.7271589637
-1.237380743 4.872202873 -0.6120843887
-1.245414972 4.907417774 -0.4392395616
-1.19664526 4.722167969 -0.2530978322
-1.389681458 5.487933159 -0.09811563045
-1.398762703 5.483561516 0.09808073193
-1.394648075 5.471417427 0.2937105298
-1.39529109 5.481934071 0.4911843836
-1.380524516 5.431849003 0.6830124259
-1.374382734 5.411650181 0.8776490092
-1.377714038 5.432703495 1.081186652
-1.362456799 5.380421162 1.271420002
-1.359376907 5.372198105 1.473250031
-1.357530236 5.39657259 -1.479461789
-1.12407732 4.471837521 -1.054567099
-1.124506831 4.4801507 -0.8896143436
-1.127170324 4.494092941 -0.7271589637
-1.223149419 4.883981228 -0.6130593419
-1.225375891 4.900137901 -0.4381936789
-1.185822368 4.745487213 -0.2541445494
-1.366642237 5.477229118 -0.09783639759
-1.381059766 5.490108967 0.09811563045
-1.373593092 5.468504906 0.293291837
-1.376145601 5.486771584 0.4911843836
-1.36395061 5.442174911 0.6837435961
-1.352607965 5.404916763 0.8757717609
-1.360165596 5.439146996 1.081568241
-1.345549941 5.388691902 1.272319794
-1.338745236 5.369412899 1.471179605
-1.336835265 5.389794827 -1.47635591
-1.110335827 4.483300686 -1.056366801
-1.111527205 4.491479397 -0.8911408782
-1.111950994 4.499917507 -0.7274718881
-1.208470106 4.897858143 -0.6142780781
-1.207785845 4.902451515 -0.4380193949
-1.158747792 4.706930637 -0.2518417537
-1.350377321 5.493618488 -0.09804582596
-1.359961629 5.487133026 0.09797601402
-1.35689342 5.482959747 0.2938151956
-1.35411799 5.475831509 0.4897898734
-1.344468236 5.444975376 0.6834998727
-1.334679723 5.413440228 0.8763974905
-1.3397609 5.43814373 1.080423474
-1.328594804 5.400924683 1.274119377
-1.317230582 5.362796783 1.468073726
-1.316153884 5.390904903 -1.475320578
-1.090059519 4.468217373 -1.051867843
-1.09505868 4.495522976 -0.8911408782
-1.094517827 4.500123978 -0.7268461585
-1.193708658 4.911691189 -0.6154967546
-1.193958044 4.920190334 -0.4392395616
-1.13913548 4.701441288 -0.2513183951
-1.32978487 5.492466927 -0.0979411155
-1.33747828 5.478248596 0.09773167968
-1.339169025 5.493483543 0.2941292226
-1.333095193 5.476886749 0.4894412756
-1.32404983 5.443847656 0.6827686429
-1.315773726 5.418066502 0.8763974905
-1.317970753 5.435385704 1.07889688
-1.308791757 5.405757904 1.274119377
-1.299409986 5.371117592 1.469109058
-1.299590111 5.404857159 -1.47790885
-1.070946813 4.460813046 -1.049168348
-1.07936275 4.499317169 -0.8911408782
-1.077881217 4.500074863 -0.7262203693
-1.175237894 4.914102554 -0.6152530313
-1.178627253 4.932079792 -0.4399367869
-1.119010091 4.689846992 -0.2504810095
-1.310603142 5.497075558 -0.0979411155
-1.319260359 5.49089098 0.09787129611
-1.315320969 5.478704453 0.2930825055
-1.315828085 5.489256382 0.4901385307
-1.300849915 5.435151577 0.6810624599
-1.296854377 5.422626019 0.8763974905
-1.299900174 5.443772316 1.079660177
-1.286297083 5.39512825 1.270520091
-1.280651927 5.375620842 1.469109058
-1.280269265 5.407481194 -1.477391243
-1.057044268 4.468132496 -1.05006814
-1.062746763 4.499236107 -0.8903775811
-1.062951326 4.503624916 -0.7262203693
-1.158481359 4.916040421 -0.6150093079
-1.098881721 4.674088955 -0.2494343072
-1.29140532 5.501617432 -0.0979411155
-1.301967263 5.499127388 0.0979411155
-1.295271039 5.479374886 0.292873174
-1.296657562 5.493816376 0.4901385307
-1.282822847 5.439434528 0.6810624599
-1.27655828 5.421352386 0.8754589558
-1.280945301 5.444230556 1.07889688
-1.266615033 5.391776562 1.268720508
-1.262765646 5.383819103 1.470144272
-1.259695768 5.400409698 -1.474285364
-1.048516512 4.502161503 -1.057266593
-1.042479992 4.479790211 -0.8857981563
-1.048568487 4.513079643 -0.7271589637
-1.144004107 4.931657314 -0.6164717078
-1.145480394 4.941928387 -0.4401111007
-1.090213299 4.71097517 -0.2512137294
-1.268592834 5.490504265 -0.09766186774
-1.283670068 5.507534027 0.09801091999
-1.276135206 5.483863354 0.292873174
-1.276628375 5.490323067 0.4894412756
-1.264724255 5.447746754 0.6815499663
-1.254507899 5.412303925 0.8732687831
-1.263703942 5.456319332 1.080423474
-1.24866569 5.399961948 1.269620419
-1.243094325 5.384430408 1.469109058
-1.239538789 5.399125099 -1.472732544
-1.03018117 4.494397163 -1.054567099
-1.027273297 4.4853158 -0.8861798048
-1.031046033 4.509010315 -0.7259075046
-1.124676704 4.930356979 -0.4387166202
-1.068441272 4.691383839 -0.2499576956
-1.250305057 5.498799324 -0.09773167968
-1.260861635 5.496388435 0.09773167968
-1.257875323 5.492177963 0.2930825055
-1.256568074 5.490861416 0.489092648
-1.246583223 5.455998898 0.6820374727
-1.236924291 5.422427654 0.8742073774
-1.242031097 5.449212551 1.078133702
-1.230674624 5.40808773 1.270520091
-1.221724749 5.377432823 1.46600318
-0.6225832105 2.755885124 -0.7454509139
-1.015342832 4.501768589 -1.05546701
-1.014634728 4.502280235 -0.8888511658
-1.012697577 4.501018524 -0.7240303159
-1.109111786 4.937586784 -0.6162279844
-1.114003301 4.963413715 -0.4413312972
-1.044196725 4.660004139 -0.248073563
-1.231977224 5.507032394 -0.09780148417
-1.239024639 5.489052773 0.09752225131
-1.240017414 5.502379894 0.2933965027
-1.235641599 5.487439632 0.4883953929
-1.224919319 5.448696613 0.6805750132
-1.217554927 5.424785614 0.8738945723
-1.221284866 5.44585228 1.076607347
-1.21178782 5.412351131 1.270520091
-1.202945113 5.38166523 1.46600318
-0.6133779287 2.759927511 -0.7459685206
-0.9962465763 4.490065575 -1.051867843
-1.012934089 4.569046021 -0.9014445543
-1.008079648 4.554672241 -0.7321649194
-1.094437957 4.953058243 -0.6176903844
-1.097530961 4.971162796 -0.4416798949
-1.018464923 4.620711327 -0.245770812
-1.212747693 5.511299133 -0.09780148417
-1.219857931 5.493344307 0.09752225131
-1.216910958 5.489125729 0.2924544513
-1.218204021 5.499500275 0.489092648
-1.204178929 5.445185184 0.6796000004
-1.199464321 5.432860374 0.8745203018
-1.201423049 5.446247101 1.075844049
-1.191212535 5.40893507 1.268720508
-1.184150815 5.385831356 1.46600318
-0.6029157639 2.758277178 -0.7449332476
-0.9830588102 4.504939079 -1.054567099
-1.062642574 4.873709679 -0.9613586068
-1.037968874 4.76855278 -0.7662675977
-1.162713885 5.350632191 -0.6671693921
-1.16979146 5.387732983 -0.47863397
-1.036177754 4.780393124 -0.2541445494
-1.192770362 5.507473469 -0.09766186774
-1.203233719 5.509290695 0.09773167968
-1.197422624 5.487277031 0.2921404541
-1.198998213 5.50371933 0.489092648
-1.187696815 5.460994244 0.6810624599
-1.179342866 5.427156448 0.8729559183
-1.184903383 5.461919785 1.078133702
-1.170673251 5.405442238 1.266920924
-1.167919755 5.39728117 1.468073726
-0.5892237425 2.741477728 -0.7397568822
-0.9664788246 4.500553131 -1.052767515
-1.049326181 4.894666195 -0.9647930861
-1.169028401 5.45767355 -0.8773360848
-1.173606753 5.488401413 -0.6839873195
-1.174687505 5.502847672 -0.4885697067
-0.9869912863 4.627536297 -0.245770812
-1.171873927 5.503779888 -0.09752225131
-1.183277965 5.505430222 0.09759206325
-1.179100394 5.495328903 0.2923497856
-1.176024675 5.490336895 0.487523824
-1.168748617 5.461020947 0.6805750132
-1.158741593 5.423512936 0.8717044592
-1.165963292 5.461978912 1.077370524
-1.152742743 5.409294605 1.266920924
-1.145857811 5.386208534 1.463932633
-0.5785300136 2.735856771 -0.737686336
-0.976524353 4.625929356 -1.081561327
-1.082518101 5.132480621 -1.011350632
-1.152820468 5.475251675 -0.8795261383
-1.154440045 5.492464542 -0.6839873195
-1.153977036 5.495013237 -0.487523824
-0.9708308578 4.630953789 -0.245770812
-1.154437184 5.51154995 -0.09759206325
-1.162398219 5.501701355 0.09745243937
-1.159634352 5.493346214 0.2920357883
-1.159042716 5.500055313 0.4880467653
-1.149268627 5.463124752 0.6803312302
-1.141967773 5.433125496 0.8726431131
-1.14608252 5.462173462 1.076607347
-1.133854866 5.413285255 1.266920924
-1.126405835 5.382415295 1.461861968
-0.5685853362 2.735967398 -0.7371687293
-1.062604547 5.126615524 -1.009442449
-1.133454323 5.473241806 -0.8785876036
-1.137024999 5.500151157 -0.6844748259
-1.135592699 5.502910614 -0.4878724515
-1.135996103 5.519463062 -0.09766186774
-1.142523646 5.497693062 0.09731282294
-1.139638901 5.493449211 0.291826427
-1.13983798 5.504067421 0.4880467653
-1.129136205 5.457186222 0.6791125536
-1.122597098 5.435143471 0.8723301888
-1.12558341 5.454406738 1.074317575
-1.11668241 5.420833111 1.267820835
-1.107609391 5.386314869 1.461861968
-0.5601902604 2.743614197 -0.7387216091
-0.5752596259 2.822444439 -0.6550540924
-1.060765505 5.20916748 -1.025088787
-1.114567876 5.483166218 -0.8795261383
-1.11369884 5.488718033 -0.6825249195
-1.116375566 5.506841183 -0.4878724515
-1.11357069 5.502869129 -0.2920357883
-1.114967942 5.519669533 -0.09759206325
-1.123960853 5.509682178 0.09745243937
-1.119498014 5.497589111 0.291826427
-1.120616794 5.508012772 0.4880467653
-1.1071527 5.451560497 0.677893877
-1.103844881 5.445029736 0.8732687831
-1.106365085 5.462343693 1.075080752
-1.095646739 5.419159889 1.266471148
-1.088625669 5.394125462 1.462897301
-0.5528883338 2.756917953 -0.7418274879
-0.5634906292 2.814881086 -0.6528045535
-1.039494038 5.19743824 -1.022035837
-1.095419765 5.487023354 -0.8795261383
-1.093760729 5.488677502 -0.6820374727
-1.097925425 5.514612198 -0.4882210493
-1.096694946 5.518475056 -0.2926638126
-1.094914317 5.519605637 -0.09752225131
-1.104725361 5.513571262 0.09745243937
-1.098341107 5.491671562 0.2913030684
-1.102168083 5.515798092 0.4883953929
-1.088891506 5.459285736 0.6783813238
-1.084061146 5.444974899 0.8726431131
-1.087289691 5.466172218 1.075080752
-1.074068189 5.409571171 1.263321757
-1.069788575 5.397892952 1.462897301
-0.5410225987 2.74745822 -0.7387216091
-0.8922945261 4.539681435 -1.058166385
-1.015293479 5.170211315 -1.015929937
-1.078538179 5.502445221 -0.8814033866
-1.075355887 5.496358871 -0.6825249195
-1.077138901 5.510590076 -0.487523824
-1.075893879 5.514428616 -0.2922451198
-1.073348165 5.51161623 -0.09731282294
-1.085857153 5.519356251 0.09748735279
-1.079550862 5.497431278 0.2914077342
-1.082138896 5.515701294 0.4880467653
-1.070211172 5.465001583 0.6786250472
-1.061257005 5.429339409 0.8695144057
-1.068956375 5.473788261 1.075844049
-1.057041407 5.422851086 1.265571237
-1.050943613 5.401593208 1.462897301
-0.532161355 2.753123522 -0.7397568822
-0.8793991208 4.558075428 -1.061765552
-0.9912932515 5.142879963 -1.009824038
-1.057462335 5.49647665 -0.8798390627
-1.050921082 5.472786903 -0.6791125536
-1.056774378 5.50844574 -0.4870008826
-1.057388186 5.522074223 -0.2924544513
-1.05560267 5.523186207 -0.09745243937
-1.064308047 5.511332512 0.09727791697
-1.060731292 5.503128052 0.2915124297
-1.059110045 5.499881268 0.4863036573
-1.052250862 5.474552155 0.679356277
-1.043791175 5.440770149 0.8707658648
-1.048732519 5.471702099 1.074699163
-1.037377119 5.422678947 1.264671445
-1.029182076 5.390048504 1.458756328
-0.5225484967 2.754964113 -0.7397568822
-0.8605820537 4.545799732 -1.058166385
-0.9102153778 4.812582493 -0.9438041449
-0.9177149534 4.861515522 -0.776905179
-1.018948078 5.408144474 -0.6705816984
-1.037907004 5.514059544 -0.4871752262
-1.03663218 5.517879963 -0.2920357883
-1.037052274 5.530768871 -0.09752225131
-1.043575406 5.507155418 0.09713830054
-1.043740869 5.518571854 0.2921404541
-1.041386127 5.511375427 0.4870008826
-1.031293869 5.468439102 0.67813766
-1.025522351 5.448263645 0.871391654
-1.027810812 5.465682507 1.07279098
-1.018440723 5.426267147 1.264671445
-1.010362148 5.393608093 1.458756328
-0.5185834169 2.787159443 -0.7480391264
-0.8439982533 4.54494381 -1.057266593
-0.8969952464 4.835033417 -0.9476203322
-0.9025386572 4.874400139 -0.7784695029
-0.9978980422 5.399956226 -0.6691192389
-1.018289804 5.515689373 -0.4870008826
-1.015191793 5.509679794 -0.2914077342
-1.017382145 5.532387257 -0.09748735279
-1.024344087 5.510764599 0.09713830054
-1.021924615 5.508434772 0.2914077342
-1.022140026 5.514976978 0.4870008826
-1.011480689 5.468100548 0.6776501536
-1.007213831 5.455695152 0.872017324
-1.007661343 5.463444233 1.071646214
-0.9991390705 5.427872658 1.264221549
-0.9929237366 5.404702663 1.460826755
-0.5053830147 2.769948006 -0.742862761
-0.878705442 4.830408573 -0.9460937977
-0.8869285583 4.885295868 -0.779720962
-0.9790437818 5.403406143 -0.6691192389
-1.000450969 5.527052879 -0.4876981676
-0.9973745942 5.521051407 -0.291826427
-0.9962887168 5.52606535 -0.09731282294
-1.005819798 5.518240929 0.09720810503
-1.001616478 5.506073475 0.2910937071
-1.002171755 5.51459074 0.4866522849
-0.9923858047 5.471598625 0.6776501536
-0.9842946529 5.437795639 0.8685758114
-0.9903293848 5.476588249 1.073554277
-0.9781106114 5.419820786 1.261522055
-0.9747351408 5.41193819 1.461861968
-0.4970720112 2.779301882 -0.7449332476
-0.8625292182 4.837312222 -0.9468570352
-0.8715993762 4.898086548 -0.7812853456
-0.9695491791 5.459562778 -0.6757002473
-0.9776701331 5.510893345 -0.4859549999
-0.978094995 5.524499416 -0.291826427
-0.977342248 5.531478405 -0.09734772146
-0.9872560501 5.52565527 0.09727791697
-0.9834436178 5.515434742 0.2914077342
-0.9822183847 5.5141325 0.4863036573
-0.9739764929 5.478938103 0.67813766
-0.9656508565 5.443143845 0.8688886166
-0.9712076187 5.480011463 1.073554277
-0.9588451982 5.421283722 1.261072278
-0.9544959068 5.407697678 1.459791541
-0.4810307622 2.744866133 -0.7350981832
-0.8476644754 4.85189724 -0.9491468072
-0.85551548 4.906937122 -0.7822239399
-0.9528662562 5.476603985 -0.6774064302
-0.9584286809 5.514272213 -0.4859549999
-0.9611955285 5.541655064 -0.2925591469
-0.9580262899 5.534856796 -0.09734772146
-0.9672707319 5.525127888 0.09720810503
-0.9638399482 5.516867161 0.2913030684
-0.9595376253 5.497900486 0.4845605493
-0.9562064409 5.490127563 0.6791125536
-0.9466459751 5.446481228 0.8688886166
-0.9507281184 5.475631714 1.072027802
-0.9419129491 5.436118126 1.263771653
-0.9329816699 5.395768166 1.455650449
-0.4727542996 2.754144192 -0.7371687293
-0.8307217956 4.854826927 -0.9491468072
-0.8363879323 4.898210049 -0.7803467512
-0.9340781569 5.481853485 -0.6776501536
-0.9391729832 5.517584801 -0.4859549999
-0.9398400187 5.53316164 -0.2919311225
-0.9376963973 5.532252789 -0.09724301845
-0.9469658136 5.522557735 0.09710339457
-0.9465963244 5.532010078 0.2919311225
-0.9430271983 5.516927242 0.4859549999
-0.9363673329 5.489517689 0.6786250472
-0.9286214113 5.45559454 0.8698272705
-0.9302909374 5.471175194 1.070501447
-0.923582077 5.44321537 1.264671445
-0.9154323936 5.406610489 1.457720995
-0.4644176662 2.763398409 -0.7392392755
-0.8163661957 4.873187065 -0.9521996975
-0.8215657473 4.914737701 -0.7825368047
-0.9129761457 5.473332405 -0.6761876941
-0.9205633998 5.524759769 -0.4863036573
-0.9178977609 5.520647049 -0.2910937071
-0.920017004 5.54535532 -0.0974175334
-0.9283434749 5.529774666 0.09717320651
-0.9253014922 5.523461819 0.2913030684
-0.9231047034 5.516255856 0.4856064022
-0.9116426706 5.459467411 0.6744815111
-0.9105473161 5.464648724 0.8707658648
-0.912155509 5.480199337 1.071646214
-0.9029808044 5.436793804 1.262421966
-0.8965528011 5.409772873 1.457720995
-0.4553964138 2.768815041 -0.7402745485
-0.7987141013 4.872132778 -0.9514365196
-0.8050416112 4.921474934 -0.7831625938
-0.8938661814 5.476485729 -0.6761876941
-0.9031975865 5.539738178 -0.48734954
-0.8992642164 5.527760506 -0.2913030684
-0.8996917605 5.542611599 -0.09731282294
-0.9093606472 5.534954071 0.09720810503
-0.9047214389 5.518774509 0.2908844054
-0.9057767391 5.531241417 0.4866522849
-0.8941791654 5.472412109 0.6757002473
-0.8914677501 5.467793465 0.8707658648
-0.8936501741 5.487225056 1.072409391
-0.883060813 5.43414259 1.261072278
-0.8788990378 5.420497417 1.459791541
-0.4500254393 2.797090292 -0.7475214601
-0.7339369655 4.571904182 -1.059066176
-0.7804623246 4.867136478 -0.9499100447
-0.7897287011 4.935958862 -0.7850397825
-0.8753686547 5.483493805 -0.6766752005
-0.8825984001 5.534986973 -0.4866522849
-0.8818445802 5.542700291 -0.2919311225
-0.876894176 5.523993492 -0.09692887217
-0.8906676173 5.542043686 0.09727791697
-0.8867205381 5.52978611 0.2913030684
-0.885201633 5.526500225 0.4859549999
-0.8757016659 5.479420185 0.6761876941
-0.8711304665 5.463068962 0.8695144057
-0.874494493 5.490310669 1.072409391
-0.8640853167 5.437191963 1.261072278
-0.8593686223 5.419716358 1.458756328
-0.4432603419 2.817728043 -0.7526978254
-0.7161616683 4.562887669 -1.056366801
-0.7646831274 4.877589226 -0.9514365196
-0.7724952698 4.93868494 -0.7850397825
-0.8568331003 5.490438938 -0.6771626472
-0.8614322543 5.526222706 -0.4856064022
-0.8624901772 5.545745373 -0.2919311225
-0.859444797 5.538877487 -0.09713830054
-0.8713154197 5.545119762 0.09727791697
-0.8667923808 5.5289011 0.2910937071
-0.8637459874 5.515778065 0.4847348332
-0.8571810126 5.486366272 0.6766752005
-0.850231111 5.45436573 0.8676371574
-0.8547189236 5.489449978 1.071646214
-0.846298337 5.447877407 1.262871861
-0.8392601013 5.415047169 1.456685662
-0.4263774455 2.773432016 -0.7402745485
-0.7014103532 4.573064804 -1.058166385
-0.7494350076 4.89187336 -0.9537262321
-0.7552499771 4.941351891 -0.7850397825
-0.8376664519 5.493395329 -0.6771626472
-0.8433353901 5.537074566 -0.4863036573
-0.8413301706 5.536874294 -0.2913030684
-0.8407031298 5.545797825 -0.09720810503
-0.8501368165 5.536267281 0.0970684886
-0.848696053 5.539791107 0.2915124297
-0.8478059173 5.540423393 0.4866522849
-0.8374242783 5.485400677 0.6761876941
-0.8335646391 5.472922802 0.8701400757
-0.8337788582 5.480754852 1.069356561
-0.8290295601 5.462358475 1.265571237
-0.8209351301 5.42176342 1.457720995
-0.4172667563 2.778724432 -0.7413098216
-0.6854462624 4.575484753 -1.058166385
-0.7340987325 4.906108379 -0.9560158849
-0.7385835648 4.947865009 -0.7856655121
-0.8178995848 5.492359638 -0.6766752005
-0.8240007758 5.539984703 -0.4863036573
-0.8219963312 5.539777279 -0.2913030684
-0.822219193 5.554632664 -0.09731282294
-0.8308048844 5.53920126 0.0970684886
-0.8287634254 5.538768768 0.2913030684
-0.8284596205 5.543349266 0.4866522849
-0.8162235618 5.474546432 0.6744815111
-0.8156166077 5.483615875 0.871391654
-0.8163744807 5.495283604 1.071646214
-0.8076704741 5.449798107 1.26197207
-0.8025683165 5.428418159 1.458756328
-0.406443119 2.772518635 -0.7392392755
-0.6711613536 4.589418888 -1.060865879
-0.7169674039 4.908640862 -0.9560158849
-0.7230153084 4.962141514 -0.7875427008
-0.7981527448 5.491251945 -0.6761876941
-0.8063788414 5.554656982 -0.48734954
-0.8035138249 5.548542976 -0.2916170955
-0.8040822148 5.559307575 -0.09734772146
-0.811465621 5.542067528 0.0970684886
-0.8086585999 5.52962923 0.2906750441
-0.8102562428 5.554092884 0.48734954
-0.8016812801 5.5087924 0.6783813238
-0.7957265973 5.474560261 0.8695144057
-0.7977492809 5.50198555 1.072409391
-0.7880879641 5.448726177 1.261072278
-0.7851134539 5.434874058 1.459791541
-0.3967646658 2.773920059 -0.7392392755
-0.6686145067 4.680360794 -1.081561327
-0.6992781162 4.907226562 -0.955252707
-0.7079466581 4.974290848 -0.7891070843
-0.780495286 5.497799397 -0.6766752005
-0.7853069901 5.545601845 -0.4863036573
-0.7848284841 5.549199104 -0.2915124297
-0.7827148438 5.548220158 -0.09710339457
-0.7953492403 5.560564041 0.09734772146
-0.7910428643 5.54428196 0.2913030684
-0.7897396088 5.548997879 0.4866522849
