# .PCD v0.7 - Point Cloud Data file format
VERSION 0.7
FIELDS x y z
SIZE 4 4 4
TYPE F F F
COUNT 1 1 1
WIDTH 1226
HEIGHT 1
VIEWPOINT 0 0 0 1 0 0 0
POINTS 1226
DATA ascii
-3.768166304 0.5894054174 0.4631600678
-3.81627965 0.598295033 0.60514009
-3.899942875 0.6121095419 0.7591009736
-3.619354725 0.5693647861 0.835914731
-3.802244425 0.5994954705 1.019799113
-1.227706432 0.1953281164 -0.3215053082
-1.247294188 0.1986680478 -0.2816352844
-1.250053406 0.199554652 -0.2378108203
-1.3000983 0.2080090493 -0.2018519938
-1.331526875 0.2132757902 -0.1604366004
-3.618004322 0.5808058977 -0.3168728948
-3.596859694 0.57869941 -0.1887246072
-3.604992867 0.5806533694 -0.06303629279
-3.36295557 0.5362499356 0.1762686372
-3.842695236 0.6141245961 0.3367443979
-3.809209347 0.6094539165 0.4685223103
-3.820019484 0.6125519872 0.6060786843
-3.909303665 0.6282677054 0.761390686
-3.621091604 0.5832463503 0.8368145227
-3.802036524 0.6130708456 1.02031672
-1.207949281 0.1965104938 -0.316328913
-1.231171012 0.2007293701 -0.2780360878
-1.235785961 0.2017031908 -0.2351394892
-1.260375023 0.2061682492 -0.1955946088
-1.322900414 0.2168704271 -0.1594616324
-3.612554789 0.5941686034 -0.1896666437
-3.571374178 0.5880348086 -0.06247781962
-3.714500904 0.6049444675 0.06499096751
-3.57395649 0.5826956034 0.1875732094
-3.836595535 0.626891911 0.3363957703
-3.824580908 0.6262994409 0.4707159996
-3.819807291 0.6262022853 0.6063916087
-3.899337769 0.6406377554 0.7598642111
-3.622879505 0.5965152979 0.8377143741
-3.799872875 0.6263397336 1.02031672
-1.2034446 0.2000921518 -0.3152936697
-1.217042446 0.2025713027 -0.2748867571
-1.233137846 0.2056929618 -0.2347578704
-1.226561546 0.2048157603 -0.190275833
-1.28693223 0.2153587341 -0.1550743431
-3.590867519 0.602838397 -0.1886199266
-3.583103418 0.6028209329 -0.06272215396
-3.722337246 0.6188988686 0.06516548991
-3.733448505 0.6220855117 0.1961563081
-3.830453634 0.6396232247 0.3360471725
-3.826398849 0.6396325827 0.4712034464
-3.794219732 0.635614872 0.6026371717
-3.889446974 0.6522653103 0.7583377957
-3.624725103 0.6091719866 0.8386141658
-3.801473618 0.6402416825 1.021352053
-1.200869799 0.2037584037 -0.3147760034
-1.20095861 0.2042050511 -0.2712875307
-1.232448936 0.2097805291 -0.2347578704
-1.218050122 0.2077674419 -0.189024359
-1.231384754 0.210484311 -0.148249656
-3.588741541 0.6153684258 -0.1886199266
-3.594881058 0.617067039 -0.0629664883
-3.769440651 0.64026016 0.06603810936
-3.731365204 0.6344628334 0.1961563081
-3.847952366 0.6556687355 0.3377902806
-3.808488607 0.6503133178 0.46925354
-3.821298122 0.6531860828 0.6073302031
-3.891016245 0.6665019989 0.7591009736
-3.618735313 0.6211616397 0.8377143741
-3.808849335 0.6544802785 1.023940206
-1.200151205 0.2079493105 -0.3147760034
-1.19835484 0.2078534663 -0.2708376348
-1.210432291 0.2103835344 -0.2305600643
-1.199839234 0.2087581009 -0.1862085611
-1.220902085 0.2128618807 -0.1470309645
-1.756899953 0.306943953 -0.1523228586
-3.578811646 0.6258896589 -0.1882012486
-3.602553368 0.6313386559 -0.0631410107
-3.783059597 0.6554879546 0.06631734967
-3.729127884 0.6474830508 0.1961563081
-3.835825443 0.6673890948 0.3369187117
-3.794577599 0.6608937979 0.4677911103
-3.822886705 0.6672002077 0.6079559326
-3.892652988 0.6800764799 0.7598642111
-3.60705781 0.6314783096 0.8354648352
-3.802735806 0.667103231 1.022904992
-1.193747997 0.2109193951 -0.3132230937
-1.197621942 0.2120349854 -0.2708376348
-1.201995611 0.2130259722 -0.2290336043
-1.201048255 0.2132904828 -0.1865214258
-1.208425283 0.2150356919 -0.1455685347
-1.736203313 0.3095774353 -0.1505797356
-3.586436033 0.6401329637 -0.1887246072
-3.576706171 0.6396846175 -0.06272215396
-3.772871971 0.6672962904 0.06617773324
-3.726844788 0.6604971886 0.1961563081
-3.833591461 0.6801056266 0.3369187117
-3.802019596 0.675873518 0.4690097868
-3.806921244 0.6781157255 0.6057658792
-3.901851892 0.6957280636 0.7621539831
-3.602913141 0.6437227726 0.8350149393
-3.79658103 0.6796924472 1.021869659
-1.145438194 0.206715852 -0.3002821207
-1.198792219 0.216560632 -0.2712875307
-1.197342873 0.2167306989 -0.2282703668
-1.202202082 0.2180436552 -0.1868342906
-1.207667232 0.2192525864 -0.1455685347
-3.591924906 0.6547062397 -0.1891432852
-3.584287643 0.6539604664 -0.06289667636
-3.77248764 0.6808162928 0.06621263176
-3.728447199 0.674213171 0.1963656545
-3.815389395 0.6913093328 0.3355242312
-3.819169283 0.6926836371 0.4714471698
-3.804530859 0.6914003491 0.6057658792
-3.887686729 0.7079142332 0.7598642111
-3.612032175 0.6590225101 0.8377143741
-3.788484097 0.6918997765 1.02031672
-1.178826213 0.2174187005 -0.2667885125
-3.585690498 0.6665104628 -0.1889339536
-3.585798502 0.66782552 -0.0629664883
-3.752267599 0.691378355 0.06589849293
-3.731843472 0.6889610887 0.1966796666
-3.803156614 0.7028140426 0.3346526623
-3.787326336 0.7012549043 0.4677911103
-3.788375378 0.7028177977 0.6035757661
-3.877471209 0.7200458646 0.7583377957
-3.60970974 0.6716269851 0.8377143741
-3.785922527 0.7057806253 1.02031672
-1.776175618 0.333686024 -0.4726556242
-3.50690937 0.6594676971 -0.8138694763
-3.553377628 0.6694911122 -0.6946075559
-3.549335241 0.6700124145 -0.5654057264
-3.576018572 0.6756958365 -0.4417110682
-1.803283334 0.3413859308 -0.1568549573
-3.567525387 0.6766698956 -0.188096568
-3.587374687 0.6810842752 -0.06303629279
-3.710525036 0.6970877647 0.06520039588
-3.705862284 0.6975501776 0.195423618
-3.790766001 0.7149015665 0.3337811232
-3.771200418 0.7118942142 0.4660849273
-3.805308819 0.7197075486 0.6067044139
-3.863232136 0.732060492 0.7560480833
-3.605309248 0.6844892502 0.8372644186
-3.764456987 0.7153850794 1.015140414
-2.456323385 0.4694572389 -0.6584877372
-3.510445118 0.6721930504 -0.8152192235
-3.545472622 0.679541707 -0.6934626698
-3.556912422 0.683021605 -0.5669701099
-3.556214333 0.6841754913 -0.4395174384
-3.57657671 0.689386785 -0.3149554729
-3.573226452 0.689388752 -0.1885152608
-3.573316097 0.6906998158 -0.06282686442
-3.721941471 0.7120187283 0.06544473022
-3.70745182 0.7105874419 0.1956329495
-3.782631159 0.7256819606 0.3332581818
-3.794161558 0.7292662859 0.46925354
-3.791262865 0.7300814986 0.6048272252
-3.864768982 0.7449359894 0.7568113208
-3.597400904 0.6947031021 0.835914731
-3.786720753 0.7326351404 1.021869659
-2.422351599 0.472173661 -0.6496878266
-3.517640829 0.686308682 -0.8174687028
-3.535250902 0.6910255551 -0.6919362545
-3.556323767 0.696434319 -0.5672829747
-3.56744051 0.699256897 -0.4412235916
-3.558507919 0.6987968087 -0.3135609627
-3.568716049 0.7020942569 -0.1884105951
-3.566959381 0.702396214 -0.06275705993
-3.717470646 0.7246230245 0.06540982425
-3.699067831 0.7223770618 0.1953189373
-3.785811901 0.7406879663 0.3337811232
-3.785748482 0.7413625121 0.4685223103
-3.784814358 0.7425504923 0.6042014956
-3.869718313 0.7606107593 0.7583377957
-3.59865427 0.708637476 0.8368145227
-3.791722059 0.7473423481 1.023940206
-2.40742445 0.4779928625 -0.6460644007
-3.518924236 0.6999572515 -0.8183684945
-3.530891657 0.7029783726 -0.691554606
-3.546122074 0.7072975636 -0.566031456
-3.568746805 0.7131063938 -0.4417110682
-3.548232317 0.7096503377 -0.3128637373
-3.560368299 0.7133709788 -0.188096568
-3.564486027 0.7148422003 -0.06275705993
-3.708905697 0.7370740771 0.06530510634
-3.710236311 0.7380115986 0.1960516423
-3.787111282 0.7546772361 0.3341297209
-3.816099405 0.7618388534 0.4726658762
-3.768639565 0.7530489564 0.6020113826
-3.859339476 0.772572577 0.7568113208
-3.609534025 0.7238763571 0.8399638534
-3.762573004 0.7552508116 1.016693354
-2.400060892 0.4852449596 -0.6445114613
-3.5127635 0.7108497024 -0.8174687028
-3.541885138 0.7180297971 -0.6942259073
-3.532141924 0.7166963816 -0.5641542673
-3.558581352 0.7233544588 -0.440736115
-3.54573369 0.7220317125 -0.3128637373
-3.552112103 0.7239763141 -0.1877825558
-3.571765184 0.7292805314 -0.06293158233
-3.710361481 0.7501619458 0.06537491828
-3.709594727 0.7513548136 0.1961563081
-3.778596163 0.7667036653 0.3336067796
-3.790207386 0.7697484493 0.4697410166
-3.789216995 0.7709245086 0.6057658792
-3.852908611 0.7845830321 0.7560480833
-3.614751101 0.7374001741 0.8417634368
-3.73530817 0.7633525729 1.009963989
-2.409791946 0.4955359995 -0.6476173401
-3.502626181 0.7215346098 -0.8156691194
-3.529870272 0.7277890444 -0.6923178434
-3.533487558 0.7298206687 -0.5647799969
-3.552146912 0.7349675298 -0.4402486384
-3.539417744 0.7329779267 -0.3125151098
-3.539785147 0.7343426347 -0.1872591972
-3.56724 0.7413370609 -0.06289667636
-3.739058495 0.7695580125 0.06593339145
-3.712817907 0.7655091882 0.1964703351
-3.783838272 0.7808396816 0.3343040347
-3.804993629 0.786591053 0.4719346762
-3.794239998 0.7857490778 0.6070173383
-3.85783577 0.799621284 0.7575744987
-3.608339071 0.7492213249 0.8408636451
-3.776122332 0.7854350209 1.021869659
-2.408047676 0.5039442182 -0.6476173401
-2.580777645 0.541033268 -0.5988163352
-2.605029583 0.5465914011 -0.5091412067
-3.534784794 0.7429631352 -0.5654057264
-3.545674562 0.7465444207 -0.4397611618
-3.552434444 0.7486151457 -0.31390962
-3.545017242 0.7483446002 -0.1876778901
-3.560717344 0.7529580593 -0.06282686442
-3.7774508 0.7912151814 0.06666639447
-3.698395252 0.7760031223 0.1958422959
-3.798637867 0.7977292538 0.335872829
-3.790569305 0.7974154353 0.4704722464
-3.785675526 0.7977667451 0.6060786843
-3.870389462 0.8163233399 0.7606275082
-3.598075151 0.7602009177 0.839064002
-3.756348133 0.7950105071 1.01721096
-2.398715734 0.5107375383 -0.6455467343
-2.597932339 0.5541029572 -0.6033153534
-2.595425606 0.5540425777 -0.5076147318
-3.539896727 0.7569488883 -0.5666572452
-3.53528285 0.7572535872 -0.4387862086
-3.542006969 0.759339571 -0.3132123649
-3.538477659 0.759875834 -0.1874685436
-3.550381184 0.7630793452 -0.06268724799
-3.79031229 0.8077304959 0.06694563478
-3.70361495 0.7899298072 0.1962609887
-3.797778606 0.8114005327 0.3360471725
-3.797468185 0.8127202392 0.471690923
-3.765625 0.8065926433 0.6032629013
-3.867516279 0.8298295736 0.7606275082
-3.595399857 0.772755146 0.839064002
-3.757468224 0.808275342 1.018246174
-2.387477875 0.5170636177 -0.6429585218
-2.594175816 0.5623022318 -0.6028653979
-2.595394373 0.5635155439 -0.5079963803
-3.521924496 0.7653278112 -0.5641542673
-3.540510654 0.7706617713 -0.4397611618
-3.527654648 0.7691531181 -0.3121664822
-3.541792631 0.7728832364 -0.1877825558
-3.541834831 0.7741877437 -0.06258253008
-3.799339533 0.8228349686 0.06715506315
-3.70083499 0.8028531075 0.1962609887
-3.783241272 0.8221129775 0.3350012898
-3.798631668 0.8261516094 0.4721783996
-3.772437334 0.8218337893 0.6048272252
-3.860906839 0.8418138027 0.7598642111
-3.596625328 0.7855054736 0.8399638534
-3.764060259 0.8234508634 1.020834446
-2.380090237 0.5237320662 -0.6414057016
-2.567457438 0.5659012794 -0.5970166922
-2.583925724 0.570004642 -0.5060882568
-3.511516094 0.7759122252 -0.5629028082
-3.545552254 0.7847309709 -0.440736115
-3.536619425 0.784049809 -0.3132123649
-3.529324055 0.783077836 -0.1872591972
-3.543014765 0.7874140739 -0.06265234202
-3.792538404 0.835231185 0.06708525866
-3.869641781 0.8536289334 0.2054721117
-3.784385681 0.8355133533 0.3353499174
-3.786033392 0.8372641206 0.4709596932
-3.767616749 0.834569931 0.6045143604
-3.84644413 0.8527362943 0.7575744987
-3.597666264 0.7989002466 0.8408636451
-3.768705606 0.8382627368 1.022904992
-2.38946557 0.5349844694 -0.6445114613
-2.554056883 0.5723033547 -0.5943172574
-2.59331274 0.5820503831 -0.5083779693
-3.51057601 0.7892107368 -0.563215673
-3.531171083 0.794488132 -0.4392736852
-3.53386116 0.796389401 -0.3132123649
-3.53422308 0.7977681756 -0.1876778901
-3.551948071 0.8024207354 -0.06286177039
-3.797405243 0.8502121568 0.06722487509
-3.708781719 0.8317295313 0.1969936937
-3.785185814 0.8502516747 0.335698545
-3.779214382 0.8496031761 0.4704722464
-3.770461798 0.8490191102 0.6054529548
-3.847123384 0.8676915765 0.7583377957
-3.598515272 0.8129407167 0.8417634368
-3.769525528 0.8522641063 1.023940206
-2.395118475 0.5450367332 -0.646582067
-2.548142195 0.5807945132 -0.5934174657
-2.581694841 0.5889161825 -0.5064698458
-3.509725332 0.8019001484 -0.5635285378
-3.516625166 0.8047682643 -0.4378112257
-3.531059742 0.8087201118 -0.3132123649
-3.531416655 0.8101001382 -0.1876778901
-3.543278694 0.8134713769 -0.06275705993
-3.823509932 0.8707854748 0.06774844229
-3.694171906 0.8420075178 0.1963656545
-3.797733784 0.8670068383 0.3370930254
-3.779945374 0.8643340468 0.4709596932
-3.771326542 0.8630558848 0.6060786843
-3.840243816 0.8802380562 0.7575744987
-3.580461264 0.8220077753 0.8381642103
-3.770292997 0.8662832379 1.024975538
-2.378144026 0.5499115586 -0.6424409747
-2.54810071 0.5896807909 -0.5938673615
-2.566235781 0.5948213339 -0.5037985444
-3.514743805 0.8153200746 -0.5647799969
-3.510069847 0.815527916 -0.4373237491
-3.51657176 0.81833148 -0.3121664822
-3.522875547 0.8204473853 -0.1873638779
-3.518995762 0.8208380342 -0.06237310171
-3.838136196 0.8875138164 0.06806258857
-3.675643921 0.8512923717 0.1955282837
-3.798566341 0.8811587691 0.337441653
-3.790593863 0.8800065517 0.4726658762
-3.766366959 0.8757677078 0.6057658792
-3.848776817 0.895637989 0.7598642111
-3.581511259 0.8347613215 0.839064002
-3.763483524 0.8785604835 1.023940206
-2.368784428 0.5560289621 -0.640370369
-2.555511951 0.6008017659 -0.5961169004
-2.562338114 0.6028778553 -0.5034168959
-3.481113195 0.8203344941 -0.5597741008
-3.50333786 0.8268625736 -0.4368363023
-3.48475337 0.823118329 -0.3095518053
-3.50638485 0.8295201063 -0.1866311729
-3.504434109 0.8303512335 -0.06216367334
-3.831120968 0.8999923468 0.06799277663
-3.688203573 0.8677762747 0.1963656545
-3.780108452 0.8900972605 0.3360471725
-3.797159672 0.8955103755 0.4738845825
-3.751752138 0.8861849904 0.6038886309
-3.837984562 0.9072617292 0.7583377957
-3.582368374 0.8481560946 0.8399638534
-3.75287509 0.889908433 1.021869659
-2.366828918 0.564294219 -0.640370369
-2.551503658 0.6092653275 -0.595666945
-2.564036846 0.6127316952 -0.5041801333
-3.472465277 0.8311007023 -0.5588355064
-3.500430107 0.8390865922 -0.4368363023
-3.481859207 0.8352766633 -0.3095518053
-3.49958396 0.8408215046 -0.1864218116
-3.513179779 0.8453852534 -0.06237310171
-3.829901457 0.9138242006 0.0680276826
-3.689037085 0.8815746903 0.1965750009
-3.784729242 0.905140698 0.3367443979
-3.797871351 0.9096852541 0.4743720591
-3.7601614 0.9020396471 0.6057658792
-3.825248957 0.9183608294 0.7564296722
-3.590754271 0.8633893132 0.8426632285
-3.736598492 0.8998370171 1.018246174
-2.372354984 0.5743715763 -0.6424409747
-2.537998438 0.6154127717 -0.5929675698
-2.567605734 0.623067081 -0.5053250194
-3.475301504 0.8446164131 -0.5597741008
-3.493622541 0.8503606319 -0.4363488257
-3.492472887 0.8507272601 -0.3107720017
-3.488866091 0.8511388898 -0.1860031337
-3.516034842 0.8590673208 -0.06247781962
-3.820857763 0.9257739782 0.06792297214
-3.689819098 0.8953885436 0.1967843473
-3.781546831 0.918345511 0.3367443979
-3.763811111 0.9154307246 0.4704722464
-3.760828018 0.9160955548 0.6063916087
-3.820112944 0.9312430024 0.7560480833
-3.580146313 0.8740694523 0.8408636451
-3.740941286 0.9147102237 1.02031672
-2.362831593 0.58080405 -0.640370369
-2.537726879 0.6247347593 -0.5934174657
-2.561602831 0.6310861111 -0.5045617819
-3.468496084 0.855796814 -0.5591483712
-3.479070187 0.8596933484 -0.4348863661
-3.493350029 0.8638697863 -0.3111206293
-3.481996536 0.8623511195 -0.1857938021
-3.499428749 0.8679656982 -0.06223348528
-3.831195354 0.9424493909 0.06816729903
-3.671157122 0.904440105 0.1959469765
-3.795728445 0.9358325601 0.3383132219
-3.791428089 0.9361772537 0.4743720591
-3.75377202 0.9282695055 0.6057658792
-3.832084656 0.9483451247 0.7591009736
-3.569507122 0.8846860528 0.839064002
-3.752724886 0.9314861894 1.024457812
-2.355166912 0.5876454115 -0.6388174891
-2.541202545 0.6350060701 -0.5947671533
-2.555575371 0.6390714645 -0.5037985444
-3.469320059 0.8688588142 -0.5597741008
-3.479898691 0.8727990389 -0.4353738427
-3.482583046 0.8741183877 -0.3104233742
-3.477028131 0.8740143776 -0.1856891215
-3.4866817 0.8777340651 -0.06205896288
-3.824002266 0.9548482895 0.06809749454
-3.683478355 0.9211256504 0.1967843473
-3.788572788 0.948110044 0.3379645646
-3.778509617 0.9469923377 0.4731533825
-3.733265162 0.9370388985 0.6029500365
-3.819230795 0.9593236446 0.7571929097
-3.56639719 0.8971406817 0.839064002
-3.738210678 0.9417484999 1.021352053
-2.345610142 0.5939660072 -0.6367468834
-2.542748213 0.6448307633 -0.595666945
-2.562843561 0.6504029036 -0.5057066679
-3.479667902 0.8843690157 -0.5619641542
-3.490297079 0.8883684874 -0.4370800555
-3.487234116 0.8882360458 -0.3111206293
-3.501050234 0.8930574656 -0.1871545315
-3.495221138 0.8928700686 -0.06226839125
-3.836153269 0.9721205235 0.06837673485
-3.68411231 0.9349604845 0.1969936937
-3.765929222 0.9564245939 0.3362214565
-3.788647652 0.9636012912 0.4748595357
-3.733800411 0.9510391355 0.6035757661
-3.793029785 0.9668313861 0.7526135445
-3.574573278 0.9124755263 0.8417634368
-3.733029127 0.9543132186 1.020834446
-2.352878094 0.6045534015 -0.6393350959
-2.532932997 0.6517602801 -0.5938673615
-2.587174416 0.6661995649 -0.5110492706
-3.472733736 0.8955235481 -0.5613384247
-3.496785164 0.9030274749 -0.438298732
-3.480254412 0.8994064331 -0.3107720017
-3.497911692 0.9052721858 -0.1871545315
-3.494018793 0.90556705 -0.06230329722
-3.821116209 0.9825174809 0.06816729903
-3.680825949 0.9478156567 0.1969936937
-3.776073694 0.973043859 0.337441653
-3.7929492 0.9788053036 0.4758344889
-3.730458021 0.9640668035 0.6035757661
-3.702198505 0.9574540257 0.7350590825
-3.575139284 0.9259247184 0.8426632285
-3.733415127 0.9683073163 1.021869659
-2.350753307 0.6127634048 -0.6393350959
-2.526871443 0.6596129537 -0.5929675698
-2.584833622 0.6752258539 -0.5110492706
-3.473408937 0.9086401463 -0.5619641542
-3.489771128 0.914222002 -0.4378112257
-3.480947733 0.9125607014 -0.3111206293
-3.479275942 0.9134195447 -0.1863171607
-3.51017642 0.9228416085 -0.06265234202
-3.827338219 0.9983735085 0.06834182888
-3.681360245 0.9616671801 0.1972030252
-3.782292128 0.9887384772 0.3383132219
-3.77798748 0.9890221357 0.4743720591
-3.740445375 0.9805902839 0.6057658792
-3.759601831 0.9863126278 0.7472708225
-3.571885347 0.9383996129 0.8426632285
-3.748695374 0.9862488508 1.027046084
-2.348599911 0.6209654212 -0.6393350959
-2.524553537 0.66843009 -0.5929675698
-2.572972059 0.6817304492 -0.5091412067
-3.470216036 0.9207591414 -0.5619641542
-3.479045868 0.9237519503 -0.4368363023
-3.487368822 0.9272649884 -0.3119921684
-3.472206354 0.924531281 -0.1861078143
-3.491638899 0.9303579926 -0.06237310171
-3.837362289 1.01530695 0.06858616322
-3.662704945 0.9697803259 0.1963656545
-3.796150208 1.006530881 0.3398820162
-3.786023617 1.005260348 0.4758344889
-3.740991354 0.9940024018 0.6063916087
-3.765622139 1.001954198 0.749178946
-3.5612216 0.9482329488 0.8408636451
-3.737937689 0.996683836 1.024975538
-2.339063883 0.62675035 -0.6372645497
-2.524204969 0.677302599 -0.5934174657
-2.559320688 0.6872044206 -0.5068514943
-3.467143536 0.9322618842 -0.5619641542
-3.462544918 0.9316734076 -0.4351301193
-3.468884468 0.9346776605 -0.310597688
-3.453784227 0.9325488806 -0.0617448166
-3.845562935 1.031134009 0.06879559159
-3.667185307 0.9839906096 0.1967843473
-3.7831707 1.016528845 0.3390104473
-3.778835535 1.016778231 0.4753470123
-3.726229906 1.003321052 0.6045143604
-3.79450345 1.023124933 0.7556664944
-3.548650026 0.9574990869 0.8386141658
-3.72342205 1.006050467 1.021869659
-2.335108042 0.6339973807 -0.6367468834
-2.538869619 0.6902709603 -0.597466588
-2.564605236 0.6977493167 -0.5083779693
-3.462127209 0.9432343245 -0.5616513491
-3.48624897 0.9504605532 -0.4385424554
-3.469610214 0.9472246766 -0.3109463155
-3.485263824 0.9528063536 -0.1871545315
-3.469961166 0.9492738247 -0.06209386885
-3.830543995 1.04073596 0.06858616322
-3.671611309 0.9982420802 0.1972030252
-3.768244505 1.025928497 0.3379645646
-3.79076457 1.033481002 0.4772969186
-3.728599548 1.01723206 0.6054529548
-3.794877291 1.036737204 0.7564296722
-3.552974463 0.9713171124 0.8404137492
-3.720065117 1.018392324 1.021869659
-2.32926774 0.6407122612 -0.6357116699
-2.530930281 0.6971339583 -0.5961169004
-2.566062927 0.7072929144 -0.5091412067
-3.451363564 0.9526077509 -0.5603998303
-3.479250908 0.9609593153 -0.4380549788
-3.470290422 0.9597874284 -0.3112949133
-3.4743855 0.96222651 -0.1867358387
-3.468721151 0.9613087177 -0.06212876737
-3.819359541 1.051310182 0.06844653934
-3.679833889 1.013594627 0.1978310645
-3.776345491 1.041597605 0.3390104473
-3.791143179 1.047103047 0.4777843952
-3.738533735 1.03327477 0.6076430678
-3.781957865 1.046697617 0.7545216084
-3.55724597 0.9851745963 0.8422133923
-3.718528986 1.031239271 1.022387266
-2.3287642 0.649764359 -0.6362292767
-2.528357983 0.7064062357 -0.5961169004
-2.571016312 0.7188078165 -0.5106676817
-3.440239668 0.9631220102 -0.5591483712
-3.448776245 0.9668092132 -0.4346426427
-3.460994244 0.9708867669 -0.3107720017
-3.447761536 0.968472898 -0.1854797751
-3.445754528 0.9692059159 -0.06177972257
-3.80777669 1.063149929 0.06830692291
-3.666297674 1.025027871 0.1973077059
-3.778259277 1.057041168 0.3395333886
-3.760519266 1.0534935 0.4743720591
-3.742146492 1.049756289 0.608894527
-3.779986382 1.061081767 0.7549031973
-3.557188988 0.9998808503 0.843113184
-3.720120907 1.04708004 1.023940206
-2.335777044 0.6605177522 -0.6388174891
-2.529626846 0.7162888646 -0.5970166922
-2.560935736 0.7256370783 -0.5091412067
-3.440657854 0.9762024283 -0.5597741008
-3.443470478 0.9783001542 -0.4343989193
-3.465250015 0.9851405621 -0.3114692271
-3.442350388 0.9812280536 -0.06177972257
-3.723227978 1.053568006 0.06684091687
-3.658853769 1.036730409 0.1970983595
-3.755378008 1.064789414 0.3377902806
-3.772095919 1.070951223 0.4763219655
-3.734659672 1.061731339 0.6082687974
-3.770594358 1.072658539 0.7537583113
-3.538683891 1.008019924 0.8395139575
-3.723873854 1.062178969 1.026010752
-2.32045722 0.6649420261 -0.6351940036
-2.528984308 0.7256520987 -0.597466588
-2.556500196 0.7340303063 -0.5087596178
-3.480894089 1.000760317 -0.5669701099
-3.497263432 1.006788373 -0.4417110682
-3.488593817 1.004951835 -0.31390962
-3.467782736 1.000267863 -0.1869451702
-3.490775585 1.008220792 -0.06272215396
-3.684616089 1.05863452 0.3316893876
-3.672948837 1.056671262 0.464135021
-3.694864988 1.064371943 0.602324307
-3.725325108 1.073851705 0.7453627586
-3.537015915 1.020906568 0.8399638534
-3.660755396 1.058006406 1.009446383
-2.310701132 0.6708833575 -0.6331234574
-2.535792351 0.7371955514 -0.5997161269
-2.559577942 0.7445949316 -0.5099044442
-3.530483246 1.028373241 -0.575730443
-3.545181751 1.033997178 -0.448292017
-3.542442322 1.033869028 -0.3191389441
-3.558206797 1.039817929 -0.1920741051
-3.540973186 1.036123395 -0.06369948387
-3.721071005 1.083183885 0.3353499174
-3.743563652 1.091148973 0.4736408293
-3.710089684 1.082797289 0.6054529548
-3.729092598 1.089049697 0.7468892336
-3.548393965 1.037623405 0.8435630798
-3.67928791 1.077292681 1.015658021
-2.323172092 0.6833061576 -0.6372645497
-2.52946496 0.7449411154 -0.5988163352
-2.564495564 0.7557448745 -0.5114309192
-3.466244221 1.022801042 -0.5657186508
-3.530128002 1.042991042 -0.4468295872
-3.515883923 1.039449811 -0.3170472085
-3.53731966 1.047129869 -0.1911320686
-3.508757591 1.039340973 -0.06317591667
-3.6160748 1.064268708 0.06509567797
-3.557937384 1.047831774 0.1921787858
-3.514698029 1.03643167 0.3168728948
-3.497944832 1.032818675 0.4426860213
-3.524614334 1.041362047 0.5754175782
-3.452291012 1.021304131 0.691554606
-3.541013241 1.048895478 0.8426632285
-3.43305707 1.017569184 0.9478474259
-2.472590208 0.7366413474 -0.6797109246
-2.523245573 0.7522115707 -0.5979164839
-2.576891899 0.7691844106 -0.5144838691
-3.38523078 1.011110544 -0.552891016
-3.437262297 1.027959347 -0.4353738427
-3.393897533 1.016281247 -0.306239903
-3.457298756 1.035923839 -0.1869451702
-3.403594494 1.021126986 -0.06132595986
-3.412627935 1.017997146 0.1844330579
-3.337334871 0.9968047738 0.3010105491
-3.306206226 0.9881365895 0.4185558856
-3.428227425 1.025908232 0.5600869656
-3.313471317 0.9921981096 0.6640781164
-3.487116098 1.045521379 0.8305159211
-3.294414043 0.9889979959 0.9100598097
-2.529320717 0.7626838684 -0.6962752938
-2.524335623 0.762141943 -0.5988163352
-2.572447538 0.7771577239 -0.5141022205
-3.40626049 1.030357122 -0.5569583178
-3.420354128 1.035922647 -0.4336676896
-3.340933323 1.012505889 -0.3017078042
-3.283564329 0.9963703156 -0.1776293814
-3.246942282 0.9864963293 -0.05853357166
-3.277547598 0.9889250994 0.05905715004
-3.284778833 0.992358923 0.1776293814
-3.234839201 0.9778869748 0.2919463515
-3.194438934 0.9668918848 0.4046627879
-3.36413002 1.019535899 0.5500751734
-3.197262049 0.9695741534 0.6411810517
-3.470392704 1.05372417 0.8273665905
-3.192980766 0.9707093835 0.8826249838
-2.522948027 0.7703793049 -0.6952400208
-2.532841206 0.7743675113 -0.6015157104
-2.564087391 0.7844090462 -0.5129573345
-3.41775322 1.046869278 -0.559461236
-3.312335968 1.015844345 -0.4202620685
-3.369759083 1.034098625 -0.3046710789
-3.280066252 1.007826805 -0.1776293814
-3.067640305 0.9437285662 -0.05532233045
-3.134468555 0.9577045441 0.05650909618
-3.130414009 0.9576604962 0.1693602949
-3.120908499 0.9553482533 0.2818363011
-3.111330509 0.9536041021 0.3944257498
-3.602273226 1.105451703 0.5901224017
-3.214502811 0.9870672226 0.645378828
-3.490908384 1.073276639 0.8332153559
-3.508991241 1.08017695 0.972176373
-2.516552448 0.7780402899 -0.6942047477
-2.537569284 0.7855085731 -0.6033153534
-2.56883502 0.7956781387 -0.5144838691
-3.42539835 1.062303066 -0.5613384247
-3.399768114 1.055656195 -0.4319615364
-3.270995617 1.016296506 -0.2959555089
-3.104888201 0.9658761621 -0.1682088971
-2.987957954 0.930645287 -0.05392614007
-3.016484261 0.9331814051 0.05441480875
-3.031660557 0.939035058 0.1641267091
-2.988144875 0.9261288047 0.2699831128
-3.005604029 0.9326891303 0.3812638521
-3.61725688 1.123879671 0.5932510495
-3.199789047 0.9947850108 0.6430891156
-3.526215076 1.097617745 0.8426632285
-3.512576818 1.094718456 0.9742469788
-2.517508268 0.7879740596 -0.6952400208
-2.544109821 0.797275424 -0.6055648327
-2.650341034 0.8310741782 -0.5316566825
-3.417900324 1.073070168 -0.5607126951
-3.130939484 0.9841778278 -0.3978381157
-2.894911766 0.9105401635 -0.2617904842
-2.910995007 0.9167155623 -0.1577417254
-2.858819723 0.9013824463 -0.05162242055
-2.894894361 0.9066497087 0.05225070938
-2.936887741 0.9209273458 0.1591024548
-2.901249647 0.9103084207 0.2623133957
-2.905743837 0.9128335714 0.3688331842
-2.885946989 0.9077204466 0.4724836349
-2.894792557 0.9110586643 0.5816486478
-3.537231445 1.114605308 0.846262455
-2.893393278 0.9128386974 0.8013558388
-2.522108793 0.7990910411 -0.6973105669
-2.524593353 0.8008479476 -0.6015157104
-2.755224466 0.8755964637 -0.4512085319
-2.764288664 0.8795393705 -0.3510402739
-2.792838573 0.8896977305 -0.2527262568
-2.774417877 0.884896338 -0.1504146755
-2.77945447 0.8870372176 -0.05022623017
-2.81546402 0.8925767541 0.05085451901
-2.84608674 0.9033783078 0.1542875469
-2.812602997 0.8932906985 0.2544693947
-2.809844255 0.8934942484 0.356889993
-2.811234236 0.8950167894 0.4605945945
-2.801649094 0.893042326 0.5633309484
-3.527749062 1.125170112 0.8449127674
-2.809216261 0.8970749378 0.7785797715
-2.349931479 0.7540279031 -0.6496878266
-2.519785881 0.8094997406 -0.6010658145
-2.653522491 0.853485465 -0.5335647464
-2.657977343 0.8554302454 -0.435565114
-2.693026781 0.8677485585 -0.3422656655
-2.702335835 0.8717886806 -0.244707942
-2.702735424 0.8729592562 -0.1466464847
-2.707684278 0.8750796318 -0.04896965623
-2.743630886 0.8808833361 0.04959794506
-2.751487494 0.8844652772 0.1492632926
-2.727752447 0.8773609996 0.2469739914
-2.702626228 0.8703203201 0.3434843719
-2.706410646 0.8725818992 0.4436996877
-2.708677053 0.8743571043 0.5450133085
-2.710326433 0.8764566183 0.7516625524
-2.457389832 0.7984542847 -0.6807461381
-2.568690538 0.8356087804 -0.6136630774
-2.613190174 0.8505898118 -0.5259323716
-2.643554688 0.8614947796 -0.4336878955
-2.627701044 0.8568348885 -0.3342222869
-2.619727135 0.8552471995 -0.2373868525
-2.640820265 0.8631527424 -0.1434016526
-2.628587484 0.8596630096 -0.04757346213
-2.67572546 0.8699121475 0.04841117933
-2.670512438 0.8687320352 0.1449717432
-2.650635242 0.8632896543 0.2401758432
-2.640911818 0.8611426353 0.3359284699
-2.605695009 0.8501623273 0.4274305105
-2.629094124 0.8588122725 0.5293669701
-2.611976385 0.8537251353 0.6244606972
-2.615448475 0.8558704853 0.7257806659
-2.568518162 0.8439890742 -0.7128397226
-2.619588375 0.8617827892 -0.6267102361
-2.599165916 0.8555676937 -0.5236426592
-2.633179426 0.8677820563 -0.4324364364
-2.632386208 0.8680306077 -0.3351972401
-2.622552872 0.8658024669 -0.2379097939
-2.637943506 0.8719053268 -0.1434016526
-2.623823881 0.8677471876 -0.04753855988
-2.62913394 0.8644152284 0.0476083681
-2.641055822 0.8688450456 0.1435063332
-2.617479324 0.8621022701 0.2373868525
-2.622959852 0.8649222851 0.3339785635
-2.570971251 0.8482765555 0.4221117496
-2.600132942 0.858904779 0.5240243077
-2.594328642 0.8574895859 0.6208614707
-2.574080706 0.8517939448 0.7149102688
-2.534538984 0.8421458602 -0.7040398717
-2.566790342 0.8538569212 -0.6145628691
-2.570235968 0.8555013537 -0.5183000565
-2.575939417 0.8583986163 -0.4233632088
-2.612392426 0.8715599775 -0.3330036104
-2.60265851 0.8688173294 -0.2363409996
-2.623672009 0.876850009 -0.1427736282
-2.6245718 0.8781692386 -0.0476083681
-2.620560169 0.8712364435 0.04750365391
-2.628531456 0.8749049902 0.1429829746
-2.616496325 0.8714070916 0.2375611663
-2.608778238 0.8698482513 0.3325161338
-2.586731911 0.8635007143 0.4252404273
-2.593546152 0.8662785888 0.5232610703
-2.589471579 0.8659223914 0.6204116344
-2.563764334 0.8583208323 0.7128397226
-2.538908243 0.8534507751 -0.7061104178
-2.537936449 0.8541095257 -0.6082642078
-2.569094658 0.8650951385 -0.5186816454
-2.563567877 0.8642299175 -0.4217988551
-2.592406273 0.8749604225 -0.3308099508
-2.576957941 0.8702468276 -0.2342492491
-2.584646463 0.8738490343 -0.1407848597
-2.598760843 0.8796318769 -0.04718951136
-2.596654415 0.8733658195 0.04711970314
-2.600854635 0.8757897615 0.1416222453
-2.579452991 0.8690837622 0.2344235629
-2.560582638 0.8637219071 0.3266663849
-2.585573435 0.8731563091 0.425553292
-2.590506554 0.8753264546 0.5232610703
-2.584587097 0.8743315935 0.619961679
-2.571731091 0.8709830642 0.7159455419
-2.537742853 0.8629294634 -0.7066280246
-2.534939528 0.8629640341 -0.6082642078
-2.566059351 0.8740571737 -0.5186816454
-2.568013906 0.8757240772 -0.4230503142
-2.587458372 0.8833624125 -0.3305662274
-2.581446171 0.881813705 -0.2349465042
-2.581580639 0.8828652501 -0.1407848597
-2.582431316 0.8841637373 -0.04694517702
-2.576551437 0.8766275644 0.04680555686
-2.56942296 0.8752028942 0.1400521696
-2.583947182 0.8806535006 0.235120818
-2.553794622 0.8713727593 0.3261789382
-2.584378958 0.8828155398 0.4258661568
-2.593008518 0.8862686753 0.5244059563
-2.570456743 0.8795627952 0.6172622442
-2.572330236 0.8812063336 0.7169808149
-2.525581121 0.8686410189 -0.7040398717
-2.542967319 0.8756141663 -0.6109636426
-2.559280157 0.8817300797 -0.5179184079
-2.570543766 0.8866152167 -0.4239889383
-2.571223974 0.8878542185 -0.3288600743
-2.574585915 0.8895180821 -0.2345978767
-2.584145308 0.8938305378 -0.1410988867
-2.573660612 0.8912093043 -0.04684046283
-2.588602781 0.8908218145 0.04708479717
-2.573905468 0.8867688179 0.1404708475
-2.577090025 0.8883692026 0.2347721756
-2.56199646 0.8841668367 0.3276413381
-2.57754755 0.8905412555 0.4252404273
-2.601032019 0.8991625905 0.5266956091
-2.567370653 0.8885300159 0.6172622442
-2.569238424 0.8901808262 0.7169808149
-2.515235186 0.8749129772 -0.7019693255
-2.543576241 0.885766685 -0.6118634343
-2.554332972 0.8900124431 -0.517536819
-2.567433357 0.8955821395 -0.4239889383
-2.584976196 0.9027143121 -0.331053704
-2.563941956 0.8958702683 -0.2339006215
-2.592321157 0.9068024158 -0.1417269111
-2.570533752 0.9001882672 -0.04684046283
-2.574145794 0.8959091306 0.04687536508
-2.574566603 0.8970624804 0.140680179
-2.566447973 0.8947367072 0.2340749502
-2.566391468 0.8957211971 0.3286163211
-2.574423552 0.8995326161 0.4252404273
-2.588611364 0.9049969912 0.5247875452
-2.575289726 0.9013485312 0.619961679
-2.55335331 0.8946720362 0.7133573294
-2.519455433 0.8862511516 -0.7040398717
-2.525763988 0.8894616961 -0.6082642078
-2.553062201 0.8995751739 -0.5179184079
-2.549388409 0.8992817402 -0.4214859903
-2.585553169 0.9130535126 -0.3315411508
-2.572070599 0.9087972641 -0.2349465042
-2.574076653 0.9105167985 -0.1408895403
-2.576801062 0.9124933481 -0.04701498896
-2.567230463 0.9035607576 0.04680555686
-2.575187206 0.9073709249 0.1408895403
-2.563309431 0.9036892653 0.2340749502
-2.553889275 0.9013713598 0.3273976147
-2.573130369 0.9091717005 0.425553292
-2.579883337 0.9120649099 0.5236426592
-2.575801849 0.9116328955 0.6208614707
-2.557498455 0.9061595798 0.7154279351
-2.532727718 0.900867641 -0.7086986303
-2.52080822 0.8976186514 -0.6078143716
-2.562852144 0.9130945206 -0.5205897689
-2.557397366 0.9121571183 -0.4233632088
-2.574872255 0.9194031954 -0.3305662274
-2.57451129 0.9197809696 -0.2354694307
-2.567121267 0.9181512594 -0.140680179
-2.584895849 0.9255263209 -0.0472244136
-2.571596384 0.9151985049 0.04694517702
-2.575766802 0.9176957607 0.1410988867
-2.563892365 0.9139693975 0.2344235629
-2.543249369 0.9076112509 0.3264226317
-2.573661327 0.919477284 0.4261790216
-2.5748353 0.9204034805 0.5232610703
-2.572603703 0.9206193089 0.6208614707
-2.559775829 0.9170361161 0.7169808149
-2.535021067 0.9116643667 -0.7102515101
-2.523159981 0.9083934426 -0.6091640592
-2.555955172 0.9207043648 -0.5198264718
-2.565347195 0.9250993133 -0.4252404273
-2.571647167 0.928385675 -0.3305662274
-2.575032711 0.9301159382 -0.2358180583
-2.560144186 0.9257484078 -0.1404708475
-2.576009035 0.9325019121 -0.04711970314
-2.566504717 0.9234924912 0.04691027477
-2.561273336 0.9226200581 0.1404708475
-2.570058107 0.9262913465 0.2352951169
-2.543800354 0.9178309441 0.3269101381
-2.568578005 0.9277844429 0.4258661568
-2.584531546 0.9340568185 0.5259323716
-2.562044859 0.926941216 0.6190618873
-2.565641165 0.9292552471 0.7195689678
-2.517298698 0.9152269363 -0.7061104178
-2.534623146 0.9225274324 -0.612763226
-2.545346737 0.9269335866 -0.5183000565
-2.554678679 0.9313420653 -0.4239889383
-2.568390846 0.93735677 -0.3305662274
-2.566155672 0.9370485544 -0.2352951169
-2.568152428 0.9387937784 -0.1410988867
-2.557714939 0.9359904528 -0.04684046283
-2.576420307 0.9372304678 0.04715460539
-2.56554389 0.9342887998 0.1408895403
-2.564937592 0.934574306 0.235120818
-2.551769972 0.930786252 0.3283725679
-2.559757233 0.9347121716 0.4249275625
-2.597851753 0.9491365552 0.5293669701
-2.562453985 0.9372176528 0.619961679
-2.556939602 0.9362127781 0.7180161476
-2.515902042 0.9246743321 -0.7066280246
-2.542360783 0.9354067445 -0.6154626608
-2.545780659 0.9371688366 -0.5190632939
-2.56253314 0.9443523288 -0.4258661568
-2.576277256 0.9504388571 -0.3320286274
-2.561000109 0.9453106523 -0.235120818
-2.576100349 0.9519062638 -0.1417269111
-2.573186874 0.9518505931 -0.04718951136
-2.556241274 0.9400072694 0.04684046283
-2.573512793 0.9473778009 0.1415175647
-2.561659336 0.9435225725 0.235120818
-2.555955887 0.9424344301 0.3293475211
-2.556478977 0.9436417818 0.4249275625
-2.581630945 0.9534371495 0.5266956091
-2.570133686 0.9502112269 0.6226611137
-2.542785645 0.9411092401 0.7149102688
-2.520066023 0.9357020855 -0.7086986303
-2.528285027 0.939758718 -0.612763226
-2.550019264 0.9483432174 -0.5205897689
-2.540875196 0.9459528327 -0.4227374792
-2.576831818 0.9603635073 -0.3325161338
-2.554117441 0.95240587 -0.2347721756
-2.567316294 0.9583483934 -0.1414128989
-2.570016384 0.9603778124 -0.04718951136
-2.553110361 0.9484784603 0.04684046283
-2.57410121 0.9572991729 0.1417269111
-2.551047325 0.9492323399 0.2344235629
-2.545375347 0.948133409 0.3283725679
-2.564441204 0.9562554359 0.426804781
-2.569258213 0.9585617185 0.5247875452
-2.570619583 0.9600926638 0.6235609055
-2.54688859 0.9522425532 0.7169808149
-2.509549856 0.9417781234 -0.7066280246
-2.514044046 0.9444659948 -0.6100638509
-2.550368786 0.9586201906 -0.5213530064
-2.541255474 0.9562072754 -0.4233632088
-2.566033125 0.9665536284 -0.3315411508
-2.558235168 0.9641255736 -0.2354694307
-2.554611683 0.9637791514 -0.1408895403
-2.557271957 0.9601970315 0.04698008299
-2.568874359 0.9655759931 0.1416222453
-2.560772181 0.9630413055 0.2356437296
-2.538334846 0.9556139112 0.3278850913
-2.570329905 0.9686837196 0.4283691347
-2.567733526 0.9682170153 0.5251691937
-2.556313515 0.9649301767 0.6208614707
-2.550777912 0.963858664 0.7190513611
-2.527922869 0.9587532878 -0.7128397226
-2.516197443 0.95531106 -0.6114135981
-2.547006845 0.9675175548 -0.5213530064
-2.548980474 0.9692848325 -0.4252404273
-2.562643766 0.9755043387 -0.3315411508
-2.566025496 0.9773044586 -0.2365152985
-2.558696985 0.9755359888 -0.1413082182
-2.563248873 0.9782971144 -0.04718951136
-2.552035093 0.9684076905 0.04694517702
-2.55241847 0.9695731997 0.1408895403
-2.564845085 0.9748051167 0.2363409996
-2.534983397 0.964469254 0.3278850913
-2.565086842 0.97694695 0.4280562401
-2.573510647 0.9806703329 0.5270772576
-2.552929878 0.973847568 0.6208614707
-2.561836004 0.9782693982 0.723192513
-2.508325577 0.9613492489 -0.708180964
-2.514666796 0.9647864103 -0.6118634343
-2.534450054 0.9728839397 -0.5194448829
-2.556644917 0.9824278355 -0.4271176159
-2.559222937 0.9844437838 -0.3315411508
-2.555160761 0.9833938479 -0.2358180583
-2.555276155 0.9844617248 -0.1413082182
-2.598999262 1.002348661 -0.04792251065
-2.597184658 0.9959255457 0.04785270244
-2.582581282 0.9913598299 0.1427736282
-2.56142664 0.9837522507 0.2363409996
-2.544571638 0.9782981873 0.3295912445
-2.548755884 0.9809288383 0.4258661568
-2.577400684 0.9924689531 0.5286037326
-2.549514532 0.9827537537 0.6208614707
-2.540382147 0.9802514315 0.7180161476
-2.506755829 0.9707968235 -0.7086986303
-2.529453516 0.9806024432 -0.6163624525
-2.536529541 0.9838548303 -0.5205897689
-2.545834303 0.9884863496 -0.4258661568
-2.566872358 0.9976860285 -0.3330036104
-2.544285059 0.9894179702 -0.235120818
-2.562991381 0.9977225661 -0.1419362575
-2.604800701 1.015045285 -0.04809703678
-2.630984306 1.019435048 0.04855079576
-2.621933222 1.016980767 0.1451810896
-2.550547123 0.9898039699 0.2356437296
-2.537440538 0.9857369065 0.3291037679
-2.550839901 0.9919670224 0.426804781
-2.566601992 0.9986122847 0.5270772576
-2.560595751 0.9973046184 0.6244606972
-2.542344332 0.9912188649 0.7195689678
-2.508749008 0.9816529751 -0.7102515101
-2.522386074 0.988004446 -0.6154626608
-2.536735773 0.9941357374 -0.5213530064
-2.542368412 0.9973669648 -0.4258661568
-2.57076478 1.009542584 -0.3339785635
-2.55194211 1.002664804 -0.2361666709
-2.559492826 1.00666368 -0.1419362575
-2.606823683 1.026329279 -0.04820175096
-2.590168476 1.014032364 0.04785270244
-2.631384134 1.031228065 0.1459137946
-2.545222044 0.9979732633 0.2354694307
-2.533984184 0.9945882559 0.3291037679
-2.558392763 1.005199313 0.4286819696
-2.559446096 1.006128788 0.5263140202
-2.560725689 1.007663965 0.6253604889
-2.538868904 1.00008738 0.7195689678
-2.50171423 0.9889832735 -0.7092162371
-2.508049965 0.9925008416 -0.612763226
-2.540551662 1.005874991 -0.5228794217
-2.535198689 1.004779935 -0.4252404273
-2.556154251 1.014117718 -0.3325161338
-2.555834055 1.014507055 -0.2368639261
-2.548538923 1.012641311 -0.1415175647
-2.623664141 1.043552756 -0.04858570173
-2.608927488 1.031894207 0.0482715629
-2.62405467 1.038936019 0.1457044482
-2.547279835 1.009053707 0.235992372
-2.530497313 1.003426909 0.3291037679
-2.558540344 1.01558125 0.4293076992
-2.563217402 1.017954946 0.5278404951
-2.553570986 1.015156627 0.6244606972
-2.544337273 1.012514472 0.7221571803
-2.505423069 1.0005759 -0.7112868428
-2.511808395 1.004142642 -0.6145628691
-2.537024975 1.014737725 -0.5228794217
-2.542679071 1.018028021 -0.4271176159
-2.552598715 1.023034334 -0.3325161338
-2.555975676 1.024904847 -0.2372125536
-2.552402973 1.024507165 -0.1419362575
-2.595884085 1.043012261 -0.04813193902
-2.609023333 1.0424788 0.04834137112
-2.616702795 1.046606541 0.1454951018
-2.562239408 1.02534163 0.237735495
-2.523293495 1.010778308 0.3286163211
-2.549479723 1.022300005 0.4283691347
-2.566936493 1.029820681 0.5293669701
-2.546395302 1.022611141 0.6235609055
-2.544372559 1.022830963 0.723192513
-2.501914978 1.009315968 -0.7112868428
-2.515515804 1.015823126 -0.6163624525
-2.526185989 1.020645618 -0.5213530064
-2.542772532 1.028378844 -0.4277433455
-2.549012423 1.031937838 -0.3325161338
-2.548688889 1.032325268 -0.2368639261
-2.556214809 1.036411762 -0.1423549354
-2.621873856 1.064099431 -0.04869041964
-2.612786055 1.054572821 0.04848098755
-2.609329939 1.054237843 0.1452857554
-2.551256418 1.031291842 0.2370382249
-2.527110338 1.022558451 0.3295912445
-2.545895338 1.031193733 0.4283691347
-2.563326359 1.038774848 0.5293669701
-2.542809963 1.031494141 0.6235609055
-2.540786505 1.031706333 0.723192513
-2.498376846 1.018042564 -0.7112868428
-2.519171953 1.027542472 -0.6181620955
-2.52260828 1.029456854 -0.5213530064
-2.535509586 1.035755157 -0.4271176159
-2.556419134 1.045337319 -0.3339785635
-2.537693739 1.038197994 -0.2361666709
-2.55997467 1.048355937 -0.1427736282
-2.614443064 1.07172823 -0.04862061143
-2.616495848 1.066706538 0.04862061143
-2.618578911 1.068621755 0.1460184604
-2.536573648 1.035672545 0.235992372
-2.534551144 1.035879016 0.331053704
-2.545937061 1.041570425 0.4289948642
-2.563318253 1.049203515 0.5301302075
-2.546406746 1.043319225 0.6253604889
-2.531807423 1.038369894 0.7216395736
-2.491234779 1.025286913 -0.7102515101
-2.50836277 1.033360004 -0.6163624525
-2.529889822 1.042744994 -0.5236426592
-2.528227091 1.043092132 -0.4264918864
-2.560093641 1.057286143 -0.3349535167
-2.537736893 1.048571587 -0.2365152985
-2.556299448 1.057286263 -0.1427736282
-2.586667299 1.070903182 -0.04816684499
-2.627549171 1.081924438 0.04889984801
-2.629605055 1.083844662 0.1468558311
-2.534784794 1.045280099 0.2361666709
-2.523580313 1.04169035 0.3300787508
-2.545936823 1.051959753 0.4296205938
-2.545125723 1.052143931 0.5270772576
-2.553553343 1.056672335 0.6280599236
-2.531737089 1.048679829 0.7226748466
-2.496560335 1.037684202 -0.7128397226
-2.495744228 1.038366795 -0.6141129732
-2.529859781 1.053078651 -0.5244059563
-2.524570465 1.051910996 -0.4264918864
-2.556387424 1.06621623 -0.3349535167
-2.537739277 1.058957696 -0.2368639261
-2.541535378 1.061584234 -0.1421456039
-2.634571075 1.101524949 -0.04914418235
-2.608985186 1.084947109 0.04862061143
-2.629493713 1.094552279 0.1470651776
-2.543995142 1.059483647 0.2373868525
-2.512599468 1.047437668 0.3291037679
-2.544072628 1.061600566 0.4299334586
-2.552308083 1.065560102 0.5293669701
-2.546253681 1.064076185 0.6271601319
-2.529843569 1.058256507 0.723192513
-2.498266697 1.048635006 -0.7143926024
-2.492104292 1.047072291 -0.6141129732
-2.526168108 1.061903834 -0.5244059563
-2.528166056 1.0637815 -0.4277433455
-2.538014412 1.068968296 -0.3330036104
-2.548715353 1.073999047 -0.2382584065
-2.537814617 1.070448875 -0.1421456039
-2.813297749 1.187225938 -0.05259975791
-2.715804815 1.140503764 0.05071489513
-2.609277248 1.096303225 0.1461231261
-2.542118073 1.069129944 0.2375611663
-2.512586594 1.057742953 0.3295912445
-2.547820091 1.073098302 0.4311849177
-2.552190542 1.07598877 0.5301302075
-2.531751156 1.068411827 0.6244606972
-2.536998272 1.071148515 0.7262982726
-2.485697508 1.053580284 -0.7118044496
-2.504765272 1.062178016 -0.6181620955
-2.507988691 1.064577937 -0.5213530064
-2.535533905 1.076792359 -0.4296205938
-2.545416832 1.082038403 -0.3344660103
-2.537617207 1.079769492 -0.2375611663
-2.54527688 1.083552718 -0.1427736282
-2.601257324 1.108457565 -0.04865551367
-2.70464325 1.146382093 0.0505752787
-2.62382102 1.113204718 0.1471698433
-2.536536694 1.077218294 0.2373868525
-2.518200874 1.069949508 0.3308099508
-2.536787748 1.078892946 0.4299334586
-2.563060522 1.090595841 0.5331831574
-2.531780005 1.078328848 0.6253604889
-2.529690027 1.078482032 0.7252629995
-2.487518787 1.064096332 -0.7133573294
-2.508208275 1.073982477 -0.619961679
-2.515272141 1.077527404 -0.5236426592
-2.528129101 1.084079146 -0.4289948642
-2.545272827 1.092483044 -0.3349535167
-2.526700258 1.085033536 -0.2368639261
-2.545148849 1.094008207 -0.1429829746
-2.577166796 1.10883677 -0.0482715629
-2.601351261 1.113328695 0.04869041964
-2.717221022 1.164041042 0.1527174562
-2.525625706 1.082484484 0.2366896123
-2.51992321 1.081081867 0.3315411508
-2.540266514 1.090859294 0.4311849177
-2.548415422 1.094885468 0.530893445
-2.542322159 1.093318939 0.6289597154
-2.525910139 1.087305784 0.7252629995
-2.489109516 1.075071573 -0.7149102688
-2.504443884 1.082731247 -0.619961679
-2.518703461 1.08941853 -0.5251691937
-2.517078161 1.089757919 -0.4277433455
-2.54872942 1.104518414 -0.3359284699
-2.530208826 1.097016931 -0.2375611663
-2.541314602 1.102885842 -0.1429829746
-2.587953091 1.124199867 -0.04855079576
-2.575422049 1.112883329 0.0482715629
-2.615985155 1.131495953 0.1471698433
-2.527317524 1.093667269 0.2372125536
-2.514312744 1.08908236 0.3312974572
-2.538255453 1.10050571 0.4314978123
-2.544577837 1.103774428 0.530893445
-2.542065382 1.103739023 0.6298595667
-2.525642633 1.09765625 0.7262982726
-2.497737408 1.089158177 -0.7185336947
-2.488146782 1.086010575 -0.616812408
-2.522081852 1.101346493 -0.5266956091
-2.516878843 1.100120544 -0.4283691347
-2.544858694 1.11340785 -0.3359284699
-2.540966034 1.112233877 -0.2389556617
-2.533790827 1.110146403 -0.1427736282
-2.752495289 1.207115054 -0.0517620407
-2.602680206 1.135460019 0.04886494204
-3.084250689 1.346835136 0.1741752028
-2.53078723 1.105673194 0.2379097939
-2.508677006 1.097057104 0.331053704
-2.543446779 1.113319755 0.433062166
-2.537112713 1.111074924 0.5301302075
-2.534627438 1.111041069 0.6289597154
-2.523564816 1.107241988 0.7268159389
-2.483311892 1.093200326 -0.7154279351
-2.489690781 1.097046733 -0.6181620955
-2.514629602 1.108559132 -0.5259323716
-2.523866892 1.113684297 -0.4302463233
-2.533693075 1.119076967 -0.3349535167
-2.535245419 1.120291471 -0.2387813479
-2.529900074 1.118984938 -0.1427736282
-2.620269537 1.160048723 -0.04931870475
-3.07451725 1.354100585 0.05794019252
-2.600712061 1.146508098 0.1467511654
-2.536026955 1.118521333 0.2387813479
-2.504832506 1.105806828 0.331053704
-2.52870369 1.117400765 0.4311849177
-2.543992758 1.124686837 0.5324198604
-2.523605585 1.116727591 0.6271601319
-2.521450758 1.116826653 0.7273336053
-2.479480505 1.101862192 -0.7154279351
-2.496529341 1.110482097 -0.6208614707
-2.51074481 1.117330194 -0.5259323716
-2.519964218 1.122486949 -0.4302463233
-2.52977109 1.127914429 -0.3349535167
-2.525861025 1.126698852 -0.2382584065
-2.533273458 1.131066322 -0.1431923211
-2.614378214 1.168372989 -0.04928379878
-2.607480049 1.159289837 0.04910927638
-2.60216856 1.158015609 0.1470651776
-2.52846694 1.12574625 0.2384327203
-2.508209705 1.117775679 0.3320286274
-2.524788141 1.126220226 0.4311849177
-2.547222376 1.136761189 0.5339463949
-2.526809454 1.128708482 0.6289597154
-2.521064281 1.127198577 0.7283688784
-2.484432697 1.114463329 -0.7180161476
-2.503304482 1.12397933 -0.6235609055
-2.503247261 1.124479294 -0.5251691937
-2.51963377 1.132896662 -0.4308720827
-2.533059597 1.13999629 -0.3359284699
-2.521912575 1.135508895 -0.2382584065
-2.532951593 1.141542912 -0.1434016526
-2.865478039 1.292609096 -0.05417047068
-2.771261692 1.243710399 0.0523205176
-2.590822458 1.163818836 0.1466464847
-2.520887613 1.132931471 0.2380841076
-2.507913351 1.128153563 0.3325161338
-2.522642612 1.135837555 0.4314978123
-2.543238878 1.145645738 0.5339463949
-2.533513308 1.142327905 0.6316591501
-2.515353441 1.135196567 0.727851212
-2.471727848 1.119145274 -0.7154279351
-2.495815992 1.131101847 -0.6226611137
-2.513611317 1.139695525 -0.5282221437
-2.512066364 1.140052199 -0.4302463233
-2.543523788 1.155399442 -0.3378783762
-2.521561146 1.145954609 -0.238607049
-2.528951406 1.150377631 -0.1434016526
-2.591598511 1.179966569 -0.04900455847
-2.719543934 1.231923103 0.05141299218
