# .PCD v0.7 - Point Cloud Data file format
VERSION 0.7
FIELDS x y z
SIZE 4 4 4
TYPE F F F
COUNT 1 1 1
WIDTH 1254
HEIGHT 1
VIEWPOINT 0 0 0 1 0 0 0
POINTS 1254
DATA ascii
-5.912216663 1.874329567 1.650282264
-3.984434605 1.268530369 -1.108832836
-3.776742935 1.203859329 -0.9051995873
-4.602707863 1.468026519 -0.9308290482
-3.428812504 1.095592618 -0.4368363023
-3.402793169 1.088587046 -0.3088545799
-3.450473547 1.105169296 -0.1876778901
-3.456295729 1.107698321 -0.06265234202
-6.197514534 1.977879405 0.565441072
-6.164959431 1.969861031 0.7895262241
-5.893999577 1.884416342 0.9733868837
-5.872629166 1.879843354 1.190329432
-5.879612446 1.883210301 1.415388584
-5.858139992 1.878587365 1.636823773
-3.971011877 1.278775573 -1.106244683
-3.750473499 1.209201217 -0.899800837
-3.394544601 1.095099092 -0.6850671172
-3.378906727 1.091356516 -0.555706799
-3.372271299 1.0898633 -0.4300116003
-3.378312349 1.093118191 -0.3069371283
-3.416388988 1.106756926 -0.1860031337
-3.483039618 1.129019618 -0.06321082264
-6.137832165 1.981283545 0.5605604053
-6.135726452 1.982967138 0.7866013646
-5.827573299 1.884501934 0.9633750916
-5.806593418 1.879956484 1.178117633
-5.81586504 1.884079814 1.401441693
-5.811450481 1.884891272 1.62543571
-3.366089106 1.096307039 -0.9369770288
-3.348105907 1.091742873 -0.8030718565
-3.357298613 1.095388651 -0.6781979799
-3.373391628 1.101942301 -0.5553939342
-3.364672661 1.100394964 -0.4295241237
-3.391710997 1.109892011 -0.3085059524
-3.443068027 1.128029466 -0.1876778901
-3.479077339 1.141170979 -0.06321082264
-6.097136021 1.990496635 0.5574227571
-6.083832741 1.988502145 0.7807516456
-5.772146702 1.888857841 0.9552404881
-5.759280205 1.885760188 1.16972208
-5.755551338 1.886763811 1.388394594
-5.764454365 1.891912222 1.614047647
-3.351233244 1.104421496 -0.93387115
-3.344274521 1.103423238 -0.8030718565
-3.347862005 1.105254054 -0.6770531535
-3.373275518 1.114950776 -0.5560196638
-3.368349552 1.114627004 -0.4304990768
-3.376467705 1.117967129 -0.3074600697
-3.850500107 1.276413441 -0.2103917003
-3.475072622 1.153309107 -0.06321082264
-4.094819069 1.351852417 0.2237897068
-6.01258564 1.986143947 0.5502759814
-6.001465797 1.984796047 0.7710021138
-5.701759815 1.887884259 0.9446029663
-5.717252731 1.894122839 1.162471294
-5.70083952 1.890892148 1.376697063
-5.702812672 1.89375639 1.59851861
-3.341859579 1.114280462 -0.9323183298
-3.357038736 1.120643854 -0.8071209788
-3.351431847 1.119422436 -0.6785796285
-3.367489338 1.126092553 -0.555706799
-3.375732899 1.130159259 -0.4319615364
-5.990988731 2.006881714 -0.5490558147
-3.853595495 1.292386651 -0.2108103782
-3.471025705 1.165431619 -0.06321082264
-4.063196659 1.35558486 0.07406622171
-4.04460907 1.350952744 0.2212775648
-6.011284828 2.009014606 0.5507989526
-5.945556164 1.98935473 0.7646648884
-5.683896542 1.904011011 0.942725718
-5.664070129 1.898468971 1.152930856
-5.655406952 1.897762775 1.367249131
-5.641230106 1.895195007 1.582989454
-3.345271349 1.12840879 -0.9343888164
-3.347567558 1.130484104 -0.8057712913
-3.358663559 1.134885073 -0.6808692813
-3.56375742 1.205572009 -0.5891838074
-5.968308449 2.021321535 -0.7685647011
-5.948094368 2.015632629 -0.5457438827
-3.888779879 1.319305539 -0.2130084783
-3.46693635 1.177540779 -0.06321082264
-4.016756535 1.355691433 0.07329831272
-4.056898594 1.370817184 0.2222196162
-3.471297979 1.173619032 0.3168728948
-5.90473032 1.998640537 0.7602775693
-5.692182541 1.928911924 0.9452286363
-5.594192982 1.896794677 1.139955878
-5.611842155 1.904963136 1.358251095
-5.60165596 1.903686047 1.573671937
-3.359595537 1.14631772 -0.9395651817
-3.725332499 1.272561669 -0.8989009857
-5.767884254 1.971414685 -1.176591158
-3.68288064 1.260213733 -0.6098331809
-5.889780998 2.01996851 -0.5410374999
-3.844479084 1.319258451 -0.2108103782
-3.489281416 1.198731542 -0.06369948387
-4.049849033 1.382624984 0.07399640977
-4.080438137 1.394659638 0.2237897068
-3.640618801 1.245041847 0.3329095542
-5.830107212 1.996091604 0.7515029311
-5.674203396 1.944926858 0.9433515072
-5.554110527 1.90484643 1.133086801
-5.54802084 1.904922485 1.344304085
-5.558437824 1.910668135 1.563319087
-3.934230089 1.358505845 -1.10365653
-3.695081234 1.276648521 -0.8926023841
-5.823703766 2.014362097 -1.189566255
-3.64837122 1.263360977 -0.6048272252
-5.839633465 2.023295879 -0.7536966205
-3.67169857 1.275028944 -0.2014945745
-3.481298447 1.209590793 -0.06362967938
-3.494954824 1.206822395 0.06383910775
-3.477873564 1.203642011 0.318267405
-5.802470684 2.009284258 0.7488218546
-5.622585297 1.949193001 0.9358425736
-5.506287575 1.911028862 1.124691129
-5.504186153 1.912451029 1.335306048
-5.502466679 1.912931442 1.549342871
-3.922168732 1.369683027 -1.101585984
-3.697735786 1.292754769 -0.8944019675
-5.140237808 1.79807198 -1.050275683
-5.828971386 2.041276932 -0.9715096951
-5.781599522 2.026952028 -0.7471156716
-3.652150393 1.282542944 -0.2006572038
-3.454203367 1.214384317 -0.06321082264
-3.490508556 1.219623089 0.06383910775
-3.753632069 1.313032746 0.2062048167
-3.537589312 1.238152266 0.3241939545
-5.467218399 1.915664315 0.7061675787
-5.464418411 1.916824698 0.9105002284
-5.444008827 1.910732627 1.113242626
-5.427611828 1.907105684 1.318209887
-5.407944202 1.902314544 1.524496198
-3.91736412 1.383364677 -1.101585984
-3.700549364 1.308253527 -0.896201551
-5.080255032 1.797016263 -1.039208651
-5.730569363 2.029301405 -0.9561790824
-5.731455803 2.031865597 -0.741509676
-5.712450981 2.026252031 -0.5265696049
-3.617537022 1.28459096 -0.1989824474
-3.449943542 1.226433754 -0.06321082264
-3.471146345 1.226470351 0.06355986744
-3.525732756 1.247834325 0.3234967291
-5.443658829 1.928768873 0.703973949
-5.398118496 1.914755702 0.9004884362
-5.396602154 1.915276885 1.104846954
-5.398886681 1.918210983 1.312811017
-5.390349388 1.917297125 1.521390438
-3.890678883 1.38923502 -1.095374227
-3.747341156 1.339528799 -0.9087988734
-4.955642223 1.772424579 -1.014785051
-5.689975262 2.037305117 -0.9505474567
-4.894637585 1.754462242 -0.6332896948
-4.86702919 1.745523572 -0.4486523569
-3.464677095 1.244628072 -0.06355986744
-3.478142738 1.242616177 0.06376929581
-3.564500809 1.275574684 0.3275058866
-5.373354435 1.924996734 0.6956868172
-5.386160374 1.930646539 0.8995497823
-5.358469963 1.922830462 1.098359466
-5.36831665 1.928479075 1.306962252
-5.347602844 1.922091842 1.511037588
-3.896708488 1.406743646 -1.098480105
-3.702555895 1.337383389 -0.8989009857
-4.8423419 1.750991344 -0.9926512837
-4.838006973 1.750378489 -0.8081920743
-3.347470284 1.213749528 -0.3078086972
-3.486625433 1.266271353 -0.06404853612
-3.468360186 1.252106309 0.06366458535
-3.629347563 1.313088655 0.3339554071
-5.33667326 1.933955312 0.8923538327
-5.305922031 1.923858881 1.088819027
-5.297778606 1.922998667 1.291215658
-5.299099445 1.925573111 1.499131918
-3.89746666 1.421643972 -1.100033045
-3.280934095 1.200001836 -0.5466336012
-3.272026062 1.198038697 -0.4226994514
-3.283561468 1.202912331 -0.3022307456
-3.502860308 1.284638047 -0.1933301687
-3.478429794 1.27705586 -0.06397872418
-3.478996515 1.269690275 0.06394382566
-3.634329796 1.328537226 0.3348269761
-5.293015957 1.936968207 0.6869122386
-5.287229538 1.936943531 0.8851578236
-5.260464668 1.928179741 1.080805063
-5.254444122 1.928053737 1.282217622
-5.263330936 1.933400869 1.490849733
-3.872542143 1.427887321 -1.094338894
-3.290931225 1.214741111 -0.7999225855
-3.25752449 1.203055263 -0.6667494774
-3.261902809 1.205967188 -0.5441306829
-3.260377645 1.206696987 -0.4217244983
-3.271868706 1.211599231 -0.3015334904
-3.535809278 1.31074214 -0.195423618
-3.462701797 1.285016656 -0.06376929581
-3.487675667 1.286671519 0.06418815255
-3.642752171 1.346049547 0.3360471725
-5.262019157 1.946479678 0.6837435961
-5.223010063 1.934122562 0.8754589558
-5.222404957 1.934936404 1.074317575
-5.211139679 1.932830095 1.273219585
-5.205842018 1.932932258 1.47635591
-3.250249386 1.211340547 -0.9178243876
-3.246503353 1.211234331 -0.7900246978
-3.240429878 1.209613562 -0.6640781164
-3.255823135 1.216653824 -0.5438177586
-3.280315638 1.227112293 -0.4248930812
-3.269485474 1.223710537 -0.3017078042
-3.576099157 1.339894772 -0.1979357302
-3.469655991 1.300704122 -0.06397872418
-3.67162776 1.37130475 0.339184761
-5.208707809 1.947455764 0.6776501536
-5.196215153 1.943818808 0.872017324
-5.167816639 1.935251951 1.064395547
-5.162392139 1.935276747 1.262871861
-5.154183388 1.933223844 1.463414907
-3.233346462 1.217912078 -0.914200902
-3.235174656 1.219244719 -0.7882251143
-3.258230448 1.229233623 -0.6686575413
-3.25731492 1.229536653 -0.5447564125
-3.274371862 1.237282038 -0.4246493578
-3.272648096 1.237936258 -0.3024050295
-3.495014668 1.324142337 -0.0645372048
-3.552728176 1.33962965 0.1967843473
-3.610898256 1.363003612 0.3339554071
-5.152080059 1.94578135 0.6710692048
-5.156140327 1.949370027 0.8663856983
-5.106282711 1.931540608 1.052946925
-5.124964714 1.940651059 1.255223513
-5.113081455 1.93819356 1.453579903
-3.231095314 1.229314685 -0.9147185683
-3.227256536 1.229142904 -0.787325263
-3.243128777 1.235837102 -0.6663678288
-3.254848957 1.241603613 -0.5450692773
-5.130078316 1.95898509 -0.6691192389
-4.439204216 1.696053982 -0.4120469987
-3.46445775 1.325719833 -0.06404853612
-3.626837015 1.382778049 0.335872829
-5.113728523 1.951720715 0.6669256687
-5.10535717 1.949545026 0.8588768244
-5.070167542 1.938136935 1.046841025
-5.081758499 1.94460094 1.246225476
-5.081367493 1.945468187 1.446332932
-3.241210222 1.246131182 -0.9188597202
-3.221344233 1.239138722 -0.7868754268
-4.951825619 1.906778932 -1.023180723
-5.035035133 1.93982923 -0.8479264379
-5.099476337 1.966700673 -0.6659506559
-5.119110107 1.976326942 -0.4763679206
-3.508301973 1.35655582 -0.06495606154
-3.527698755 1.356275916 0.06527020782
-3.601536989 1.387550712 0.3339554071
-5.062774181 1.951532245 0.6610758901
-5.059819698 1.95242095 0.8523066044
-5.039902687 1.945747495 1.041880012
-5.035292625 1.945986032 1.236327648
-5.045718193 1.952041149 1.438050628
-3.640207291 1.414136291 -1.034810543
-4.602572918 1.789842129 -1.130150795
-4.674352646 1.81869483 -0.9667012095
-5.04997921 1.966873407 -0.8516808152
-5.062641621 1.973841906 -0.6620509028
-5.056495667 1.972462296 -0.4711385667
-3.462568283 1.352784634 -0.06418815255
-3.696042776 1.436569333 0.06851635128
-3.591101885 1.397945881 0.3334324956
-5.037091732 1.962866426 0.6586384773
-5.016163826 1.955721021 0.8460492492
-5.007133484 1.954212546 1.036537409
-4.995453358 1.951664925 1.228229403
-4.997490883 1.953464746 1.426144958
-3.836658001 1.505887508 -1.092786193
-4.600239754 1.806519747 -1.131050467
-4.963973522 1.951358438 -1.028523326
-4.594882488 1.807194471 -0.7753407955
-5.02282095 1.977528572 -0.6576635838
-5.005092621 1.972566724 -0.4669550657
-3.415165186 1.34664607 -0.1901900023
-3.476425648 1.372204185 -0.0645372048
-3.542342901 1.390368938 0.06572397053
-3.569512367 1.403910398 0.3318636715
-4.991763115 1.964294672 0.6535199881
-4.974386215 1.959463477 0.8401046991
-4.964095592 1.956409335 1.028905034
-4.963575363 1.958207726 1.221930861
-4.952908039 1.955997348 1.41527462
-3.829847097 1.517890215 -1.092268467
-4.579414845 1.816817522 -1.127451301
-4.663689137 1.851194501 -0.9670827985
-4.929999828 1.958895326 -0.8335344791
-4.977151394 1.979643703 -0.6525450349
-4.972606659 1.978839874 -0.4645147026
-3.365912437 1.340820909 -0.1876778901
-3.486474276 1.390256286 -0.06481644511
-3.544903755 1.405673146 0.06586358696
-3.570393085 1.417944193 0.3323866129
-4.949827194 1.967773795 0.6488889456
-4.936314583 1.96439755 0.8347859383
-4.913459778 1.956295848 1.019746184
-4.924125195 1.962533951 1.213832498
-4.915546894 1.961104751 1.406474829
-3.826319456 1.531967044 -1.092786193
-3.759052753 1.506558776 -0.9249953628
-4.954220772 1.986562371 -1.029286623
-4.539990425 1.822303414 -0.768144846
-4.937056065 1.983682394 -0.6481577158
-4.270591259 1.716766357 -0.398973614
-3.398269176 1.367473125 -0.1897713244
-3.489019394 1.405407548 -0.06495606154
-3.532550097 1.415065169 0.06572397053
-3.569119215 1.431883097 0.3327352405
-4.900559902 1.968024135 0.6432829499
-4.909266472 1.973512173 0.8313444257
-4.873814583 1.960248709 1.012877107
-4.881090164 1.965154409 1.204834461
-4.881794453 1.967418432 1.398710132
-3.804829836 1.538795233 -1.088127375
-3.650810003 1.477987647 -0.8993508816
-4.469530106 1.812161326 -0.7571944594
-4.90251112 1.989706397 -0.6445016861
-4.875599861 1.979775667 -0.4566707015
-3.41197753 1.386847734 -0.1908180416
-3.573000669 1.453751326 -0.06663149595
-3.547979355 1.435638189 0.0661079213
-4.891753674 1.982358217 0.4580652118
-4.867907047 1.974673033 0.6398706436
-4.852931023 1.970570803 0.8228968978
-4.843297005 1.967643619 1.007915974
-4.839902401 1.96823287 1.196286321
-4.846268177 1.972793102 1.390427947
-3.811953783 1.557182312 -1.09175086
-3.591516018 1.468595505 -0.8858538866
-4.424182415 1.809980869 -0.9209070206
-4.424788475 1.812030792 -0.7506241798
-4.867983818 1.995513201 -0.6408455968
-4.870503426 1.997538805 -0.4568450153
-3.425591707 1.406334639 -0.1918647587
-3.561457634 1.455578923 0.0664569661
-3.658375502 1.496680975 0.2049487531
-3.605133533 1.47563374 0.3370930254
-4.831594467 1.979611278 0.6359708309
-4.811297894 1.973257065 0.8169524074
-4.80915451 1.973358512 1.002191663
-4.804160595 1.973268867 1.189087868
-4.796471119 1.972067356 1.37800467
-3.785065174 1.561636567 -1.085539103
-3.525127172 1.45583272 -0.870557189
-4.376104355 1.808169484 -0.9121297598
-4.367324829 1.806326866 -0.7418638468
-4.827975273 1.998824596 -0.6364583373
-4.81564188 1.994704127 -0.4523129165
-3.3726933 1.398393869 -0.1891432852
-3.489139318 1.447389483 -0.06523530185
-3.545264482 1.463424087 0.06624753773
-3.614625692 1.492794514 0.2027506381
-3.574183464 1.477551937 0.3346526623
-4.802643776 1.987356544 0.6330459118
-4.779176235 1.978621244 0.8125721812
-4.773218155 1.97810781 0.9960857034
-4.763043404 1.975839376 1.180539846
-4.752435684 1.972411156 1.367134333
-3.770674467 1.571124315 -1.08295095
-3.451929569 1.439020038 -0.8534609079
-4.320847034 1.803019881 -0.9018261433
-4.31391573 1.801011682 -0.7337293029
-4.795678139 2.004107952 -0.6330459118
-4.775565147 1.997662187 -0.4491752982
-3.386461496 1.41728127 -0.1901900023
-3.532020092 1.479649425 -0.06614282727
-3.588384628 1.495169759 0.06715506315
-3.603862524 1.503096342 0.202436626
-3.55061841 1.482343435 0.3329095542
-4.750234127 1.984144449 0.6269524693
-4.748547077 1.985386968 0.8085048795
-4.723164082 1.975742459 0.9869269729
-4.724109173 1.978075624 1.172441483
-4.718796253 1.977785707 1.359369636
-3.790374517 1.594104886 -1.090197921
-3.400187016 1.431402922 -0.8417634368
-4.276848316 1.801335454 -0.8938121796
-4.269377232 1.799944758 -0.7271589637
-4.748416901 2.003855944 -0.6276836991
-4.752394676 2.006513119 -0.4476065338
-3.337340832 1.41043365 -0.1876778901
-3.49920845 1.480282307 -0.06561925262
-3.581300259 1.50691092 0.06712015718
-3.578346968 1.50713861 0.201285243
-3.527322769 1.486372828 0.3311664462
-4.714015007 1.988368988 0.6230526567
-4.723389626 1.994266868 0.8053762317
-4.690919876 1.98152113 0.9815843105
-4.688457489 1.982411027 1.16524303
-4.686956406 1.983705163 1.352122784
-3.783008814 1.606571078 -1.089680314
-3.370062113 1.432589173 -0.8354648352
-4.221755028 1.795507789 -0.8835085034
-4.217630386 1.795492291 -0.7193372846
-4.697564125 2.001743555 -0.6218339205
-4.72153616 2.012931108 -0.4453404844
-3.449963808 1.472246408 -0.1943769008
-3.517926216 1.502699614 -0.06607301533
-3.574178457 1.518620133 0.06708525866
-3.563874483 1.515711904 0.2007618845
-3.52394557 1.499457479 0.3313407302
-4.67782402 1.992366076 0.619152844
-4.67097187 1.991374254 0.7975545526
-4.658692837 1.987100124 0.9762417078
-4.647457123 1.984225273 1.156694889
-4.653357029 1.988666058 1.344358206
-3.7525208 1.60910666 -1.082433224
-3.373994827 1.448187351 -0.8377143741
-4.173970699 1.792416096 -0.8747313023
-4.185929775 1.799282432 -0.7149570584
-4.679607391 2.013420582 -0.6203715801
-4.670559406 2.010493755 -0.4411569536
-3.389776707 1.460569382 -0.1912367195
-3.494297266 1.507051945 -0.06572397053
-3.552315712 1.523992419 0.06677111238
-3.54571557 1.522626281 0.2000291646
-3.513198853 1.509389043 0.3308178186
-4.643486023 1.996919036 0.6154967546
-4.631332874 1.993608236 0.7919228673
-4.624680519 1.991702557 0.9705173969
-4.615448952 1.989635825 1.150396347
-4.605590343 1.987292409 1.332452536
-3.748654366 1.622963309 -1.08295095
-3.385011435 1.466930032 -0.8417634368
-4.142470837 1.796041727 -0.8693885803
-4.128885269 1.79186368 -0.706196785
-4.63977766 2.015506744 -0.615984261
-4.636104107 2.014872789 -0.4385423064
-3.362680197 1.462832451 -0.1899806708
-3.489015818 1.519239426 -0.06572397053
-3.534129858 1.530819297 0.06652677804
-3.536714077 1.533405185 0.199819833
-3.498769045 1.517678857 0.3299462497
-4.616457939 2.004419088 0.6128156185
-4.60260582 2.000314474 0.7881684899
-4.57449007 1.989044428 0.9613586068
-4.576313019 1.99173665 1.142298102
-4.566746235 1.989469171 1.323135018
-3.746505737 1.63758707 -1.083986163
-3.378085136 1.477954984 -0.8413135409
-4.127183914 1.806554556 -0.8674805164
-4.126224518 1.807850003 -0.7068225741
-4.599990845 2.017339706 -0.6115969419
-4.594376564 2.015833855 -0.4352304041
-3.339266539 1.466530442 -0.1889339536
-3.505927801 1.540454149 -0.06614282727
-3.503113985 1.531929374 0.06603810936
-3.529780149 1.544323564 0.1997151673
-3.498925209 1.532280445 0.3304691911
-4.56761694 2.002191544 0.6072096229
-4.563383579 2.001285553 0.7825368047
-4.538756371 1.992374182 0.955252707
-4.542570591 1.995940089 1.135549545
-4.533595562 1.992940545 1.31537044
-3.758440971 1.658453822 -1.089162588
-3.373165369 1.489149094 -0.8413135409
-4.181633949 1.848680019 -0.7174600959
-4.551524162 2.014107227 -0.6059910059
-4.558165073 2.018949032 -0.4324414134
-3.370904922 1.493779421 -0.191027388
-3.526120424 1.564034104 -0.06663149595
-3.507162333 1.547574282 0.06621263176
-3.511578798 1.55098772 0.1989824474
-3.489911079 1.542872667 0.3301205635
-4.531905651 2.004480124 0.6033098102
-4.532889366 2.006805897 0.7784695029
-4.503403187 1.994693279 0.9491468072
-4.496733665 1.993615627 1.125651598
-4.505421638 1.999350786 1.309158802
-3.738802433 1.664622545 -1.085021496
-3.382186651 1.50726068 -0.8449127674
-4.154240131 1.852194071 -0.8758761287
-4.130057335 1.843140483 -0.7096382976
-4.526341438 2.021885633 -0.6035535932
-4.536893368 2.027550459 -0.4310469329
-3.376609564 1.510429502 -0.1916554272
-3.52063942 1.576333046 -0.06663149595
-3.521832466 1.568756819 0.06659658998
-3.513440132 1.566489339 0.1994011402
-3.497512579 1.560118794 0.3313407302
-4.495878696 2.007338285 0.5994099975
-4.486179352 2.00488615 0.7715864182
-4.471321583 1.999182224 0.9438041449
-4.468401909 1.999748826 1.120252848
-4.473732948 2.004007816 1.301911831
-3.729444742 1.676078439 -1.083986163
-3.373349905 1.517459512 -0.8440129757
-4.122684956 1.855402708 -0.8705334663
-4.15601778 1.872149944 -0.7152699828
-4.472205162 2.01645875 -0.5972163677
-4.491648674 2.026170015 -0.4273863733
-3.40044117 1.535358191 -0.1933301687
-3.588005304 1.62155354 -0.0680276826
-3.52910161 1.586781025 0.06684091687
-3.526164055 1.58694005 0.2004478574
-3.475694895 1.564956069 0.3297719359
-4.459888458 2.009968758 0.5955102444
-4.450343609 2.007537603 0.7665805221
-4.439263344 2.003470659 0.9384614229
-4.438307285 2.004905224 1.114404202
-4.435025215 2.005286932 1.292594433
-3.723571301 1.689086437 -1.083986163
-3.403520823 1.545337796 -0.8530110121
-4.098308563 1.861662865 -0.866717279
-4.149457932 1.886644721 -0.7152699828
-4.454298019 2.027124882 -0.5957539678
-4.457349777 2.029451609 -0.4247717261
-3.384156466 1.542249203 -0.1927021444
-3.598697424 1.641537189 -0.06834182888
-3.567244053 1.618924022 0.0676786378
-4.44982481 2.021339417 0.2539351881
-3.524626255 1.601809859 0.3350012898
-4.427547932 2.014017105 0.5920978189
-4.416342258 2.010780573 0.7618874311
-4.400083542 2.004305363 0.9315923452
-4.388727188 2.000982285 1.103606582
-4.38406086 2.000704765 1.27965343
-3.707113981 1.697249055 -1.080880523
-3.380389929 1.549090624 -0.8485119939
-3.797320843 1.740954399 -0.8037503362
-3.767615557 1.728927255 -0.6498803496
-4.430959702 2.03520298 -0.5935602784
-4.421271801 2.031687737 -0.4219827354
-3.366051197 1.548209786 -0.1919694394
-3.620191813 1.666633725 -0.06886540353
-3.605204344 1.651352286 0.06851635128
-4.411877632 2.022709846 0.2521557808
-4.397336006 2.016971588 0.4195423722
-4.389821529 2.015379906 0.5879542828
-4.389552116 2.01711154 0.7584459186
-4.359168053 2.004072189 0.9243415594
-4.378174782 2.014660358 1.102706671
-4.354239941 2.005488396 1.272924066
-3.690644979 1.705316186 -1.077774644
-3.396187067 1.570697427 -0.8539108634
-4.163609982 1.926503658 -0.8835085034
-4.120053291 1.908096313 -0.7124541402
-4.117657661 1.908732772 -0.5521246791
-4.226175308 1.95993185 -0.4038543105
-3.344321728 1.552381992 -0.191027388
-3.578371763 1.661783457 -0.06816729903
-3.597603083 1.663087845 0.06848144531
-4.376141548 2.023915052 0.2504810095
-4.361339569 2.018917322 0.4167533815
-4.357543945 2.019007683 0.5845419765
-4.359540939 2.020857096 0.7543786168
-4.325433254 2.006881237 0.9186173677
-4.325161934 2.008590221 1.091009259
-4.326541424 2.010149956 1.266712546
-3.695174932 1.723088264 -1.080880523
-3.392725706 1.582774878 -0.8543606997
-4.108829975 1.918598533 -0.8732047677
-4.111913681 1.920912623 -0.712141335
-4.34507513 2.031683683 -0.5838107467
-4.352844238 2.037168264 -0.4167533815
-3.304788351 1.547372222 -0.1890386194
-3.583413363 1.679356813 -0.06837673485
-3.593880653 1.675853968 0.06851635128
-4.336473465 2.023972511 0.2485969514
-4.3398242 2.027382851 0.4153588712
-4.314857483 2.016635656 0.5796672106
-4.314884663 2.018484831 0.7478083372
-4.306306839 2.015388489 0.9159459472
-4.290241718 2.00969553 1.083810806
-4.307254791 2.019498587 1.263089061
-3.692936182 1.736976862 -1.081915617
-3.380127907 1.591287136 -0.8525611162
-4.077579021 1.920501947 -0.8678621054
-4.112330437 1.938622355 -0.7133927941
-4.316412926 2.036673307 -0.5808858275
-4.19832325 1.98184824 -0.40245983
-3.599519968 1.701483965 -0.06879559159
-3.550012112 1.670508862 0.06778335571
-4.300825119 2.024730444 0.246922195
-4.306042671 2.029024363 0.4127442241
-4.28983736 2.023218393 0.5772297978
-4.276010513 2.017609596 0.7421767116
-4.27616787 2.019509077 0.910984993
-4.255011559 2.011333227 1.076612353
-4.265605927 2.01725316 1.25273633
-3.672888756 1.743230462 -1.077774644
-3.366030693 1.598308086 -0.8503116369
-4.111633778 1.95410645 -0.8766393661
-4.114799023 1.95649004 -0.7149570584
-4.288125992 2.040739775 -0.5779610276
-4.272323132 2.035048246 -0.4103038311
-3.360889912 1.601622343 -0.1929114759
-3.607997656 1.720926404 -0.06907482445
-3.569744349 1.694275975 0.06827201694
-4.279299259 2.032875061 0.2460848242
-4.262947559 2.026931047 0.409258008
-4.258008003 2.025494814 0.5738174319
-4.249323368 2.023181677 0.738735199
-4.232225895 2.015948534 0.9029709697
-4.236004829 2.019561768 1.073463082
-4.230641842 2.018818855 1.244454145
-3.663602591 1.753732443 -1.076739311
-3.356915712 1.608363867 -0.8494117856
-4.119294643 1.97451961 -0.8796923161
-4.198776245 2.014419317 -0.7309134603
-4.270240307 2.050539017 -0.5764985681
-4.254776478 2.044027328 -0.409258008
-3.604072809 1.733748436 -0.06910973042
-3.60168314 1.724863887 0.06900501996
-4.250919819 2.036698818 0.2448287606
-4.236440182 2.031579733 0.4073405266
-4.215118885 2.02316618 0.5689426661
-4.215879917 2.02443552 0.7340421081
-4.189773083 2.013700485 0.8953386545
-4.20609951 2.023355007 1.067614317
-4.197812557 2.020270824 1.236689448
-3.657458782 1.766509414 -1.076739311
-3.298924923 1.594051838 -0.835914731
-4.246700287 2.053848982 -0.9086952806
-4.232971191 2.048120499 -0.7381094098
-4.213391304 2.040462255 -0.5696738958
-4.222514153 2.046701193 -0.406817615
-3.261852264 1.581759453 -0.1877825558
-3.597744226 1.737667918 0.06903992593
-4.215013504 2.037616491 0.2431540042
-4.209595203 2.03681016 0.4054231346
-4.179798603 2.023294687 0.5650428534
-4.191010475 2.0305264 0.7309134603
-4.172472477 2.02244544 0.8930488825
-4.160795212 2.018577814 1.057716489
-4.175094604 2.027317047 1.232030749
-3.659642458 1.784135938 -1.079327583
-3.261255026 1.591324568 -0.8278164864
-4.210915565 2.055619955 -0.9025893807
-4.216201305 2.060022831 -0.7365450263
-4.160943985 2.034823656 -0.5635804534
-4.198877811 2.054282904 -0.4052488208
-3.253960609 1.593394876 -0.1876778901
-3.611328363 1.769170642 -0.06949368864
-3.594639778 1.753222585 0.06910973042
-4.171617985 2.035534859 0.2410605699
-4.175246716 2.039110184 0.4028084278
-4.15238142 2.029738426 0.5623617172
-4.155147552 2.031989098 0.7259075046
-4.145279408 2.028957605 0.8888511658
-4.132013321 2.024251223 1.052317619
-4.139881134 2.029003143 1.223748565
-3.636057138 1.788373351 -1.074151158
-3.264702797 1.606432557 -0.8300659657
-4.172011852 2.054692984 -0.8957202435
-4.19871521 2.068754911 -0.7346678972
-4.15951395 2.051245689 -0.5643116832
-4.157735825 2.052172184 -0.4019368887
-4.135770321 2.044023991 -0.07982551306
-4.141480923 2.036963224 0.07986041903
-4.144776344 2.040380955 0.239909187
-4.134146214 2.036941051 0.3994965553
-4.129602432 2.035598278 0.5601680279
-4.105512619 2.025505066 0.7183986902
-4.120923996 2.034002542 0.8850349784
-4.100817204 2.025858879 1.046019077
-4.113723755 2.034022808 1.218054533
-3.623184204 1.796986938 -1.072080493
-3.260820866 1.618685365 -0.8305159211
-4.138800621 2.055417299 -0.8899959922
-4.149013996 2.062296391 -0.7271589637
-4.131000996 2.055141449 -0.561386764
-4.118801117 2.049968958 -0.3987992704
-2.527948856 1.259286761 -0.145809114
-4.112503052 2.050418854 -0.07951136678
-4.118223667 2.043407917 0.07954627275
-4.110796928 2.041510105 0.2383390963
-4.111310005 2.042660713 0.3979277313
-4.102919579 2.04027915 0.5574869514
-4.087806702 2.034542561 0.7165214419
-4.082164288 2.032624483 0.8781657815
-4.081511497 2.034076691 1.042869806
-4.073753357 2.031985283 1.20821929
-3.628982782 1.815675139 -1.075704098
-3.222043991 1.613478422 -0.821967721
-4.105270386 2.056662321 -0.8842716813
-4.099410534 2.055515766 -0.7196501493
-4.102511406 2.058864117 -0.5584619045
-4.090254307 2.053605556 -0.3967075646
-2.452153444 1.232232094 -0.1416222453
-4.083883286 2.053978682 -0.07909251004
-4.077090263 2.040764809 0.07888308167
-4.08578825 2.04690218 0.2372923791
-4.082780361 2.046286821 0.3958359957
-4.065609455 2.039456367 0.5533434153
-4.057730198 2.03727603 0.7124541402
-4.03995657 2.029236317 0.8705334663
-4.053492546 2.037808657 1.037470937
-4.047652721 2.036641836 1.202525377
-3.62089777 1.827461123 -1.075186372
-3.218131781 1.625594378 -0.8224176764
-4.084048748 2.063896179 -0.881218791
-4.078108311 2.062681675 -0.7171472311
-4.061649799 2.05613637 -0.5538309216
-4.072395802 2.062470436 -0.3956616819
-2.412207842 1.222724199 -0.139528811
-4.064565182 2.061179161 -0.0788481757
-4.0538764 2.046871185 0.07856894284
-4.050454617 2.04603076 0.2356176227
-4.061388493 2.053333521 0.3944415152
-4.030125618 2.039295435 0.549443543
-4.035090446 2.042691231 0.7096382976
-4.011833668 2.032678604 0.8659541011
-4.018546581 2.037842751 1.030272484
-4.02020216 2.03956461 1.19631362
-3.607610941 1.836582899 -1.073115826
-3.23529768 1.64775455 -0.8282663822
-4.048833847 2.063873053 -0.8751128912
-4.053648949 2.067218781 -0.7140185237
-4.035358906 2.059668064 -0.5511497259
-3.951617241 2.018664598 -0.3845057189
-2.411696672 1.232534528 -0.1397381425
-4.009277344 2.05076766 -0.07790574431
-4.027463436 2.050323725 0.07818498462
-4.014814377 2.045650244 0.2339428663
-4.036447525 2.058446646 0.3926984072
-4.009194851 2.045431852 0.5474936962
-4.003305435 2.044187307 0.7052581906
-3.984090567 2.035253525 0.8613746166
-3.984004974 2.036963463 1.023074031
-3.988982201 2.041265011 1.189066768
-3.604938269 1.85030055 -1.074151158
-3.264193773 1.676847935 -0.8372644186
-4.019267559 2.065622091 -0.8701518178
-4.030597687 2.073225021 -0.7112026811
-4.008731365 2.063745975 -0.5484686494
-4.001581669 2.060950279 -0.3900837004
-2.357672215 1.215321779 -0.1368073374
-3.981126785 2.053053141 -0.07748688757
-4.009608746 2.058889389 0.07797555625
-3.988466263 2.048913717 0.2327914834
-3.997704268 2.055422068 0.3895607591
-3.98261404 2.049422503 0.5448125005
-3.959622383 2.038464069 0.6986879706
-3.956019402 2.038357496 0.8567951918
-3.95608592 2.040139675 1.017675161
-3.949571371 2.037652731 1.179231644
-3.581301451 1.853991508 -1.068974853
-3.275919914 1.696624517 -0.8417634368
-3.984144449 2.06518364 -0.864045918
-3.990382433 2.069300652 -0.7052581906
-3.975436449 2.0633111 -0.5448125005
-3.920104504 2.036331415 -0.3827626109
-2.381984949 1.237869382 -0.1384820789
-3.952647686 2.055864811 -0.07706803083
-3.963690519 2.051949263 0.07720764726
-3.961783171 2.052716732 0.2316401005
-3.953362226 2.050102949 0.385900259
-3.952888727 2.050734043 0.5416439176
-3.927937746 2.039530277 0.6943077445
-3.931816101 2.042415142 0.8529790044
-3.932008505 2.044258356 1.013176084
-3.918442965 2.03894186 1.171984673
-3.578558445 1.867645025 -1.070009947
-3.259613276 1.702636719 -0.839064002
-3.958134174 2.068382502 -0.8598482013
-3.958628416 2.070401192 -0.7008780241
-3.954140186 2.069810867 -0.5428626537
-3.948269367 2.068493843 -0.3862488568
-2.356420994 1.23505044 -0.1372260153
-3.389402628 1.77796638 -0.0661079213
-3.937005043 2.05559206 0.07682370394
-3.942203045 2.060057402 0.2309073806
-3.921823263 2.050278902 0.3834598958
-3.917565107 2.049794436 0.5377441049
-3.906795263 2.045897722 0.6918048263
-3.893360138 2.039726973 0.8461099267
-3.912767887 2.051636696 1.010026813
-3.897616625 2.045426846 1.167843699
-3.569980383 1.879847646 -1.06949234
-3.25537467 1.714912057 -0.8395139575
-3.927950859 2.070971727 -0.8548871279
-3.930048943 2.073832512 -0.6971235871
-3.901247978 2.059506416 -0.5365254283
-3.923408985 2.072955847 -0.3845057189
-2.302441835 1.217536688 -0.1342951953
-3.826841116 2.024497271 -0.07486902922
-3.903265238 2.055345774 0.07630012184
-3.901417017 2.056113482 0.2289186269
-3.901945591 2.05813241 0.3822396696
-3.877028942 2.045854807 0.533113122
-3.887403488 2.053064346 0.6896147728
-3.868500948 2.04480958 0.8422937393
-3.870771646 2.047737598 1.001028776
-3.868255854 2.047271967 1.161114335
-3.568514824 1.895016789 -1.07104528
-3.2593925 1.732318878 -0.8422133923
-3.879093885 2.062550545 -0.8457282186
-3.896628857 2.073618889 -0.6924305558
-3.873948574 2.064152956 -0.3803222775
-2.280554533 1.216168284 -0.1332484782
-3.872747898 2.057442665 0.07584635913
-3.862470627 2.052845955 0.2270345241
-3.875388622 2.061448097 0.3803222775
-3.853734016 2.051655293 0.5309194326
-3.852316856 2.051763773 0.6846088171
-3.844014883 2.049064636 0.8384775519
-3.829212427 2.042892218 0.9920307398
-3.852564335 2.05621314 1.158526063
-3.544848204 1.898342013 -1.065868974
-3.260500431 1.746799946 -0.8440129757
-3.6763556 1.971244454 -0.8026054502
-3.874064207 2.078125477 -0.6896147728
-3.846548796 2.065094948 -0.5309194326
-3.849169254 2.068232775 -0.3785791397
-2.28002739 1.225615501 -0.1334578246
-3.839029312 2.065375328 -0.07539259642
-3.851801157 2.062721729 0.07556712627
-3.848239422 2.062543154 0.2266158462
-3.84534502 2.062719822 0.3780562282
-3.829417706 2.055036783 0.5284820795
-3.820767879 2.052113056 0.6802287102
-3.819904804 2.052508593 0.8346614242
-3.806970119 2.047271252 0.9879816175
-3.807939291 2.049506187 1.147138
-3.531733513 1.906416059 -1.063798428
-3.276672363 1.770211339 -0.8498616815
-3.832149267 2.071171284 -0.8384775519
-3.616590738 1.956297994 -0.6445615888
-3.814877272 2.06527853 -0.5275071263
-2.258176327 1.224049091 -0.1324111074
-3.800157785 2.061599493 -0.07476431876
-3.806508064 2.059888601 0.5262883902
-3.794474363 2.055089235 0.6767870784
-3.790276766 2.053671598 0.8297003508
-3.782670021 2.051258087 0.9834825993
-3.780387163 2.05172801 1.14092648
-3.525057316 1.918732643 -1.063798428
-3.268761396 1.780706882 -0.8494117856
-3.802485943 2.072321892 -0.8335165381
-3.455397129 1.884726048 -0.6167162657
-3.46613884 1.892154217 -0.4797343016
-3.452054739 1.885248899 -0.3404049575
-2.252137661 1.230965734 -0.1323064417
-3.529784203 1.930898905 -0.06952859461
-2.996087551 1.631484747 0.05884771794
-3.018264055 1.644927859 0.1779433936
-3.014300108 1.64344883 0.2966527641
-3.773156643 2.058900595 0.5226323605
-3.773408175 2.060747623 0.6742841601
-3.75207305 2.04994607 0.8228312135
-3.763518333 2.057905197 0.9803332686
-3.749476433 2.051927567 1.133679509
-3.514951468 1.929165959 -1.062763095
-3.272773743 1.797735572 -0.8521112204
-3.445952177 1.893644333 -0.7560480833
-3.434949875 1.889160752 -0.6142132878
-3.438643694 1.892755866 -0.476809442
-3.457669735 1.904014707 -0.3416251242
-2.223337889 1.225323915 -0.1308410317
-3.759407997 2.073591471 -0.07424073666
-2.979856968 1.636158466 0.05863828957
-2.995000124 1.645834088 0.1768966764
-2.991085291 1.64436233 0.294909656
-3.736379862 2.055789948 0.5184887648
-3.74542737 2.062472582 0.6705297232
-3.719101191 2.048820734 0.8171069622
-3.723886967 2.0531528 0.9717851281
-3.732142687 2.059403419 1.13057375
-3.471009731 1.920844913 -1.051375031
-3.269888401 1.811036348 -0.8530110121
-3.422148228 1.896146417 -0.7522318959
-3.433517933 1.90401268 -0.6151519418
-3.438958645 1.908600688 -0.4777843952
-3.471905708 1.927677751 -0.3437168598
-2.20333457 1.22434628 -0.1298989803
-3.724184275 2.071151972 -0.07368226349
-2.967129469 1.642676711 0.05849866942
-2.978754759 1.650470614 0.1762686372
-2.985326767 1.654793978 0.294909656
-3.720502138 2.064005136 0.5172700882
-3.712300062 2.061149836 0.6658366919
-3.694764137 2.052257061 0.8132907748
-3.697962523 2.05572319 0.9668362141
-3.702985048 2.060208559 1.123844385
-3.415359974 1.905651808 -1.036363482
-3.270352602 1.826239944 -0.8548106551
-3.413794279 1.907123804 -0.7518502474
-3.44754076 1.927554488 -0.6189063191
-3.650548458 2.042730808 -0.50849545
-3.491233349 1.954383373 -0.3463315368
-2.204275131 1.234958172 -0.1302130073
-3.699489355 2.074359179 -0.07333321124
-2.957885504 1.651074052 0.0584288612
-2.959026098 1.653066516 0.1754312664
-2.958662271 1.653540015 0.2928179204
-3.695949316 2.067290068 0.5148326755
-3.682675123 2.061552048 0.6617693901
-3.673873901 2.057468414 0.8102378249
-3.672064781 2.058138371 0.9618873596
-3.663758516 2.055163622 1.114009261
-3.408686876 1.917562127 -1.036363482
-3.27754283 1.845293045 -0.8584098816
-3.60554409 2.030790329 -0.7961179614
-3.697191477 2.084109783 -0.6655237675
-3.705637217 2.090575695 -0.5172700882
-3.675251961 2.074280262 -0.3655057847
-2.186038733 1.234786868 -0.1293756217
-3.42762661 1.937677741 -0.0680276826
-2.931191683 1.649619937 0.05801000074
-2.94627738 1.65946424 0.1750125885
-2.928570986 1.650164604 0.2903775275
-3.671420097 2.070426941 0.5123953223
-3.647931099 2.05886054 0.656763494
-3.649574041 2.060626507 0.8064216375
-3.656374693 2.066150904 0.9596378207
-3.634701967 2.055577278 1.107279897
-3.440621853 1.951369166 -1.048269153
-3.267691612 1.854798555 -0.8575100303
-3.647942543 2.071477413 -0.807184875
-3.672719479 2.087242603 -0.6623951197
-3.672798634 2.088135719 -0.5136139393
-3.661062956 2.083154678 -0.3648085594
-2.16609478 1.233514786 -0.1284335703
-3.410756826 1.943094492 -0.06781825423
-2.908023357 1.649973631 0.05766095221
-2.919914722 1.65739429 0.1737565249
-2.915863752 1.656440854 0.2896803021
-3.636559248 2.067532063 0.50849545
-3.635932684 2.068015814 0.6558248997
-3.611647367 2.055871725 0.7995525599
-3.627488852 2.065727472 0.9537890553
-3.621152163 2.063792944 1.10520947
-3.474385738 1.985775113 -1.060692549
-3.264906645 1.867559075 -0.8584098816
-3.659796476 2.094288826 -0.8113826513
-3.645208836 2.087629318 -0.6586407423
-3.640017748 2.085501432 -0.5099579096
-3.638578653 2.086364031 -0.3632397354
-2.141205072 1.228762031 -0.1271775216
-3.607198954 2.070881128 -0.07190211862
-2.885176182 1.649682164 0.05731190741
-2.914402962 1.667067409 0.1737565249
-2.89997983 1.660161972 0.2886344194
-3.600402117 2.062803984 0.5043519139
-3.610203028 2.069256306 0.6523833275
-3.5894835 2.059045315 0.7961179614
-3.583434582 2.056406498 0.9438912868
-3.594185352 2.06424427 1.098997712
-3.457737207 1.991500735 -1.05758667
-3.265448809 1.882268548 -0.860209465
-3.593782425 2.074033976 -0.6505061388
-3.603493214 2.081316233 -0.5058143735
-3.6126647 2.087453127 -0.3613223135
-2.140576363 1.237855554 -0.1273868531
-3.580909729 2.072441578 -0.0715181604
-2.879689693 1.659240842 0.05731190741
-2.873961449 1.65727675 0.1716630906
-2.884104013 1.663796186 0.2875885665
-3.579788208 2.066791534 0.5024020076
-3.570461035 2.063067436 0.6464388371
-3.569037676 2.063077211 0.7930650711
-3.557679892 2.058167696 0.9389423132
-3.568567753 2.0661304 1.0933038
-3.21018815 1.8638767 -0.9830468297
-3.199886084 1.859387994 -0.8444628716
-3.187183619 1.852751851 -0.7083458304
-3.212590456 1.869021773 -0.5819877982
-3.232522488 1.882127285 -0.454141736
-3.588138819 2.090023756 -0.3595792055
-2.136242628 1.245319486 -0.1273868531
-3.570199966 2.082913876 -0.07144835591
-2.86004734 1.661247015 0.0570326671
-2.878519058 1.673321128 0.1722911149
-2.850721836 1.65782702 0.2847995758
-3.553679943 2.068290949 0.4997208714
-3.54446125 2.064582348 0.6429972649
-3.548244238 2.067615271 0.7900120616
-3.538689375 2.063702345 0.9357929826
-3.534638882 2.062992811 1.085021496
-3.170317411 1.855553627 -0.9726940393
-3.164789915 1.853802681 -0.8368145227
-3.146820545 1.844013572 -0.7007134557
-3.168559313 1.858239651 -0.5751047134
-3.186557055 1.87028873 -0.4485357404
-3.556768417 2.088413 -0.3571388721
-2.111218929 1.240626812 -0.1261307895
-3.531880856 2.077115536 -0.07082006335
-2.821443796 1.6520226 0.05636947975
-2.841643572 1.665182233 0.1704070121
-2.807103634 1.645600319 0.2809647322
-3.544726849 2.079678059 0.4994771481
-3.518494844 2.065940142 0.6395556927
-3.515613794 2.065072536 0.7842878103
-3.524744511 2.072091818 0.9339933991
-3.50243926 2.060624838 1.077256918
-3.142190695 1.853847384 -0.9659647346
-3.138163567 1.852948189 -0.8314157128
-3.130221844 1.848995805 -0.6984237432
-3.136547089 1.854209185 -0.5704116821
-3.168049574 1.874325871 -0.4468295872
-3.534025669 2.091681242 -0.3555700481
-2.079380751 1.231702685 -0.124456048
-3.510847569 2.081273794 -0.07054083049
-2.846131563 1.68118608 0.1710350513
-2.801341772 1.655389786 0.2809647322
-3.50839901 2.074860573 0.495333612
-3.502762794 2.073177814 0.6379913688
-3.488111973 2.065328598 0.7797083855
-3.488990307 2.067493677 0.9263451099
-3.478609085 2.062984228 1.072080493
-3.115775585 1.852955103 -0.9597530961
-3.103208303 1.846947908 -0.823767364
-3.108566761 1.850871682 -0.6949892044
-3.11478281 1.856045842 -0.5675958395
-3.118864298 1.859953642 -0.440736115
-3.48185277 2.078072786 -0.3510379493
-2.063064814 1.231786489 -0.123723343
-3.491544724 2.086337328 -0.07029649615
-2.20663023 1.312806726 0.04411788657
-2.788762808 1.660457373 0.1678948998
-2.79554677 1.665157557 0.2809647322
-3.468737602 2.067782164 0.4907025695
-3.475147724 2.073247433 0.6342369318
-3.455592632 2.062400103 0.7739840746
-3.454983711 2.06367135 0.919146657
-3.461437702 2.069167137 1.068974853
-3.085768223 1.850453138 -0.952506125
-3.090058088 1.853758931 -0.821967721
-3.078197241 1.848104954 -0.6896465421
-3.09272027 1.858293176 -0.5647799969
-3.100443602 1.863670349 -0.4390299618
-3.331167221 2.003942251 -0.3363957703
-2.043136358 1.23006773 -0.1227812916
-3.458545446 2.083036661 -0.0697729215
-2.181454659 1.308160305 0.04369902983
-2.796649933 1.678404212 0.1687322706
-2.77917695 1.669237375 0.2799188495
-3.442495823 2.070095301 0.6295438409
-3.439600706 2.069989443 0.7720760107
-3.429033279 2.065261841 0.9141977429
-3.444266319 2.07525444 1.065868974
-3.06441021 1.852219582 -0.9478474259
-3.056564331 1.848934174 -0.8147693276
-3.066688299 1.855789304 -0.6885016561
-3.077766418 1.86396122 -0.563215673
-3.081707954 1.867819905 -0.4373237491
-3.310522556 2.007292986 -0.3350012898
-2.035414934 1.235120416 -0.1225719452
-3.440997362 2.088869572 -0.06956349313
-2.190335035 1.324424148 0.04397827014
-2.735835791 1.656229258 0.2760840058
-3.40990901 2.066742182 0.6248508692
-3.425639629 2.077910662 0.7705495954
-3.413474321 2.072161674 0.911948204
-3.410581827 2.071220398 1.05758667
-2.996883392 1.825716734 -0.9286947846
-3.052080154 1.860074043 -0.8152192235
-3.046783447 1.858303905 -0.6854487062
-3.056391716 1.864897132 -0.5603998303
-3.067026854 1.87285471 -0.4361050725
-3.301795721 2.017798185 -0.3348269761
-2.031307936 1.24186337 -0.1225719452
-2.179100037 1.327518821 0.04383864626
-2.730038166 1.665768385 0.2760840058
-3.404360294 2.079661369 0.625163734
-3.398627996 2.076974392 0.7659701109
-3.396609306 2.077369213 0.9092487693
-3.386853456 2.073028326 1.052410364
-2.775125265 1.703264236 -0.8608842492
-3.030623913 1.861537218 -0.8111701012
-3.033913612 1.864285946 -0.6839222312
-3.036402225 1.86727643 -0.5578969121
-3.055398703 1.880428672 -0.4353738427
-3.391792774 2.088276863 -0.3447627425
-2.015058517 1.241612077 -0.1218392476
-2.140370607 1.314190626 0.04314055294
-2.72110486 1.672725677 0.2757353783
-3.376894712 2.079104424 0.6214093566
-3.361267805 2.070292473 0.7591009736
-3.379383564 2.083077669 0.9065493345
-3.363155365 2.074694633 1.047233939
-2.682087183 1.659077883 -0.8334493637
-3.015823364 1.866975427 -0.8089206219
-3.027387381 1.874865055 -0.6839222312
-3.026507854 1.875782132 -0.5572711229
-3.03532052 1.882711887 -0.4334239662
-3.38109684 2.098003149 -0.344414115
-1.990351439 1.235994577 -0.1205831841
-2.169778824 1.342699885 0.04383864626
-2.708474398 1.678016782 0.2750381529
-3.359545708 2.084630489 0.6195321083
-3.340676785 2.073729515 0.7560480833
-3.348917246 2.080464602 0.9002507329
-3.355892658 2.086421728 1.047233939
-2.668082237 1.66332078 -0.8308612108
-3.00267458 1.873364925 -0.8071209788
-3.004169226 1.875027061 -0.6801061034
-3.008213997 1.879009962 -0.5550810695
-3.016947269 1.885930061 -0.4317177832
-3.361928225 2.102396727 -0.3431939483
-1.986024857 1.242934704 -0.1205831841
-2.13114357 1.329101324 0.04314055294
-2.675560236 1.670577526 0.2722491622
-2.737822771 1.710781574 0.3912571371
-3.337538719 2.086335659 0.6167162657
-3.326760054 2.081213236 0.7545216084
-3.321814299 2.079731703 0.8948518634
-3.327671289 2.08420825 1.040504694
-2.636087894 1.656179905 -0.8225790262
-2.989845991 1.8791641 -0.8053213954
-2.982649088 1.87609446 -0.676671505
-3.011997938 1.895287633 -0.5569583178
-3.008996725 1.894866586 -0.4314740598
-3.336027145 2.102435112 -0.3412764966
-1.978513002 1.247383475 -0.1203738302
-2.126724243 1.336161256 0.04314055294
-2.732134581 1.719851255 0.3912571371
-3.313522577 2.087443352 0.6135875583
-3.309874535 2.085953236 0.7522318959
-3.30501008 2.084498405 0.8921525478
-3.308940411 2.088593245 1.036881208
-2.620786667 1.658713698 -0.8194731474
-2.979975939 1.887503743 -0.8044216037
-2.984703302 1.891229272 -0.6785796285
-2.992017746 1.897326946 -0.5544553399
-2.999012232 1.903230429 -0.4309865534
-3.310534716 2.101739168 -0.3393590748
-1.974147081 1.254281759 -0.1203738302
-2.015607595 1.27618444 0.04094155133
-2.726114511 1.729377866 0.3912571371
-3.296574831 2.092069387 0.6117103696
-3.2793715 2.082758665 0.7468892336
-3.286200285 2.088706017 0.8890031576
-3.284063339 2.088152647 1.031187057
-2.601950407 1.659541011 -0.8153320551
-2.967128515 1.893182635 -0.8026219606
-2.963191748 1.892126322 -0.67514503
-2.974056482 1.899794698 -0.5522652864
-2.997702122 1.916372895 -0.4317177832
-3.29142952 2.105767012 -0.3381389081
-1.953154564 1.250054955 -0.119327113
-2.001248837 1.276409507 0.04073211923
-2.636728764 1.684962273 0.3790702224
-3.269282103 2.090792418 0.6079559326
-3.247640133 2.077751637 0.7411649227
-3.262844801 2.089083433 0.8845041394
-3.262115955 2.090222597 1.026528478
-2.588306427 1.662939191 -0.8127439022
-2.942471981 1.891934395 -0.7976730466
-2.960202932 1.904066324 -0.6759082675
-2.96906805 1.911233068 -0.5525780916
-2.977643967 1.918224812 -0.4297678471
-3.255958319 2.098321438 -0.3351756036
-1.928637743 1.243875027 -0.1180710569
-2.00350976 1.287712216 0.04087174311
-2.63083148 1.694155455 0.3790702224
-3.248680115 2.093631029 0.6054529548
-3.228817463 2.081628084 0.7384936213
-3.234244347 2.086726427 0.8786554337
-3.248307705 2.097405195 1.024457812
-2.575999498 1.667764664 -0.8106733561
-2.86552453 1.856629968 -0.7783272266
-2.940358639 1.905845165 -0.6728553176
-2.955749035 1.917286277 -0.5513266325
-2.969264746 1.927526236 -0.4295241237
-3.258639574 2.11618495 -0.3362214565
-1.92428422 1.250599623 -0.1180710569
-2.0006814 1.295784473 0.04090664536
-3.223128796 2.093123913 0.6020113826
-3.21494627 2.088608027 0.736967206
-3.210603237 2.087380409 0.8741564155
-3.231251001 2.102409601 1.021352053
-2.547510624 1.661967993 -0.8034263849
-2.829654694 1.847444892 -0.770228982
-2.927113533 1.911803246 -0.6713288426
-2.958959579 1.934076667 -0.5532038212
-2.962518454 1.937879324 -0.4295241237
-3.231226921 2.114455462 -0.3341297209
-1.906539917 1.248555183 -0.1172336787
-2.058868885 1.349339604 -0.04226793349
-2.001169682 1.306039095 0.04101135954
-3.194314718 2.090300798 0.5979440808
-3.205993414 2.098742485 0.7365855575
-3.190256596 2.090031624 0.870557189
-3.204505444 2.1009655 1.015140414
-2.532007933 1.66448319 -0.8003205657
-2.83132863 1.862666249 -0.7724785209
-2.920422554 1.922008514 -0.6713288426
-2.950540543 1.943307161 -0.552891016
-2.962365627 1.952578306 -0.4304990768
-3.197212934 2.10817337 -0.3313407302
-1.908838391 1.259603143 -0.1176523715
-2.007423401 1.325663328 -0.04129059985
-1.989915133 1.308622122 0.04087174311
-3.183700323 2.09926343 0.5973183513
-3.182260036 2.09910965 0.7327693701
-3.176436424 2.096860647 0.8687576056
-3.176198006 2.09829545 1.00841105
-2.51651907 1.666910648 -0.7972147465
-2.805318594 1.859616876 -0.767079711
-2.851520777 1.890960336 -0.6568273902
-2.940447807 1.951409578 -0.5522652864
-2.955531836 1.962907314 -0.4304990768
-3.18319726 2.114909887 -0.3306435049
-1.884471536 1.252988219 -0.1163963005
-2.014671564 1.340064764 -0.04153493047
-1.978667378 1.311141968 0.04073211923
-1.986102581 1.316566944 0.1226766258
-3.161911726 2.099973917 0.5945025682
-3.152022123 2.094991446 0.7274267077
-3.160985231 2.102538586 0.8665081263
-3.159572124 2.102395535 1.00530529
-2.497829914 1.667105794 -0.7930736542
-2.80886054 1.875402212 -0.7697791457
-2.828578234 1.889995933 -0.6530112028
-2.935602665 1.962247372 -0.5525780916
-2.934156656 1.962763906 -0.4283054471
-3.165861368 2.11935854 -0.3295976222
-1.863711119 1.24811697 -0.1153495833
-2.006659031 1.344863176 -0.04146512225
-1.97430861 1.317696333 0.04073211923
-1.981494784 1.323491931 0.1226766258
-3.151278973 2.108800411 0.5938768387
-3.135269642 2.098879099 0.7251369953
-3.139424324 2.103247881 0.8624589443
-3.139377356 2.104805231 1.001164079
-2.485875368 1.671067715 -0.7910030484
-2.802297115 1.885195732 -0.7697791457
-2.804378748 1.887308002 -0.6488133669
-2.913989305 1.962551713 -0.5497623086
-1.911585569 1.288894892 -0.1979924589
-1.852720976 1.250146031 -0.114930898
-2.000294924 1.350740552 -0.04143021628
-1.981312752 1.332390785 0.04097645357
-1.978519201 1.331516027 0.1227812916
-3.117693186 2.102118254 0.5888709426
-3.118157625 2.103224039 0.7228472829
-3.106220245 2.096749067 0.8552604914
-3.12080574 2.108180523 0.9975407124
-2.467230797 1.671068668 -0.7868620157
-2.789247036 1.890592456 -0.7679795027
-2.781524897 1.886066914 -0.6449972391
-1.872646213 1.27169323 -0.2728001475
-1.882353663 1.278766274 -0.1953777969
-1.851649165 1.258851528 -0.1151402444
-1.985648513 1.350965142 -0.04122078791
-1.97664988 1.339298725 0.04097645357
-1.968900681 1.335051298 0.1224672794
-2.245955467 1.525777221 0.4233632088
-3.101054907 2.10747385 0.7205575705
-3.069876671 2.087853193 0.8471622467
-3.038367033 2.067973852 0.9732117057
-2.437446833 1.663336873 -0.7790973783
-2.779412031 1.89811933 -0.767079711
-1.876144528 1.282699823 -0.3532805741
-1.878025293 1.284947753 -0.2742625773
-1.869658113 1.279702067 -0.1945062429
-1.840652585 1.260792732 -0.114721559
-1.989167333 1.363541126 -0.04139531404
-1.967007995 1.342808127 0.04087174311
