# .PCD v0.7 - Point Cloud Data file format
VERSION 0.7
FIELDS x y z
SIZE 4 4 4
TYPE F F F
COUNT 1 1 1
WIDTH 1264
HEIGHT 1
VIEWPOINT 0 0 0 1 0 0 0
POINTS 1264
DATA ascii
0.605871439 2.319338322 -0.2060107887
0.6065946221 2.318796635 -0.1234093308
0.6111593246 2.332920074 -0.04139531404
0.6006429791 2.31086421 0.04097645357
0.5921898484 2.275080442 0.1210018694
0.5851678252 2.24649477 0.1993869543
0.6019194126 2.307502985 0.2876681983
0.6033744216 2.309779644 0.3714269698
0.6021898389 2.303600788 0.4545698464
0.6065963507 2.317151785 0.5430284142
0.6067367196 2.314390182 0.6295000315
0.6135010123 2.328591824 -0.6336410642
0.6155189872 2.332941055 -0.5470775962
0.6163374782 2.334391832 -0.4610573649
0.6157799959 2.328986406 -0.374868542
0.6159612536 2.326390266 -0.2903493047
0.6165158153 2.326838732 -0.2068823576
0.6146845222 2.316665411 -0.1234093308
0.6234077811 2.346233368 -0.04167455062
0.6112542748 2.318421602 0.04115097597
0.6001284122 2.272999287 0.1210018694
0.5955501795 2.254069805 0.2002585232
0.6079400778 2.297711611 0.2866932452
0.6134577394 2.315296888 0.3726784289
0.6102278233 2.301484346 0.4545698464
0.6111809611 2.301835537 0.5398791432
0.6158040762 2.315992355 0.6305352449
0.6246184111 2.337634325 -0.6367468834
0.6271830797 2.343956232 -0.5502268672
0.6239740252 2.330329895 -0.4606757462
0.6249275208 2.330638885 -0.3754942715
0.6240787506 2.324225903 -0.2903493047
0.6251508594 2.326596975 -0.2070566714
0.6232870817 2.316434145 -0.1235139966
0.6263908148 2.324734926 -0.04132550582
0.6198605299 2.318205595 0.04118588194
0.6070253253 2.267032146 0.1207925305
0.6049624681 2.25775075 0.2007814497
0.6180141568 2.303244591 0.2876681983
0.6205102205 2.309326172 0.3720526993
0.6202964783 2.306924105 0.4560963511
0.6187060475 2.297806263 0.5394291878
0.6258969307 2.321289301 0.6326057911
0.631259501 2.329845667 -0.6351940036
0.635872066 2.343633175 -0.5506767631
0.6310763955 2.324348211 -0.4599125087
0.6346145272 2.33416152 -0.3764328659
0.6316660643 2.32011795 -0.2901056111
0.6322202682 2.320555925 -0.2067080289
0.6350483298 2.327732086 -0.1242467016
0.633448422 2.318675756 -0.04125569016
0.6316112876 2.329537868 0.04143021628
0.6180756092 2.276464462 0.1214205623
0.6133616567 2.257548094 0.2009557486
0.630219996 2.316396952 0.2896181345
0.6275284886 2.303334713 0.3714269698
0.631444335 2.316109419 0.458386004
0.6287745237 2.3031528 0.5412288308
0.6329777837 2.315363407 0.631570518
0.6393867135 2.327628374 -0.6351940036
0.6450833678 2.345157146 -0.5515766144
0.6428315639 2.335381269 -0.4625838399
0.6422341466 2.330027819 -0.3761200011
0.6439868212 2.33320713 -0.2920555174
0.642439127 2.326016903 -0.207405284
0.644767642 2.331276417 -0.1245607138
0.6458064318 2.331868172 -0.04153493047
0.6376196146 2.319606304 0.04129059985
0.62389642 2.266590595 0.1210018694
0.6207097173 2.253472328 0.2007814497
0.6372446418 2.310355902 0.2891306281
0.6387208104 2.312554359 0.3733041883
0.6405696273 2.317676306 0.4591493011
0.6399295926 2.312212467 0.543928206
0.6389917731 2.30569315 0.6295000315
0.6511359215 2.338409662 -0.6388174891
0.6537883878 2.344768286 -0.5520264506
0.6509802938 2.333122969 -0.4625838399
0.650363028 2.327771902 -0.3761200011
0.6526627541 2.332856417 -0.2922992408
0.6500168443 2.321841717 -0.2072309703
0.6518238187 2.325165033 -0.1243513823
0.6571856141 2.341151476 -0.04174436256
0.646786809 2.321218967 0.04136040807
0.6360992193 2.279789209 0.1218392476
0.6285726428 2.251291752 0.2007814497
0.6453059912 2.30811739 0.2891306281
0.6473212838 2.312213182 0.3736170232
0.646538198 2.307863951 0.4576227963
0.6490490437 2.313717604 0.5448280573
0.6480816603 2.307168245 0.6305352449
0.6598187089 2.337981939 -0.6393350959
0.6603799462 2.336845636 -0.5506767631
0.6623263955 2.342171431 -0.4648735523
0.6595614552 2.329288483 -0.3767457306
0.659717381 2.326745033 -0.2918117642
0.6619250178 2.332975388 -0.2084511369
0.6610261798 2.326718569 -0.1245607138
0.6638525128 2.335112095 -0.04167455062
0.6559706926 2.322796106 0.04143021628
0.642570138 2.273823023 0.1216299087
0.6407656074 2.264421225 0.202175945
0.6533594728 2.305850506 0.2891306281
0.6571403146 2.317655802 0.374868542
0.656735599 2.313147306 0.4591493011
0.6576549411 2.313312054 0.5452779531
0.6620716453 2.327303886 0.6367468834
0.6690388322 2.339379072 -0.640370369
0.6718783379 2.347758055 -0.5538260937
0.6694159508 2.336070776 -0.4641103148
0.6694595218 2.334684134 -0.3779972196
0.6674301624 2.324544191 -0.2918117642
0.6733683348 2.342139482 -0.2094970196
0.6676345468 2.320674658 -0.1243513823
0.6731072068 2.336623669 -0.04174436256
0.6647702456 2.324453592 0.04150002822
0.6494032145 2.267726421 0.1214205623
0.6536091566 2.279407501 0.2037447393
0.6642869115 2.315119982 0.2905930579
0.6641359925 2.31155014 0.3742427528
0.6665731072 2.318504095 0.4606757462
0.6647830009 2.309246063 0.5448280573
0.6691209078 2.321266413 0.6357116699
0.6767923236 2.337147713 -0.640370369
0.6795262098 2.34352684 -0.5533761978
0.6809880137 2.347036839 -0.466781646
0.6809111834 2.343714714 -0.3798744082
0.6788678169 2.333636522 -0.293274194
0.6777886748 2.328415871 -0.2084511369
0.6802027822 2.333669424 -0.1251887381
0.6790168285 2.326581717 -0.04160473868
0.6745502353 2.327880621 0.04160473868
0.6612103581 2.278872728 0.1221532673
0.6611650586 2.277227163 0.2037447393
0.6734719872 2.316599607 0.2910805345
0.6705440283 2.303528309 0.3733041883
0.6768567562 2.323703289 0.462202251
0.6728392839 2.306911707 0.5448280573
0.6772201657 2.318916321 0.6357116699
0.6833155155 2.329209805 -0.6388174891
0.692646265 2.357968092 -0.5574253201
0.6886235476 2.342761517 -0.4663999975
0.6868578792 2.333743334 -0.3786229491
0.6858866811 2.327444315 -0.2927867174
0.6859128475 2.326035738 -0.2084511369
0.690040946 2.33702755 -0.1255027652
0.6916701198 2.339538097 -0.04188397899
0.6821082234 2.32359314 0.04156983644
0.669161737 2.276550531 0.1221532673
0.6674229503 2.269171476 0.2032217979
0.6826764941 2.318042755 0.291568011
0.6813749671 2.310647249 0.374868542
0.6838531494 2.317559958 0.4614389539
0.6830970645 2.312024117 0.5466276407
0.6853100061 2.316538572 0.6357116699
0.6930921674 2.33236599 -0.640370369
0.6986504793 2.348064423 -0.5556256771
0.6973568201 2.342225313 -0.466781646
0.6961292624 2.335117579 -0.3792486787
0.6985486746 2.340253353 -0.2947366238
0.6980201602 2.336990595 -0.2096713334
0.6936169863 2.319296122 -0.1246653795
0.699831903 2.337109566 -0.04188397899
0.6885045767 2.315448046 0.04146512225
0.6799534559 2.28377223 0.1226766258
0.6793212891 2.280193806 0.2044419795
0.6901959777 2.31374383 0.2913242877
0.6922637224 2.317718029 0.3764328659
0.6908140182 2.311397076 0.4606757462
0.6933986545 2.317093134 0.5484272242
0.6945016384 2.317832947 0.6367468834
0.7051273584 2.342881441 -0.6439938545
0.7051551342 2.340013981 -0.5542759895
0.7077961564 2.347295046 -0.4683080912
0.7048466206 2.334564924 -0.3795615733
0.7044163346 2.330199957 -0.2937616706
0.7079036236 2.340261221 -0.2101942748
0.7051817775 2.328330278 -0.1252934188
0.7091469169 2.338479519 -0.04195378721
0.7000421882 2.324519157 0.04167455062
0.6867685318 2.277560234 0.1224672794
0.6895793676 2.285438538 0.2051392347
0.6965465546 2.305619478 0.2905930579
0.7014933228 2.319069147 0.3770585954
0.7000161409 2.312729359 0.4614389539
0.6980909705 2.303468943 0.545727849
0.7070753574 2.330183744 0.6408880353
0.7144271731 2.344101667 -0.6450291276
0.7150248885 2.343130112 -0.5556256771
0.7125449777 2.333544493 -0.4660184085
0.7158786654 2.341535568 -0.3811258972
0.711383462 2.323930979 -0.293274194
0.7189865112 2.347300768 -0.2110658288
0.7133044004 2.32585454 -0.1252934188
0.7173060775 2.335989952 -0.04195378721
0.7087358832 2.323973894 0.04170945287
0.6941307187 2.273238897 0.1223626062
0.7010454535 2.294450283 0.2061851174
0.7074936032 2.312665462 0.2918117642
0.707270503 2.309051037 0.3758071065
0.7103866935 2.317780018 0.4629654586
0.7061279416 2.301018 0.545727849
0.7186087966 2.338781595 0.6439938545
0.7203271389 2.334209442 -0.6429585218
0.7272260785 2.353653193 -0.5587750077
0.7206868529 2.331042767 -0.4660184085
0.7293044925 2.356005907 -0.38394171
0.7241930962 2.336602211 -0.2952241302
0.7230429649 2.331456423 -0.2098456323
0.7237883806 2.330979824 -0.1257120967
0.7242679596 2.329652548 -0.04188397899
0.723334372 2.342503071 0.04209340736
0.7038320899 2.276526451 0.1226766258
0.7078731656 2.288182259 0.2058364749
0.7184993029 2.319662571 0.2930304408
0.7164949775 2.310342312 0.3764328659
0.7219635844 2.326536417 0.4652551413
0.717045188 2.307844639 0.5479773879
0.724473536 2.328880072 0.6419233084
0.730774641 2.339056969 -0.6450291276
0.737183392 2.356679916 -0.5601246953
0.7311656475 2.336007118 -0.4675448835
0.7333896756 2.340250731 -0.3817516267
0.7331261039 2.337975979 -0.2957115769
0.7299839854 2.325116396 -0.2094970196
0.7355136871 2.339871407 -0.1263401359
0.7367888689 2.342499018 -0.0421632193
0.7291196585 2.332329512 0.04195378721
0.7137620449 2.2818048 0.1230953038
0.7170466185 2.289500237 0.2061851174
0.7277805209 2.320928574 0.2935179174
0.7253358364 2.311722994 0.3770585954
0.7277273536 2.316510201 0.4637286961
0.7276167274 2.314749002 0.5502268672
0.7298731804 2.319093704 0.6398527622
0.7396922112 2.340304613 -0.6460644007
0.7438191772 2.350506306 -0.5592249036
0.7412782311 2.341056347 -0.4690713286
0.7429377437 2.343454599 -0.3826902509
0.7438758016 2.344992876 -0.2969302833
0.7413095832 2.334076166 -0.2105429024
0.7408475876 2.329806328 -0.125921458
0.7445534468 2.340042591 -0.0421632193
0.7350405455 2.324179411 0.04184907675
0.7243383527 2.288945913 0.1236186624
0.723430872 2.283311129 0.2058364749
0.7348723412 2.316610336 0.293274194
0.7365830541 2.32060194 0.3789358437
0.7354047298 2.314084291 0.4637286961
0.7382409573 2.32160902 0.5524764061
0.7410753965 2.327705145 0.6429585218
0.7509772182 2.348879814 -0.6491702199
0.7486386299 2.338747025 -0.5569754243
0.7514312267 2.346064568 -0.4705978334
0.7507043481 2.340978384 -0.3826902509
0.747808516 2.329151869 -0.2952241302
0.7514826059 2.339192629 -0.2112401277
0.7485700846 2.327336788 -0.125921458
0.7551697493 2.345042944 -0.04230283946
0.7451816201 2.329347372 0.04198869318
0.7304946184 2.280697823 0.1233046502
0.7376881242 2.30177021 0.2077539116
0.7437641025 2.31794095 0.2937616706
0.7446796298 2.318016529 0.3789358437
0.7418735027 2.307894707 0.4629654586
0.7415648699 2.304177523 0.5488771796
0.7491956353 2.325104475 0.6429585218
0.7603618503 2.349920034 -0.650205493
0.7616019249 2.350950718 -0.5605746508
0.7596165538 2.343427181 -0.4705978334
0.7619196773 2.347738266 -0.3842546046
0.7577750683 2.332190752 -0.2959553003
0.7639549375 2.349818707 -0.2124603093
0.7591627836 2.332305908 -0.1263401359
0.7633492351 2.34239316 -0.04230283946
0.7557724714 2.334341764 0.04212831706
0.7378360033 2.276233912 0.1231999844
0.7457188964 2.299180984 0.2077539116
0.7530751824 2.319107056 0.2942491472
0.7503228784 2.307888508 0.377684325
0.7572113276 2.327694893 0.4675448835
0.7508110404 2.305280685 0.5497769713
0.7632968426 2.34084177 0.6481349468
0.7710183263 2.351981401 -0.5614744425
0.765345037 2.33329916 -0.4690713286
0.7725760341 2.352571011 -0.3855060637
0.7671497464 2.333303452 -0.2964428067
0.7677949071 2.333889246 -0.2112401277
0.7685474157 2.333436251 -0.1265494823
0.7715216875 2.33971405 -0.04230283946
0.7651597261 2.335490465 0.04219812527
0.7488901615 2.283133268 0.123723343
0.7537384033 2.296564341 0.2077539116
0.7642648816 2.325893641 0.2954678237
0.7608442307 2.312761068 0.3789358437
0.7677879333 2.332496643 0.4690713286
0.7619026303 2.311900139 0.5520264506
0.7666203976 2.323487043 0.6439938545
0.7835187316 2.36222291 -0.5646237135
0.7747215033 2.334340334 -0.4698345959
0.7814068794 2.3517344 -0.3858189285
0.7771701813 2.336261988 -0.2971740067
0.7759376764 2.331194639 -0.2112401277
0.7804771662 2.342108011 -0.1271775216
0.7809493542 2.340800762 -0.04237264767
0.7714204788 2.327110767 0.04209340736
0.7593711019 2.288087606 0.1241420209
0.7611230016 2.292028189 0.2075795829
0.7755098939 2.332630157 0.2966865301
0.7682893872 2.308216572 0.3786229491
0.7746840119 2.326076984 0.4683080912
0.7748999596 2.324015617 0.5556256771
0.7759490609 2.324461699 0.6450291276
0.7738777399 2.308858156 -0.6408880353
0.788038373 2.348389149 -0.5619243383
0.7872400284 2.344649553 -0.4725058973
0.7870918512 2.341503143 -0.3845674396
0.7897533774 2.346704721 -0.2988801897
0.7882931828 2.339664221 -0.2122860104
0.7860963345 2.331798792 -0.1267588288
0.7916739583 2.345638752 -0.0425122641
0.7833544612 2.335778952 0.04230283946
0.7711684108 2.296783209 0.1247700602
0.7716576457 2.296911955 0.2082768381
0.7798513174 2.318619728 0.2952241302
0.7813845873 2.320497513 0.3811258972
0.7802920938 2.315916777 0.466781646
0.7836299539 2.323143482 0.5560756326
0.7865312696 2.329059839 0.6470996737
0.7947474718 2.342594862 -0.651240766
0.8002497554 2.354760647 -0.4751772285
0.7988518476 2.347952843 -0.3861318231
0.7947409749 2.334537983 -0.2976615131
0.7990268469 2.344441414 -0.2129832506
0.7933470607 2.325121641 -0.1265494823
0.8024419546 2.350430727 -0.04265188798
0.7927875519 2.33681798 0.04237264767
0.7766112089 2.28651309 0.1243513823
0.7839190364 2.305386305 0.2093227059
0.78858006 2.317762613 0.2954678237
0.7888424397 2.315886021 0.3808130324
0.7913091183 2.320473909 0.4683080912
0.7908807993 2.316567183 0.5551758409
0.7959048152 2.329956532 0.6481349468
0.8060556054 2.348942518 -0.6538289785
0.7845627666 2.283713102 -0.5475274324
0.8046360016 2.34081316 -0.4728875458
0.8089706302 2.350753546 -0.3870703876
0.8039380908 2.33348608 -0.2979052365
0.8108620048 2.350914717 -0.2138548046
0.8034137487 2.328001976 -0.1268634945
0.8097447753 2.343693972 -0.04258207232
0.8039440513 2.341461658 0.0425122641
0.783688426 2.279873371 0.1241420209
0.7964971662 2.315824509 0.2105429024
0.7990080714 2.320487499 0.2961990535
0.8005446792 2.322316885 0.3823773563
0.8038859963 2.330689192 0.4709794521
0.7970536351 2.308266401 0.5538260937
0.8094891906 2.341629982 0.6522760391
0.8159264326 2.349622488 -0.6548642516
0.7938082814 2.28464222 -0.5484272242
0.8201791644 2.3552351 -0.3883219063
0.8140387535 2.336289406 -0.2986364365
0.8138130307 2.33302021 -0.2124603093
0.8165496588 2.338240862 -0.1275961995
0.8166010976 2.337077618 -0.0425122641
0.8140810728 2.344308376 0.04261698201
0.7949206829 2.286556482 0.1246653795
0.8043254018 2.311007738 0.2103685737
0.8136310577 2.336431265 0.2986364365
0.8092960715 2.321373701 0.3826902509
0.812422514 2.327727556 0.4709794521
0.8125787973 2.325565815 0.5587750077
0.8157450557 2.333319902 0.6507231593
0.8260906935 2.356306314 -0.6574524045
0.8306695223 2.366720438 -0.5691227317
0.8265091777 2.350927353 -0.3880090117
0.8253282905 2.344955683 -0.300098896
0.8233795166 2.338112354 -0.2131575644
0.8274677396 2.347109795 -0.1282242388
0.8279331923 2.345814943 -0.0427216962
0.8201175332 2.337965488 0.04254717007
0.8067332506 2.297239065 0.1253980994
0.8118388057 2.310491085 0.2105429024
0.821626544 2.335736036 0.2988801897
0.8165855408 2.318819761 0.3826902509
0.8180212379 2.32160306 0.4702161849
0.8194759488 2.323144436 0.5587750077
0.8237140775 2.332567215 0.651240766
0.8343102336 2.353408575 -0.6574524045
0.8363182545 2.35646081 -0.5673231483
0.8026683331 2.26039505 -0.458004415
0.8300783038 2.334999323 -0.3858189285
0.8361714482 2.34954071 -0.3010738194
0.833540678 2.340855122 -0.2136805058
0.8343150616 2.340444326 -0.1280148923
0.8374602199 2.346677065 -0.04279150441
0.8282741904 2.335088253 0.04254717007
0.817420125 2.301937342 0.1258167773
0.8232347965 2.317029715 0.2114144564
0.8291090131 2.330983639 0.2986364365
0.8326259255 2.338286161 0.386444658
0.8267785311 2.320583105 0.4705978334
0.8301985264 2.327611923 0.5605746508
0.8318518996 2.329677582 0.651240766
0.8464318514 2.361392975 -0.6605582833
0.8412472606 2.34435606 -0.565073669
0.8390812278 2.337033272 -0.474413991
0.8416801691 2.339136362 -0.300098896
0.8457555175 2.349178791 -0.2147263587
0.8411258459 2.333759546 -0.1278055459
0.8497194052 2.355025768 -0.04300093651
0.8391199112 2.339712143 0.04268679023
0.8220763803 2.289670944 0.1252934188
0.836032331 2.327267885 0.2126346231
0.8325387836 2.314999342 0.2969302833
0.8374368548 2.326072931 0.3848803341
0.8388665915 2.328765392 0.4728875458
0.8369957209 2.321033716 0.559674859
0.8432594538 2.335844755 0.6538289785
0.8566424251 2.363873482 -0.6621111631
0.8560720682 2.359724283 -0.5695726871
0.8492419124 2.339627028 -0.4755588472
0.8166749477 2.247456789 -0.3720526993
0.8484823704 2.332453012 -0.2996113896
0.8553141356 2.349956512 -0.2150750011
0.8547366261 2.345822096 -0.1286429167
0.8551943302 2.344530344 -0.04286131263
0.8513723612 2.34804821 0.0428962186
0.8321066499 2.292420149 0.1256074309
0.8468720317 2.331825733 0.2133318633
0.8480741382 2.332601547 0.2996113896
0.8489299417 2.332416296 0.386444658
0.8483322859 2.329512596 0.4736507833
0.8553814292 2.343775749 0.6569347978
0.8642247915 2.359054565 -0.6615934968
0.8676581979 2.365869761 -0.5718221664
0.8574041724 2.336648226 -0.4755588472
0.8231523633 2.240884304 -0.3714269698
0.8607594371 2.339477539 -0.214377746
0.8643010855 2.346572399 -0.1288522631
0.8647550344 2.345283747 -0.04293112084
0.8623167872 2.352571726 0.04303583875
0.8414802551 2.293251514 0.1258167773
0.8529471159 2.323244333 0.2128089517
0.8575815558 2.333353281 0.300098896
0.8522913456 2.316461802 0.3842546046
0.8618851304 2.341276169 0.4767037332
0.8552006483 2.320619106 0.561024487
0.863558054 2.34077549 0.6569347978
0.8724547625 2.356023312 -0.6615934968
0.8772666454 2.366480827 -0.5727219582
0.8751141429 2.359410763 -0.4809014797
0.8502226472 2.289848566 -0.3801873028
0.8682265282 2.334590673 -0.2142034173
0.8752726912 2.351028681 -0.1292709559
0.8743337393 2.345998526 -0.04300093651
0.8691324592 2.345798016 0.04296602681
0.8543425202 2.303408146 0.1265494823
0.8603568077 2.318385601 0.2126346231
0.8671045303 2.334067106 0.3005863428
0.8624384403 2.319027185 0.3851931989
0.8700531125 2.33825326 0.4767037332
0.8714594245 2.339533806 0.5664233565
0.8710470796 2.335937262 0.6564171314
0.883381784 2.360200882 -0.6636641026
0.8834712505 2.35792923 -0.5713722706
0.8847225904 2.36001873 -0.481664747
0.8831970692 2.353446245 -0.3914505839
0.8372566104 2.228667498 -0.2871807218
0.880577147 2.342735529 -0.2152493
0.8806610703 2.34048152 -0.1288522631
0.8839266896 2.346675158 -0.04307074472
0.8773161769 2.342749596 0.04296602681
0.8644805551 2.306022644 0.1268634945
0.8754419088 2.33402276 0.214377746
0.873850584 2.327309608 0.300098896
0.8774788976 2.334492922 0.3883219063
0.8754450083 2.327851534 0.4751772285
0.8768747449 2.329182148 0.5646237135
0.8757898808 2.323843479 0.6538289785
0.8936661482 2.362523317 -0.665217042
0.8930752873 2.358476877 -0.5722721219
0.8936513662 2.358751774 -0.4820463359
0.8858010769 2.335573673 -0.3889476359
0.8541914225 2.249856949 -0.2903493047
0.8902459145 2.34112668 -0.1290616095
0.896381855 2.354788303 -0.04328017309
0.8861959577 2.341543436 0.04300093651
0.8696950078 2.295520067 0.1264448166
0.8814647198 2.325363874 0.2138548046
0.8840824962 2.329812527 0.300830096
0.887023747 2.335109472 0.3889476359
0.8835660219 2.324781418 0.4751772285
0.8863841891 2.329750538 0.5655235648
0.8907728195 2.338825703 0.6590053439
0.9046660662 2.366607666 -0.6672875881
0.9026959538 2.358984947 -0.5731719136
0.901878953 2.355618 -0.4820463359
0.857187748 2.236550808 -0.3726784289
0.8975926638 2.33953023 -0.302536279
0.8562114835 2.230508089 -0.2053135335
0.8984120488 2.338005066 -0.1290616095
0.9031608105 2.347911835 -0.04321036115
0.8972219825 2.345906258 0.04314055294
0.8798444271 2.298065901 0.1267588288
0.8895769715 2.322272539 0.2138548046
0.895052135 2.334126472 0.3018050492
0.8887988925 2.315401316 0.3861318231
0.8973062634 2.336344957 0.4782301784
0.8931130767 2.323004007 0.5646237135
0.9030942321 2.346519709 0.6621111631
0.9136171937 2.365237713 -0.6678052545
0.9123299718 2.359454632 -0.5740717053
0.9100956917 2.352455616 -0.4820463359
0.8842503428 2.283281088 -0.3811258972
0.8596687913 2.216360807 -0.2042676806
0.9099016786 2.341017246 -0.04314055294
0.9082893729 2.350220919 0.04328017309
0.8828159571 2.281941891 0.1260261238
0.8890480399 2.296856403 0.211763069
0.9031937718 2.330988169 0.3018050492
0.9047330022 2.332543373 0.3895733654
0.9082967639 2.340519905 0.4797566831
0.9033328891 2.325321913 0.5659734607
0.9084795117 2.336150885 0.660040617
0.9190589786 2.35483551 -0.6657346487
0.926943481 2.372591734 -0.5781208277
0.921161294 2.35657835 -0.4835728407
0.9188485146 2.348243952 -0.3927020431
0.9211437702 2.351690531 -0.3049736619
0.9022955298 2.302387476 -0.2126346231
0.8855364919 2.257303715 -0.1248747408
0.9217220545 2.347133875 -0.04331507534
0.9164870977 2.347036362 0.04328017309
0.8651296496 2.212095737 0.2040933669
0.9156676531 2.33891201 0.3032674789
0.9143116474 2.333049059 0.390199095
0.9150284529 2.333679199 0.478993386
0.916428864 2.334852457 0.5691227317
0.9166281819 2.332965612 0.660040617
0.9308159351 2.360598803 -0.6683228016
0.9330738783 2.363903522 -0.5767711401
0.9277666807 2.346859217 -0.3930149376
0.9351901412 2.363227606 -0.3069235682
0.9359981418 2.364060402 -0.2187355161
0.8698626757 2.194782734 -0.121525228
0.9387581944 2.366207361 -0.04373393208
0.9246737361 2.343822956 0.04328017309
0.869184792 2.19979763 0.2032217979
0.9201752543 2.326471806 0.3020488024
0.9231777787 2.331679821 0.3905119598
0.9231684804 2.330471277 0.478993386
0.9281657338 2.340696573 0.5713722706
0.9269049764 2.335138083 0.6615934968
0.9426256418 2.366308451 -0.6709110141
0.9398756623 2.357012033 -0.5758712888
0.8968510032 2.247974634 -0.462202251
0.9440116286 2.363786221 -0.39645648
0.9390128851 2.348888874 -0.3054611385
0.9405444264 2.35152936 -0.2178639621
0.8819723725 2.20285821 -0.1221532673
0.9328491092 2.340581179 0.04328017309
0.9336392283 2.34137249 0.1298989803
0.8724260926 2.185647964 0.202175945
0.9290277362 2.325088501 0.3022925258
0.936770618 2.343279839 0.3930149376
0.9327571392 2.330879688 0.4797566831
0.9305329919 2.322970867 0.5677731037
0.9389550686 2.342810869 0.6646993756
0.95592767 2.375549316 -0.6745344996
0.9505973458 2.36111331 -0.5776709318
0.9281753898 2.303100586 -0.474413991
0.9540606141 2.366138935 -0.3973950744
0.9482824802 2.349443674 -0.3059485853
0.9532259703 2.359315634 -0.2189098448
0.9491526484 2.348057032 -0.1305270046
0.8895878196 2.198491096 -0.04069721699
0.9450853467 2.348605394 0.04348960146
0.919418633 2.282521248 0.1267588288
0.9120888114 2.26204586 0.2096713334
0.9389615059 2.327517748 0.3030237556
0.9405059218 2.329005718 0.3911376894
0.945630312 2.340515614 0.4824279845
0.9411532283 2.327098846 0.5695726871
0.9514775872 2.35026288 0.6678052545
0.960891068 2.365207434 -0.6724639535
0.9617704153 2.365000963 -0.5794705153
0.9550444484 2.347290993 -0.4843360782
0.9652952552 2.370111942 -0.3986465633
0.9579772949 2.34979558 -0.3064360917
0.9595391154 2.352452278 -0.2185612172
0.9618735909 2.355823755 -0.1311550438
0.8964984417 2.193521738 -0.04066231102
0.9532783628 2.345291853 0.04348960146
0.9334016442 2.2940979 0.1275961995
0.9391166568 2.306987524 0.2142034173
0.953820467 2.340771437 0.3052173853
0.9538529515 2.338511944 0.3933278024
0.9560182691 2.342654467 0.4835728407
0.951481998 2.329211235 0.5709223747
0.9560193419 2.337986946 0.665217042
0.9684085846 2.360051394 -0.6719462872
0.9699488878 2.360285759 -0.487770617
0.9728105664 2.364901066 -0.3983336687
0.9707092643 2.357450485 -0.3078985214
0.9692621827 2.352772951 -0.2189098448
0.9777059555 2.37091589 -0.132201761
0.939248085 2.275405645 -0.04226793349
0.9505144954 2.312993765 0.1288522631
0.9608018398 2.336863995 0.2173410356
0.9650081396 2.344770193 0.3061923385
0.9597523212 2.329688787 0.3923892081
0.9626940489 2.33567214 0.4828095734
0.9640655518 2.336684465 0.5736217499
0.9627003074 2.331063986 0.6641817093
0.978859067 2.362010717 -0.6734992266
0.9147889614 2.205228329 -0.5412288308
0.9819453359 2.365951777 -0.4896787107
0.9803025126 2.359666586 -0.3980208337
0.9819796681 2.3613801 -0.3088734746
0.9820616841 2.360412121 -0.2199557126
0.9829030037 2.360114336 -0.1317830831
0.9925826192 2.381011486 -0.04432731867
0.8983989358 2.166789293 0.04024345428
0.9624111652 2.318885088 0.1293756217
0.973535955 2.34453702 0.2183869034
0.9777591228 2.352385759 0.307654798
0.9739497304 2.340914965 0.3948921561
0.9723508358 2.33592248 0.4835728407
0.976714015 2.344097853 0.5763211846
0.9745480418 2.336605072 0.6667699218
0.993065238 2.372835875 -0.6776403189
0.9744344354 2.326042414 -0.5722721219
0.9947510958 2.373374224 -0.4919684231
0.990060091 2.359874249 -0.3986465633
0.9886797667 2.354277134 -0.3083859682
0.9887520671 2.353295565 -0.219607085
0.9895873666 2.352986574 -0.1315737367
0.9977837205 2.370160103 -0.04418769479
0.9051852822 2.161795616 0.04020854831
0.9658669829 2.30445981 0.1287475973
0.9855670333 2.350311041 0.2192584574
0.9552321434 2.275743008 0.2979052365
0.9836459756 2.341142893 0.3955178857
0.9835415483 2.339753628 0.4850992858
0.9833796024 2.337081432 0.5754213929
0.9879481196 2.345651627 0.6703934073
0.9990864396 2.364016294 -0.6760873795
1.00077033 2.365700483 -0.5830697417
1.001499891 2.366271019 -0.4912051857
1.002915621 2.367316961 -0.4005237818
0.9980315566 2.354640961 -0.3088734746
1.000849843 2.359001398 -0.220478639
0.9977942705 2.349518299 -0.1315737367
1.003291607 2.361317396 -0.04408298433
0.9438762665 2.232295752 0.04160473868
0.9758375287 2.306762457 0.1290616095
0.997649014 2.356029987 0.2201300114
0.9507759809 2.243151665 0.2940054238
0.986775279 2.326956987 0.3936406672
0.9963060617 2.347149134 0.4873890281
0.9895991087 2.330220938 0.5745216012
0.9979890585 2.347695827 0.6719462872
0.951590538 2.230972528 -0.6382998228
1.01243639 2.371329784 -0.585319221
1.009340644 2.362936974 -0.4912051857
1.013867497 2.371243 -0.4017752409
1.00817585 2.356793642 -0.3096046746
1.007099271 2.352005959 -0.2201300114
1.014235616 2.366389513 -0.1327251196
1.010329127 2.356139183 -0.04404807836
1.00621438 2.357899189 0.04404807836
0.9811295867 2.298002958 0.1287475973
0.9999752641 2.33988452 0.2189098448
1.000703692 2.338200569 0.3961436152
1.007175803 2.351050854 0.4889154732
0.9980892539 2.328717232 0.5749714971
0.9620393515 2.234902143 -0.640370369
1.025691867 2.380487442 -0.5884685516
1.018725991 2.363182545 -0.4919684231
1.020159483 2.364240646 -0.4011495113
1.018757343 2.358727455 -0.3103359044
1.016473413 2.352311611 -0.220478639
1.021283984 2.361180544 -0.1326204538
1.023315072 2.363608599 -0.04425750673
1.015610576 2.358222723 0.04411788657
0.9685888886 2.246877432 0.1260261238
1.003784418 2.327407598 0.2180382907
1.008076549 2.332879543 0.3958307207
0.9701777101 2.239804983 0.6424409747
0.9790734649 2.252792358 -0.646582067
1.033217192 2.375105858 -0.5880186558
1.030101061 2.366813183 -0.4934948981
1.026828766 2.357043028 -0.4005237818
1.030159116 2.362435341 -0.3113108575
1.026272416 2.352401257 -0.2208272815
1.031118989 2.361261606 -0.1328298002
1.033160567 2.3636868 -0.04432731867
1.019849896 2.345493555 0.04394336417
1.011903167 2.323889494 0.2180382907
0.940985918 2.153831959 0.5326806903
0.9377411008 2.144364119 0.6155237556
1.041265368 2.373194695 -0.6828166842
1.038367748 2.364347458 -0.5862190723
1.041516185 2.370392561 -0.495021373
1.042206883 2.369718552 -0.4033395946
1.036799073 2.355191231 -0.3108233809
1.039295316 2.359744787 -0.2218731344
1.0385499 2.355819941 -0.1327251196
1.044633746 2.367384195 -0.0444669351
1.033656836 2.354736805 0.04418769479
0.9510874748 2.159466743 0.3670467734
0.9402935505 2.13394928 0.4450294077
0.9390612245 2.129138231 0.5272818804
0.9545836449 2.162285089 0.621735394
1.055801392 2.383676291 -0.6869577765
1.050564289 2.369615793 -0.5884685516
1.048191547 2.363153458 -0.4942581356
1.052076221 2.36967659 -0.4039653242
1.044208527 2.349743843 -0.3105796576
1.054811597 2.372487783 -0.2234419435
0.9410452247 2.121591568 0.1194317937
0.975572288 2.198395014 0.2067080289
0.945486486 2.128596783 0.2808435261
0.9457800388 2.127253294 0.3620409071
0.9549173117 2.146798372 0.4484639764
0.9908750653 2.225541592 0.5524764061
1.003016353 2.250697136 0.6486526132
1.060173512 2.371158361 -0.6843696237
1.065993309 2.381942987 -0.592517674
1.058039188 2.363063812 -0.495021373
1.061149001 2.367792845 -0.4042782187
0.9701114297 2.157589674 -0.0405925028
0.9733163714 2.175876379 0.04090664536
0.9435486197 2.10735631 0.1188037544
0.9596191645 2.142246246 0.2016530037
0.9642816186 2.150642157 0.2842558622
0.9904044867 2.206840515 0.3764328659
1.034779906 2.304641962 0.4828095734
1.054555416 2.346493244 0.5839695334
0.9799577594 2.178472042 0.6284646988
1.069239378 2.369203806 -0.68488729
1.072697401 2.374655247 -0.5916178823
0.9809162617 2.165430546 -0.2042676806
0.9790357947 2.159276485 -0.1220485866
0.972679019 2.143264055 -0.04038307071
0.9644472003 2.136015415 0.04020854831
0.9854460955 2.180490494 0.1231999844
0.9703739882 2.146145105 0.2023502439
1.004522443 2.2196033 0.2940054238
1.058419466 2.336523294 0.3995851874
1.067131281 2.354661465 0.4942581356
0.9971396923 2.196146727 0.6346763968
1.091917157 2.397102118 -0.6942047477
0.9915082455 2.171647549 -0.3714269698
0.9862473607 2.158130884 -0.2862057686
0.9868117571 2.158369541 -0.203919068
0.9799188972 2.141316414 -0.1212112084
1.025122643 2.238030672 -0.04226793349
1.078067541 2.357965708 0.4039653242
1.073710203 2.347351551 0.4934948981
1.074156284 2.346161604 0.5857691169
1.077232718 2.350712776 0.6812637448
1.043629527 2.267971992 -0.5664233565
0.9940592051 2.159252644 -0.4538066089
0.9908152819 2.15023303 -0.3682982624
0.9954369664 2.158280611 -0.2866932452
1.019382238 2.209184408 -0.209148407
1.058570266 2.292005539 -0.1301083267
1.116838574 2.415951729 -0.04575841501
1.073684454 2.331143141 0.2208272815
1.086291313 2.354188442 0.4039653242
1.081898093 2.343589067 0.4934948981
1.083156347 2.344166994 0.5862190723
1.090297937 2.357458591 0.6843696237
1.024064779 2.207169771 -0.640370369
1.002292514 2.158267975 -0.5394291878
1.001588821 2.155770302 -0.4538066089
1.018306375 2.189749002 -0.3758071065
1.076681137 2.313165188 -0.3081422746
1.099420547 2.360941887 -0.2241391838
1.104533195 2.369759321 -0.1348185539
1.097800016 2.354240179 -0.0446414575
1.019623876 2.195587873 0.1246653795
1.092733383 2.350868702 0.2230933309
1.049480557 2.255758762 0.3003426194
1.090758562 2.3434093 0.402713865
1.096703172 2.354035854 0.496547848
1.089685678 2.336839199 0.585319221
1.101374865 2.360833645 0.6864402294
1.028486848 2.196583033 -0.6382998228
1.106096387 2.358046293 -0.4058425426
1.116403937 2.377864599 -0.3174043298
1.111044288 2.364303112 -0.2248364389
1.114084601 2.369698763 -0.1350279152
0.9810871482 2.09534955 0.03968497738
1.006940007 2.148611546 0.1221532673
1.100087285 2.345235825 0.2229190022
1.085628986 2.313365459 0.3086297214
1.100612164 2.343163252 0.4033395946
1.107844114 2.357493401 0.4980743229
1.102406263 2.343792915 0.5880186558
1.107141137 2.351730824 0.68488729
1.100172877 2.32638216 -0.4919684231
1.12108016 2.36845541 -0.4083455205
1.122148275 2.368570805 -0.3166731
1.120584607 2.364206791 -0.2251850516
0.9941253662 2.093623161 -0.0397547856
1.020003796 2.158809423 0.04097645357
1.054565907 2.229943514 0.1270728409
1.107005715 2.339773893 0.2227446884
1.120035768 2.365178585 0.3161856234
1.113859415 2.350018024 0.4052168131
1.116067171 2.353611469 0.4980743229
1.112250447 2.343452454 0.5889184475
1.115344048 2.347851515 0.68488729
1.128184438 2.367414713 -0.6910989285
1.121782064 2.351865768 -0.5916178823
1.138724566 2.386314631 -0.5057066679
1.13104403 2.368092299 -0.4089712501
1.141538978 2.387922287 -0.3198417127
1.13312912 2.369267464 -0.2260566205
0.994515717 2.075713158 -0.03947554529
1.124777913 2.359205961 0.04492069781
1.082126498 2.267707348 0.1294802874
1.101431847 2.307127714 0.2199557126
1.129997253 2.364836454 0.3166731
1.128022432 2.358589649 0.4074068964
1.124276638 2.349701166 0.4980743229
1.127158165 2.353615999 0.592517674
1.129377484 2.356138468 0.688510716
1.144812346 2.380872726 -0.6962752938
1.139280319 2.367251635 -0.5965667963
1.150871873 2.389199734 -0.5072330832
1.145555973 2.374982595 -0.3186230063
1.143537164 2.368687153 -0.2264052331
0.9889214635 2.046593428 -0.1169196591
1.114896655 2.306277037 -0.04401317239
1.13387382 2.357067347 0.04495560378
1.107364178 2.299907446 0.1315737367
1.10947907 2.303268671 0.2199557126
1.133932948 2.351937771 0.3154544234
1.137964964 2.35819602 0.4080326259
1.132880688 2.345564842 0.4980743229
1.136215448 2.351421595 0.5929675698
1.137595654 2.352181673 0.688510716
1.16027987 2.390564203 -0.7004163861
1.156464815 2.380588293 -0.6010658145
1.16047883 2.386731386 -0.5076147318
1.142776251 2.349279881 -0.4070940018
0.992913425 2.035774946 -0.1165009812
1.160173416 2.377655745 -0.0454791747
1.151239395 2.370884418 0.0453046523
1.110548735 2.285054922 0.1309456974
1.117913008 2.299187183 0.2199557126
1.144283533 2.351335287 0.3159419
1.145736337 2.35223341 0.4077197909
1.148352027 2.355515003 0.501127243
1.144825697 2.34724164 0.5929675698
1.156378269 2.368829012 0.6947223544
1.168184638 2.384560347 -0.6998987198
1.170329332 2.386831999 -0.6037651896
1.168803692 2.382665634 -0.5076147318
1.172272801 2.38763237 -0.4146028757
0.981136322 1.995692372 -0.1908456981
1.121701598 2.27960062 -0.1309456974
1.166700125 2.370002985 -0.04540936649
1.16608119 2.37921834 0.04554898292
1.141379595 2.32779026 0.133667171
1.098242998 2.237838984 0.214377746
1.157270551 2.35603404 0.3171605766
1.152197003 2.344673872 0.4070940018
1.161766768 2.362061739 0.5034168959
1.153872013 2.344979763 0.5934174657
1.16122663 2.357845545 0.6926518679
1.13586998 2.299268484 -0.6755697727
1.185148478 2.396912575 -0.6073644161
1.172345638 2.369978189 -0.5057066679
1.171419978 2.366028786 -0.4114741981
0.9957139492 2.008493185 -0.1924144924
1.179856658 2.377848387 -0.1369120032
1.177219868 2.371495008 -0.04551408067
1.171307206 2.36996007 0.04544426873
1.148960114 2.321683407 0.2229190022
1.170363069 2.362856627 0.3186230063
1.165229082 2.351459742 0.4089712501
1.16784811 2.354678869 0.502653718
1.16510725 2.348122835 0.5952171087
1.166460752 2.348791361 0.6910989285
1.187208295 2.380132437 -0.5087596178
1.181906223 2.367433548 -0.4124128222
0.9975955486 1.996503592 -0.2689003348
1.068293691 2.137057304 -0.2053135335
1.185947537 2.370350361 -0.1367026567
1.194445252 2.385251284 -0.0458631292
1.175591588 2.358904123 0.0453046523
1.164329886 2.334265471 0.1345045567
1.167327762 2.339253664 0.2250107378
1.177305818 2.357186556 0.318379283
1.181380153 2.363279819 0.4117870331
1.173894525 2.347280979 0.5018904805
1.176786304 2.351011753 0.5970166922
1.178113103 2.351614237 0.693169415
1.182721257 2.353625536 -0.6942047477
1.004559159 1.993008852 -0.2689003348
1.209410429 2.398387671 -0.2312859595
1.197814584 2.373328209 -0.1371213496
1.204566717 2.384637117 -0.04593293741
1.192800999 2.372652054 0.04565370083
1.175164461 2.335538864 0.1348185539
1.188028574 2.36007905 0.2274511158
1.184633255 2.351290226 0.3181355596
1.187841892 2.355615139 0.4111613035
1.185617447 2.350180626 0.5034168959
1.182350159 2.34167099 0.595666945
1.193286061 2.361280918 0.6973105669
1.214511871 2.396007061 -0.708180964
1.210648775 2.386319876 -0.6078143716
1.007844567 1.983995795 -0.3457717001
1.019606471 2.005415916 -0.2710939646
1.212355971 2.383496046 -0.2302400768
1.206091285 2.369132996 -0.1371213496
1.211068273 2.376854181 -0.0458631292
1.206501961 2.379175425 0.0458631292
1.184214473 2.333203077 0.1349232346
1.204377413 2.371906281 0.2290199101
1.198230147 2.357758045 0.3195979595
1.203222513 2.365539312 0.4136642814
1.200937629 2.360025406 0.5064698458
1.190516353 2.337529898 0.595666945
1.206784725 2.367428303 0.7004163861
1.217590928 2.381432772 -0.7050751448
1.220747232 2.38554883 -0.6087141633
1.014764428 1.980465412 -0.3457717001
1.223168373 2.385145426 -0.3239852488
1.225216627 2.388113022 -0.2311116606
1.223477602 2.382675409 -0.1381680667
1.221184134 2.376170158 -0.04593293741
1.218442678 2.382070065 0.04600274563
1.194170356 2.332611799 0.135132581
1.215375066 2.373007536 0.2295428365
1.211884618 2.364161253 0.3210604191
1.206964493 2.352537155 0.4120999277
1.214545608 2.366299391 0.5087596178
1.20490253 2.345493793 0.5988163352
1.213275075 2.359765053 0.6993811727
1.227667809 2.380601883 -0.7061104178
1.23979187 2.402053356 -0.6141129732
1.009549141 1.955128908 -0.4194609821
1.028926253 1.990950227 -0.3482746482
1.227839351 2.373808146 -0.3230103254
1.23029685 2.376528978 -0.2304143906
1.233624816 2.381936789 -0.1383774132
1.234073043 2.380769491 -0.04610746354
1.224917054 2.374247789 0.04593293741
1.204138756 2.331978083 0.1353419125
1.218164921 2.358129263 0.2284969687
1.224688888 2.368733168 0.3222790956
1.222431183 2.36234498 0.4146028757
1.224603891 2.36553216 0.5095227957
1.21666801 2.348194599 0.6006159186
1.224173546 2.360660315 0.7009340525
1.242626548 2.388082743 -0.7097339034
1.019429207 1.956639051 -0.4206058383
1.232587576 2.363747597 -0.4155414999
1.245297909 2.387108803 -0.3254477084
1.244118571 2.382816792 -0.2314602733
1.238646269 2.370319128 -0.1379587203
1.245155931 2.38176322 -0.04621217772
1.231349707 2.366410971 0.0458631292
1.211348534 2.325989485 0.1352372617
1.23324573 2.366016626 0.2297171652
1.22927916 2.357402802 0.3213041425
1.236154437 2.368570805 0.416480124
1.231447339 2.35754776 0.5087596178
1.233392596 2.35926199 0.6046649814
1.236881375 2.364932775 0.703522265
1.253648639 2.388861895 -0.7112868428
1.010474086 1.923853755 -0.4917396307
1.243588924 2.36467576 -0.416480124
1.254038215 2.382528782 -0.3254477084
1.257997751 2.389036894 -0.2325061262
1.252500415 2.376581907 -0.1385867447
1.259990096 2.389784813 -0.04645651206
1.247450471 2.376046181 0.04614236578
1.205530286 2.295223713 0.133667171
1.248911977 2.375806808 0.2311116606
1.240683317 2.358151913 0.3220353425
1.249013424 2.372982264 0.4180444479
1.245159984 2.363656282 0.5110492706
1.239802241 2.351495028 0.6037651896
1.254142404 2.377687693 0.7086986303
1.024142861 1.934270501 -0.4953388572
1.259204865 2.376219749 -0.5144838691
1.267152309 2.39020896 -0.4217988551
1.261932731 2.378356695 -0.3254477084
1.271936774 2.395188808 -0.2335520089
1.262247086 2.375943899 -0.138796106
1.265508652 2.380074978 -0.04635179415
1.259065151 2.378965616 0.04628198594
1.20418644 2.273351908 0.1326204538
1.257198095 2.371432543 0.2311116606
1.253147721 2.362792969 0.3232540786
1.252658963 2.359883547 0.416480124
1.258516788 2.369917631 0.5133389831
1.246678233 2.345650434 0.6033153534
1.262433887 2.373295784 0.7086986303
1.036181331 1.942228675 -0.5782538056
1.267077208 2.372031212 -0.5144838691
1.282007933 2.397965193 -0.4239889383
1.275846839 2.384438753 -0.3269101381
1.276110888 2.383931875 -0.2328547686
1.279022336 2.387367725 -0.1397381425
1.276227713 2.381153107 -0.04645651206
1.271128535 2.381612301 0.04642160237
1.208895922 2.264060736 0.1323064417
1.266934037 2.370764494 0.2314602733
1.26513207 2.365406275 0.324229002
1.26513803 2.364424944 0.4180444479
1.266781092 2.365510464 0.5133389831
1.262223721 2.355024815 0.6069145799
1.270297766 2.369095802 0.7086986303
1.026480198 1.907976747 -0.5689362884
1.299581647 2.414592981 -0.6231110096
1.289315939 2.393519878 -0.5202081203
1.290890813 2.395439148 -0.4243018329
1.28751564 2.387183428 -0.3278850913
1.28537035 2.381216288 -0.2330290675
1.291676641 2.391900301 -0.1402615011
1.290235996 2.387238979 -0.04666594043
1.280913711 2.380906582 0.04649141803
1.214897275 2.256310225 0.1320970953
1.275202513 2.366327286 0.2314602733
1.274852633 2.364692688 0.3247164786
1.279012442 2.370424509 0.4199216366
1.278348207 2.368207455 0.5148655176
1.276510835 2.362827301 0.6100638509
1.276721478 2.361248732 0.7076632977
1.042932272 1.923242569 -0.5746303201
1.300565362 2.39634037 -0.6195118427
1.300993919 2.396132231 -0.5217345953
1.295471191 2.383976221 -0.4230503142
1.299634933 2.389649868 -0.3288600743
1.297069311 2.383941174 -0.2337263227
1.298108459 2.383868456 -0.1400521696
1.300059199 2.386459112 -0.04673574865
1.288262725 2.374663353 0.04645651206
1.227137089 2.261045933 0.1326204538
1.288746715 2.372591019 0.2325061262
1.28309989 2.360228062 0.3247164786
1.282146573 2.357493877 0.4183573127
1.286607623 2.363730431 0.5148655176
1.291276097 2.370336533 0.6132131815
1.291016579 2.36887598 0.7112868428
1.080224276 1.975525498 -0.5917124152
1.307568908 2.390304804 -0.6190618873
1.311235189 2.395020962 -0.5224978328
1.311909437 2.395260096 -0.4258661568
1.307551742 2.385327339 -0.3288600743
1.309215665 2.386386156 -0.2344235629
1.307927966 2.383052588 -0.1402615011
1.317045689 2.397680759 -0.0470498912
1.299968362 2.377395868 0.04659612849
1.234062672 2.254996777 0.1325157881
1.300849676 2.375067472 0.2332033813
1.289965391 2.354219675 0.3244727552
1.304614902 2.37898469 0.4230503142
1.295382857 2.361172199 0.5152471066
1.292563438 2.354084253 0.6100638509
1.302999854 2.37112689 0.7133573294
1.307241917 2.37099719 -0.7138749957
1.319145083 2.390615225 -0.6204116344
1.321485519 2.393866301 -0.5232610703
1.321634531 2.392164946 -0.4261790216
1.316286206 2.380518675 -0.3288600743
1.325252652 2.395749569 -0.2358180583
1.317621589 2.379990101 -0.1403661817
1.3248564 2.391088247 -0.04701498896
1.314468741 2.383121014 0.04680555686
1.242319942 2.250458241 0.1325157881
1.316838622 2.384464502 0.2345978767
1.306268096 2.363374472 0.3264226317
1.304719567 2.358630419 0.4202345312
1.309732556 2.366714716 0.517536819
1.305903316 2.357855082 0.6123133898
1.319173813 2.379852533 0.7174984813
1.335221171 2.401878119 -0.7247454524
1.335062027 2.399619102 -0.6240108609
1.327923656 2.385808468 -0.5224978328
1.337667704 2.401342154 -0.4286819696
1.331353784 2.388046741 -0.3305662274
1.331666708 2.387628317 -0.2354694307
1.332734942 2.387583971 -0.1410988867
1.329293132 2.379466295 -0.04687536508
1.32861042 2.38900423 0.04701498896
1.255995512 2.256579161 0.1331438124
1.323214769 2.376372337 0.2342492491
1.316442132 2.362268686 0.3269101381
1.31968081 2.366137981 0.4224245846
1.325638175 2.37584424 0.5205897689
1.316976786 2.358386278 0.6136630774
1.32558763 2.371860981 0.7164632082
1.339818478 2.39046216 -0.7226748466
1.350104451 2.40684104 -0.6271601319
1.340086102 2.388007164 -0.5240243077
1.346042395 2.396657944 -0.4286819696
1.344545484 2.392036676 -0.331784904
1.339993715 2.382965088 -0.2354694307
1.346939087 2.393360376 -0.1417269111
1.345441222 2.388750792 -0.04715460539
1.336942196 2.38435173 0.04701498896
1.266796589 2.257406712 0.1334578246
1.333453178 2.375213385 0.2345978767
1.332458258 2.371504307 0.3288600743
1.330837369 2.366682053 0.4233632088
1.331997633 2.367780685 0.5198264718
1.329025865 2.360566854 0.6154626608
1.334807754 2.36890173 0.7169808149
1.34815526 2.385770321 -0.7226748466
1.354659796 2.395328522 -0.6253604889
1.352281451 2.390149593 -0.5255507827
1.352452993 2.388507128 -0.4280562401
1.357780099 2.395964146 -0.3330036104
1.352233529 2.385206223 -0.2361666709
1.355285883 2.388643742 -0.1417269111
1.358709097 2.392733812 -0.04732913151
1.343286991 2.37618947 0.04694517702
1.290405273 2.280783892 0.135132581
1.346641421 2.379214764 0.2354694307
1.338772058 2.36338377 0.3283725679
1.344935417 2.37233305 0.4252404273
1.335412502 2.354577541 0.5179184079
1.343990922 2.367776632 0.6186119914
1.341160893 2.360868454 0.7159455419
1.371774793 2.407907248 -0.7309570909
1.366874456 2.397356749 -0.6271601319
1.37034297 2.402468443 -0.5293669701
1.366658807 2.394064665 -0.4299334586
1.366134763 2.391210318 -0.3330036104
1.368461132 2.394309521 -0.2375611663
1.363613844 2.38389945 -0.1417269111
1.373589158 2.400363684 -0.04757346213
1.357514977 2.381909847 0.04715460539
1.33753252 2.345894098 0.1393194646
1.363825798 2.390073538 0.2370382249
1.347013116 2.358696461 0.3283725679
1.362593651 2.38501215 0.4283691347
1.352393389 2.365241051 0.5213530064
1.348376989 2.356305122 0.616812408
1.356660247 2.369820595 0.7200866342
1.384020686 2.409804583 -0.7330275774
1.375787139 2.394500732 -0.6276100278
1.378721476 2.397670031 -0.5293669701
1.378529787 2.396368742 -0.4311849177
1.372076631 2.383225918 -0.3325161338
1.382777095 2.399877071 -0.238607049
1.37550199 2.386285305 -0.1421456039
1.380958796 2.393823147 -0.04753855988
1.36739862 2.380862713 0.0472244136
1.336753607 2.325627327 0.1383774132
1.378122091 2.395660162 0.2380841076
1.358787537 2.361099243 0.3293475211
1.36696744 2.373393774 0.4271176159
1.366109729 2.370949984 0.5236426592
1.359103441 2.356885433 0.6181620955
1.371683121 2.376783133 0.7237101197
1.392003775 2.405201912 -0.7330275774
1.394880533 2.408233404 -0.6325589418
1.386664391 2.393085003 -0.5293669701
1.392831564 2.401795387 -0.433062166
1.386366367 2.388722897 -0.3339785635
1.392147064 2.39675808 -0.2387813479
1.386834264 2.386649847 -0.1424596161
1.389307022 2.38898778 -0.04753855988
1.383717418 2.389919281 0.04750365391
1.356880188 2.341683865 0.1396334618
1.382062554 2.384181499 0.2373868525
1.375987053 2.371794939 0.3315411508
1.375243425 2.368607998 0.4271176159
1.3802948 2.376352787 0.5259323716
1.374177217 2.36392045 0.6213114262
1.378028989 2.368640661 0.7226748466
1.400809526 2.400084257 -0.7330275774
1.413105011 2.420178175 -0.63705796
1.399387598 2.394767046 -0.530893445
1.399631381 2.393263817 -0.4324364364
1.400709271 2.394150257 -0.3354409933
1.397485375 2.386725426 -0.2382584065
1.404659986 2.397059679 -0.1434016526
1.406740189 2.399649382 -0.04785270244
1.388017893 2.378167629 0.04736403748
1.370083451 2.345556021 0.1401568204
1.391796708 2.380820274 0.2375611663
1.389268994 2.375544786 0.3327598572
1.389490724 2.374022007 0.4289948642
1.38601768 2.366195917 0.5247875452
1.389731646 2.370635748 0.6244606972
1.385309815 2.362150669 0.7221571803
1.416036844 2.406835079 -0.7366511226
1.415044188 2.403228045 -0.633908689
1.413717628 2.400017023 -0.5331831574
1.4099828 2.391767263 -0.433062166
1.415527701 2.399258375 -0.3369034231
1.408845663 2.386980534 -0.2387813479
1.412003636 2.390422106 -0.1432970017
1.405951381 2.379230499 -0.04753855988
1.398754001 2.376510382 0.0474338457
1.383328915 2.349364758 0.140680179
1.404144406 2.382813931 0.2382584065
1.396957636 2.368727446 0.3325161338
1.401783586 2.375962734 0.4302463233
1.397264123 2.366414785 0.5259323716
1.398989081 2.36744833 0.6249106526
1.402395368 2.372267008 0.7268159389
1.432312608 2.41517067 -0.7407921553
1.423999667 2.400198698 -0.6343585849
1.426095366 2.401820183 -0.5347096324
1.423958659 2.397268534 -0.4349393547
1.4214468 2.391138554 -0.3364159465
1.423282027 2.392321348 -0.2398272157
1.418899655 2.38401103 -0.1431923211
1.425505042 2.393205881 -0.04792251065
1.414787054 2.385619164 0.04771308228
1.392541409 2.34623909 0.1407848597
1.418557882 2.388176203 0.2393042892
1.402777195 2.360668182 0.3320286274
1.41612637 2.381242275 0.4321235418
1.412131071 2.37357831 0.5286037326
1.41081953 2.369493961 0.6267102361
1.414622664 2.373996019 0.7288864851
1.446259856 2.420357466 -0.7438979745
1.441371441 2.410265207 -0.6384077072
1.436068773 2.40044713 -0.5354728103
1.436377764 2.399062395 -0.4361908436
1.429785371 2.386161804 -0.3364159465
1.4383775 2.399551153 -0.2410473973
1.431323171 2.385893822 -0.143610999
1.442084432 2.401931286 -0.04820175096
1.431314588 2.39439702 0.04799232259
1.398671627 2.337936163 0.1405755281
1.431586146 2.392006636 0.2401758432
1.421208858 2.372787476 0.3344660103
1.422399282 2.372895718 0.4314978123
1.426465392 2.378737211 0.530893445
1.417077065 2.36121273 0.6258104444
1.43085885 2.382291794 0.7330275774
1.450712323 2.408675194 -0.7418274879
1.452793479 2.410226583 -0.6397573948
1.446466208 2.398782492 -0.5362361073
1.451887131 2.40587306 -0.4383809268
1.447342992 2.396449089 -0.338609606
1.446744084 2.394515991 -0.2410473973
1.449977875 2.397974014 -0.1446577311
1.450460672 2.396882296 -0.04820175096
1.445856452 2.399662495 0.04820175096
1.415074348 2.34672308 0.1414128989
1.44095695 2.388700724 0.240350157
1.43563807 2.378008842 0.3359284699
1.429651499 2.366225719 0.4311849177
1.437807322 2.378783941 0.5320382714
1.430353284 2.364589214 0.6280599236
1.437165618 2.373977184 0.7319923043
