# .PCD v0.7 - Point Cloud Data file format
VERSION 0.7
FIELDS x y z
SIZE 4 4 4
TYPE F F F
COUNT 1 1 1
WIDTH 1242
HEIGHT 1
VIEWPOINT 0 0 0 1 0 0 0
POINTS 1242
DATA ascii
8.508164406 -0.7204325795 1.34570086
8.501337051 -0.7213489413 1.650179148
8.31849575 -0.7087593079 1.917479396
0.9825181365 -0.08526806533 -0.25265944
8.483903885 -0.740753293 -1.647126198
7.976642609 -0.6992686391 -1.261539102
7.991486073 -0.7033809423 -0.9798861742
7.948988914 -0.7010386586 -0.694431603
8.542922974 -0.7564243674 -0.4472642243
8.560944557 -0.7610318065 -0.1493210047
8.566373825 -0.7449411154 0.1493908018
8.551799774 -0.7466814518 0.4476829469
8.56873703 -0.7496672869 0.7488167882
8.438518524 -0.7412428856 1.034971118
8.478049278 -0.7476976514 1.341320753
8.498767853 -0.7510197163 1.650179148
8.308207512 -0.7371031642 1.915679932
7.197596073 -0.6411021352 1.924630523
0.9783665538 -0.08834969252 -0.251624167
3.650213242 -0.3328377903 -0.5738532543
7.913861275 -0.72439605 -0.9706240892
7.914748669 -0.7258701921 -0.6916425824
8.544207573 -0.7866061926 -0.4474735558
8.552261353 -0.790358305 -0.1492162794
8.563721657 -0.7748388648 0.1493908018
8.545163155 -0.7761669755 0.4474735558
8.554162979 -0.7784897089 0.7477709055
8.443786621 -0.7714167237 1.035946131
8.4635849 -0.776204586 1.339443564
8.500003815 -0.7810406685 1.650942326
8.313344955 -0.7668156028 1.917479396
7.178002834 -0.6646196246 1.919971824
0.9818989635 -0.09212519228 -0.25265944
3.621409178 -0.3416862488 -0.6988053918
3.66082859 -0.3466948271 -0.575730443
7.990332127 -0.759530127 -0.980373621
8.545387268 -0.8168064356 -0.4476829469
8.545469284 -0.819824636 -0.1491464674
8.556982994 -0.8043527007 0.1493210047
8.550354958 -0.80674088 0.4478922784
8.531557083 -0.8064696193 0.7460277677
8.520091057 -0.8083865047 1.045695662
8.478523254 -0.8074288368 1.342259407
8.485500336 -0.8095877171 1.648652554
8.314498901 -0.7962015271 1.918379307
7.160254478 -0.6881927848 1.915830612
0.9815713763 -0.09555210918 -0.25265944
3.626056433 -0.3548989892 -0.6999502182
3.61044836 -0.3546437621 -0.5679087043
8.516207695 -0.8410244584 -0.744981885
8.530558586 -0.845448494 -0.4470548928
8.548524857 -0.8502426147 -0.1492511779
8.538201332 -0.8326645494 0.149041757
8.547487259 -0.8365822434 0.4478922784
8.532655716 -0.8366342187 0.7463763952
8.497461319 -0.8361781836 1.04325819
8.457959175 -0.8352721334 1.339443564
8.470900536 -0.8380429745 1.646362901
8.344634056 -0.8284927607 1.926027536
7.161653519 -0.7135657072 1.916865945
0.9773877263 -0.09859009087 -0.251624167
1.064651251 -0.1077678725 -0.2370949835
3.609169483 -0.3659696579 -0.6968972683
3.607222795 -0.3670444489 -0.5675958395
8.533837318 -0.8713501692 -1.048132896
8.525113106 -0.8719627857 -0.7460277677
8.515633583 -0.8739970326 -0.4464268684
8.553462029 -0.8808968663 -0.1493908018
8.531263351 -0.8620612621 0.148971945
8.542527199 -0.8662120104 0.4477876127
8.537612915 -0.8672190309 0.7470736504
8.482642174 -0.8646269441 1.041795731
8.462853432 -0.8655948043 1.340695024
8.467923164 -0.8676067591 1.646362901
8.308737755 -0.8542278409 1.918379307
7.161040783 -0.7387583852 1.917383552
0.9770376682 -0.1020012125 -0.251624167
3.596154451 -0.3773365021 -0.6946075559
3.603955269 -0.3794269264 -0.5672829747
8.518054962 -0.9012964964 -0.7456791997
8.516504288 -0.9041386247 -0.4466362
8.534427643 -0.9090542197 -0.1491115689
8.532179832 -0.8922516704 0.149041757
8.535479546 -0.895608902 0.4475782812
8.538496017 -0.8974320889 0.7474222779
8.491416931 -0.895480752 1.04325819
8.455851555 -0.8947147727 1.340069413
8.468748093 -0.8975739479 1.647126198
8.297953606 -0.882401228 1.916579604
7.16994381 -0.7649803162 1.92048943
0.9536272883 -0.1029235125 -0.2454124987
3.58310461 -0.3886170089 -0.6923178434
3.606536627 -0.3924321532 -0.5679087043
8.493997574 -0.92724365 -1.04398942
8.504953384 -0.9299417138 -0.744807601
8.521237373 -0.9347323179 -0.4470548928
8.523251534 -0.9379644394 -0.148971945
8.532989502 -0.9224589467 0.1491115689
8.527388573 -0.9263707995 0.7467250824
8.500080109 -0.9264063835 1.04472065
8.435003281 -0.9222933054 1.337253451
8.473369598 -0.9279848933 1.648652554
8.298696518 -0.9117867351 1.917479396
7.163389683 -0.7895801067 1.919454098
0.9532622099 -0.1062516645 -0.2454124987
3.571971178 -0.4000294805 -0.6904097199
3.593366385 -0.4036956728 -0.566031456
8.50254631 -0.9582215548 -1.04545188
8.489776611 -0.9582830667 -0.7437617183
8.513953209 -0.9640220404 -0.4468455613
8.517938614 -0.9674847126 -0.1489370465
8.529717445 -0.9522390366 0.1491115689
5.22225666 -0.5848469734 0.2731948197
8.496794701 -0.9560716748 1.04472065
8.453325272 -0.9541686177 1.340695024
8.454472542 -0.9557924271 1.645599723
8.303209305 -0.9416274428 1.919279099
7.152911663 -0.813706696 1.917383552
0.933693409 -0.1073715016 -0.2402361035
3.566652536 -0.4120449126 -0.6896465421
3.578199863 -0.4146446884 -0.5638414025
8.499321938 -0.9864116907 -1.04545188
8.490338326 -0.9883729219 -0.7441104054
8.50260067 -0.99280864 -0.4464268684
8.520642281 -0.9964227676 -0.149041757
8.506475449 -0.9797192812 0.1487625092
5.238145828 -0.6042212248 0.2741368711
8.489461899 -0.9852674007 1.044233203
8.452076912 -0.9824236035 1.341007948
8.443283081 -0.9843887687 1.644073129
8.303912163 -0.9696086645 1.920178771
7.159768581 -0.8385457993 1.919971824
0.9371691346 -0.1109212786 -0.2412714064
2.561261177 -0.3045051694 -0.4931133091
3.563074827 -0.4248709083 -0.5616513491
8.492060661 -1.014120221 -1.044964314
8.487014771 -1.016522408 -0.7441104054
8.491330147 -1.020045996 -0.4460081756
8.523246765 -1.025389194 -0.1491464674
8.50317955 -1.007922411 0.1487625092
5.26189661 -0.6246490479 0.2754976153
4.186646938 -0.4984863698 0.365157187
8.474322319 -1.012001753 1.042770743
8.438964844 -1.009273291 1.339443564
8.436074257 -1.01191473 1.643309951
8.304520607 -0.9976049662 1.921078801
7.160783768 -0.8627460003 1.921007037
0.9751501679 -0.1186969504 -0.251624167
2.548544645 -0.3115674853 -0.4908235669
3.561646223 -0.4366841614 -0.5616513491
8.476829529 -1.040823817 -1.043501854
8.49546051 -1.046121716 -0.7451562285
8.485918999 -1.047953963 -0.4459035099
8.505908012 -1.051929593 -0.1489021331
8.503761292 -1.036598563 0.1488323361
5.295482159 -0.646451056 0.2773817182
8.472888947 -1.040340066 1.043014407
8.437531471 -1.037493467 1.33975637
8.440466881 -1.040845275 1.644836545
8.291497231 -1.023944139 1.918829203
7.163634777 -0.8871995807 1.922559977
0.9325790405 -0.1166547537 -0.2402361035
2.551393509 -0.3205064833 -0.4915867746
3.56801796 -0.449480176 -0.5629028082
8.469392776 -1.068431377 -1.043014407
8.472179413 -1.071787477 -0.7434131503
8.494285583 -1.077596784 -0.4465315342
8.490470886 -1.078618407 -0.1486927122
8.502261162 -1.065040827 0.1488672346
5.293309212 -0.6640079021 0.2773817182
8.465453148 -1.067934513 1.04252696
8.426207542 -1.064477444 1.33850503
8.440864563 -1.069322705 1.645599723
8.303521156 -1.053396106 1.92242837
7.16640234 -0.9116815329 1.924112916
0.9053209424 -0.1166167408 -0.232989192
2.57356596 -0.3328776956 -0.4961662591
3.552633762 -0.4607760906 -0.5607126951
8.469164848 -1.101455569 -1.043501854
8.464242935 -1.10231781 -0.7430645227
8.494239807 -1.109239817 -0.4467408657
8.500144958 -1.113028884 -0.1489370465
8.498300552 -1.096196055 0.1488672346
5.290720463 -0.6843278408 0.2773817182
8.484768867 -1.098967433 0.744807601
8.471324921 -1.100232959 1.043745637
8.408345222 -1.095038056 1.336314917
8.42910099 -1.099237323 1.644073129
8.314873695 -1.08729279 1.926027536
7.147526264 -0.9371825457 1.919971824
0.950872004 -0.1258600801 -0.2454124987
2.597688437 -0.3452213705 -0.501127243
3.533381224 -0.4708260298 -0.5578969121
8.473138809 -1.13206315 -1.044476867
8.478438377 -1.13729012 -0.4461128116
8.488280296 -1.141626835 -0.1487974077
8.482527733 -1.124277472 0.1486577988
8.511499405 -1.131140828 0.4477876127
8.447756767 -1.127171397 1.041308284
8.402514458 -1.124120116 1.336002111
8.413537025 -1.12708962 1.641783595
8.322616577 -1.117866993 1.928727031
7.148039818 -0.9626419544 1.921007037
0.973397851 -0.1323005855 -0.251624167
2.619810104 -0.3574720025 -0.5057066679
3.529759169 -0.482889235 -0.5575840473
7.914531708 -1.085563302 -0.9757425785
7.925182343 -1.089842796 -0.6961747408
8.442759514 -1.162519455 -0.4444380999
8.472359657 -1.169608831 -0.1485880017
8.458737373 -1.151183605 0.148308754
8.465941429 -1.155174136 0.4455895126
8.414270401 -1.152611613 1.037652254
8.39462471 -1.152905941 1.335376263
8.40955162 -1.156451583 1.641783595
8.31094265 -1.145847082 1.926927447
7.148463249 -0.988116622 1.92204237
0.9690797329 -0.1353329867 -0.2505888641
2.632091999 -0.3689795434 -0.5083779693
3.527965546 -0.4958232343 -0.5575840473
7.900865555 -1.111800551 -0.9745238423
7.917383194 -1.116943359 -0.6958260536
8.466128349 -1.197371721 -0.4459035099
8.472184181 -1.199736476 -0.1486577988
8.458628654 -1.181256294 0.1483785659
8.46383667 -1.18499577 0.4456941783
8.439681053 -1.186119914 1.041308284
8.415977478 -1.18578434 1.339443564
8.409144402 -1.187815428 1.642546773
8.298968315 -1.175207615 1.925127745
7.160272598 -1.015232921 1.926183462
0.9494781494 -0.1359762102 -0.2454124987
2.646334171 -0.3803996444 -0.5114309192
3.524258137 -0.5078533292 -0.5572711229
7.886914253 -1.139332056 -0.9733052254
7.887801647 -1.140865684 -0.6935600042
8.467826843 -1.227776527 -0.4462175369
8.46398735 -1.228728175 -0.1485880017
8.481953621 -1.216224313 0.1488672346
8.473485947 -1.216519475 0.4464268684
8.488105774 -1.221642494 0.7465507388
8.437242508 -1.217328548 1.041552067
8.38441658 -1.211200476 1.335063338
8.412718773 -1.218286991 1.644073129
8.302530289 -1.205289245 1.926927447
7.145214558 -1.038553476 1.923077583
0.9489976764 -0.1392896622 -0.2454124987
2.67218256 -0.3936405182 -0.5167735815
3.516691923 -0.5186727047 -0.5563325882
4.182922363 -0.6169342399 0.3662030697
8.44101429 -1.246460557 1.04252696
8.393815994 -1.242484927 1.337253451
8.396981239 -1.244451046 1.641783595
8.302342415 -1.233387351 1.927827239
7.143456459 -1.063773274 1.923595309
0.9485305548 -0.1424358934 -0.2454124987
2.699982643 -0.4068880081 -0.5224978328
3.493374586 -0.5276995897 -0.552891016
5.164532661 -0.78198421 -0.6362145543
5.143684864 -0.7797459364 -0.4514413476
5.189345837 -0.788520813 -0.2728807926
5.167622089 -0.7870655656 -0.09054128826
5.15132618 -0.7744672298 0.09022714198
8.43625164 -1.27285111 0.7427158356
8.43072319 -1.275027037 1.041795731
8.381615639 -1.270593047 1.336002111
8.384820938 -1.272576094 1.64025712
8.313398361 -1.264705062 1.931426406
7.147339344 -1.089866877 1.925665855
0.932752192 -0.1433976442 -0.2412714064
2.733471394 -0.4216982424 -0.5293669701
3.487607002 -0.5392867923 -0.5522652864
7.900266171 -1.224437714 -0.9764738679
7.853978634 -1.218667626 -0.6916425824
8.478318214 -1.321605682 -0.1490766704
8.465027809 -1.302892447 0.1487974077
8.470152855 -1.306707978 0.446950227
8.459323883 -1.306548953 0.7451562285
8.408566475 -1.301714897 1.03960216
8.382985115 -1.300751209 1.336940646
8.380328178 -1.301836729 1.64025712
8.301231384 -1.292517304 1.929626942
7.153035164 -1.116298437 1.928254008
0.985680759 -0.1550585628 -0.2557652891
2.753314018 -0.4346044362 -0.5335647464
3.473996401 -0.5496054888 -0.5503880382
4.108067036 -0.6513888836 -0.5055705905
4.126692295 -0.6550805569 -0.3618452549
4.129208565 -0.6584356427 -0.07228606939
8.460428238 -1.332432866 0.1487974077
8.379610062 -1.331697941 1.641020298
8.296669006 -1.321486235 1.929626942
7.162448883 -1.143392205 1.931877494
0.931728363 -0.14990592 -0.2412714064
2.771161795 -0.4473413825 -0.5373809338
3.431106329 -0.5551034808 -0.5438177586
4.094011307 -0.663818419 -0.5041081309
4.151762962 -0.6754136682 -0.2182420939
4.079518318 -0.6651226282 -0.07144835591
4.140015125 -0.66682899 0.07249549776
4.154556751 -0.6706591845 0.2183467597
4.113045692 -0.6646947265 0.3607993722
4.098045826 -0.6637386084 0.5045956373
4.076217651 -0.6616635323 0.6473774314
8.386538506 -1.362829447 1.643309951
8.29969883 -1.351691842 1.931426406
7.145067692 -1.166208386 1.928254008
0.9197620153 -0.1512762308 -0.2381655723
2.806387663 -0.4630849063 -0.54463166
3.440841198 -0.5690105557 -0.5456950068
4.113211632 -0.6816752553 -0.5067893267
4.1022439 -0.6813290715 -0.3601021469
4.127707005 -0.68629843 -0.2170906812
4.09492445 -0.6823167801 -0.07176250219
4.115958214 -0.6777026653 0.07211155444
4.132484436 -0.6819054484 0.2173000425
8.445178032 -1.395061612 0.7451562285
8.414057732 -1.392938256 1.042039514
8.368905067 -1.388464689 1.336940646
8.370108604 -1.390165567 1.641020298
8.306464195 -1.382574677 1.934125781
7.146668911 -1.192095757 1.929806828
0.9306318164 -0.1565693617 -0.2412714064
2.866619349 -0.4838231802 -0.5568434596
3.253700018 -0.5503221154 -0.5159724355
7.832037449 -1.328908443 -0.6912940145
8.419549942 -1.431618929 -0.4453801215
8.435381889 -1.435825944 -0.1486577988
8.412488937 -1.415315866 0.1482040435
8.44320488 -1.423514366 0.4465315342
8.422327995 -1.423018217 0.7435874343
8.369850159 -1.418659449 1.3378793
8.361086845 -1.420176625 1.64025712
8.312867165 -1.414972067 1.936825275
7.14056015 -1.216710687 1.929289222
0.9453112483 -0.1624341905 -0.2454124987
2.961649418 -0.5105010867 -0.5759243369
3.168057203 -0.5472185016 -0.5025190711
7.850908756 -1.360321164 -0.6933857203
8.41450119 -1.460999846 -0.4453801215
8.45002079 -1.468686342 -0.1490068436
8.434247971 -1.452299953 0.4463222027
8.433015823 -1.455119014 0.744981885
8.390182495 -1.450744152 1.040333271
8.356079102 -1.449353814 1.64025712
8.300449371 -1.441197157 1.935025573
7.143882751 -1.242953062 1.931359768
0.9447674155 -0.1655680537 -0.2454124987
3.230424166 -0.5690295696 -0.5128437877
3.453025818 -0.6088616252 -0.4253805578
7.850278854 -1.387041569 -0.6937344074
8.411576271 -1.489243627 -0.4454848468
8.427383423 -1.493559003 -0.1486927122
8.424068451 -1.477811813 0.1485880017
8.413647652 -1.477497578 0.4454848468
8.432068825 -1.483766437 0.7453305721
8.391190529 -1.479593396 1.04106462
8.36583519 -1.476628065 1.338817835
8.355093002 -1.477739334 1.641020298
8.291787148 -1.468035221 1.934125781
7.147330761 -1.267986059 1.933430433
0.9442132115 -0.1687001139 -0.2454124987
3.162941217 -0.5673933625 -0.6163758636
3.187689543 -0.572407186 -0.5062735081
3.450879574 -0.620911181 -0.4253805578
7.845389366 -1.414435625 -0.6937344074
8.414189339 -1.52001667 -0.4459035099
8.416214943 -1.521899581 -0.1485880017
8.419121742 -1.505738735 0.1485880017
8.408439636 -1.506857514 0.4454848468
8.415335655 -1.509609342 0.7442846894
8.382330894 -1.50670886 1.040577173
8.341189384 -1.502319813 1.335689187
8.353748322 -1.50759244 1.641783595
8.294283867 -1.498355865 1.935925484
7.135256767 -1.291550756 1.931359768
0.9131808281 -0.166611746 -0.2371302992
3.15504694 -0.5779211521 -0.6152310371
3.168083429 -0.5808805227 -0.503457725
3.45053339 -0.6339139342 -0.425624311
7.93812561 -1.461215377 -0.7024499178
8.406597137 -1.550483704 -0.4457988441
8.412547112 -1.553099513 -0.1486229002
8.417480469 -1.537304759 0.1486577988
8.410718918 -1.539103985 0.4459035099
8.397987366 -1.53828907 0.7432388067
8.382609367 -1.538496494 1.041308284
8.325912476 -1.531095386 1.334124804
8.344304085 -1.537488818 1.641020298
8.288736343 -1.52874577 1.935925484
7.138074398 -1.319098234 1.933430433
0.8973705173 -0.1671279222 -0.232989192
3.145290852 -0.5874888301 -0.6137045622
3.156224966 -0.5906713605 -0.5018933415
3.458055258 -0.6477820873 -0.4268430173
8.042635918 -1.509497404 -0.7122113705
8.391319275 -1.577973127 -0.4452754557
8.412969589 -1.583564878 -0.1487276107
8.399993896 -1.565947175 0.1484483778
8.409220695 -1.569185972 0.4461128116
8.396209717 -1.569791198 0.7435874343
8.376914024 -1.569209933 1.041308284
8.345757484 -1.564881444 1.338192105
8.327309608 -1.564431429 1.638730526
8.298670769 -1.56055069 1.939524651
7.141019821 -1.345437527 1.935500979
0.9271794558 -0.1758628637 -0.2412714064
3.158754587 -0.6008507013 -0.6167575121
3.152308226 -0.6007647514 -0.5015804768
3.442238569 -0.656642139 -0.4251368344
7.832104206 -1.496887445 -0.6939086914
8.382118225 -1.605039954 -0.4450661242
8.413564682 -1.612583876 -0.1488323361
8.398684502 -1.59454 0.1485181749
8.396123886 -1.595572114 0.4456941783
8.398787498 -1.599116087 0.7442846894
8.363863945 -1.595492482 1.040333271
8.332760811 -1.59106648 1.336940646
8.322075844 -1.59203732 1.638730526
8.285794258 -1.586595535 1.937724948
7.136518478 -1.369110703 1.935500979
0.9607336521 -0.1855298728 -0.2505888641
3.154817343 -0.6109490395 -0.6163758636
3.156116247 -0.6123436093 -0.5025190711
3.430182457 -0.6667599678 -0.4239181578
6.950935364 -1.35238409 -0.6158171296
8.401204109 -1.623900175 0.1486577988
8.388541222 -1.624490499 0.4455895126
8.393438339 -1.626958609 0.7442846894
8.35463047 -1.622462392 1.039845824
8.319400787 -1.618634701 1.335689187
8.324459076 -1.621126771 1.64025712
8.272554398 -1.614016175 1.935925484
7.141176224 -1.395866394 1.938089132
0.925960958 -0.1821698546 -0.2412714064
3.133404493 -0.618157804 -0.6125596762
3.155897379 -0.6237397194 -0.5028319359
3.421992302 -0.6775727272 -0.423186928
8.395483971 -1.653216004 0.1486577988
8.380860329 -1.653375626 0.4454848468
8.38770771 -1.656247377 0.7442846894
8.356705666 -1.653156638 1.040820837
8.311761856 -1.647280693 1.335376263
8.326453209 -1.651702762 1.641783595
8.270692825 -1.643642426 1.936825275
7.130575657 -1.419653416 1.936536193
0.9253193736 -0.1854009479 -0.2412714064
8.387701988 -1.682118654 0.1486229002
8.384828568 -1.684587002 0.4460081756
8.366248131 -1.682373405 0.7428901792
8.364505768 -1.685060978 1.04252696
8.317578316 -1.678628802 1.337253451
8.285998344 -1.673760414 1.634914398
8.272544861 -1.674048662 1.938624978
7.121790886 -1.443767786 1.935500979
0.9208480716 -0.1880182475 -0.2402361035
1.729311585 -0.3549766839 -0.2116217315
1.741103292 -0.3580305874 -0.1517999172
1.713699937 -0.3533308208 -0.02984181978
8.366104126 -1.708186388 0.1483436525
8.382810593 -1.714645863 0.4462175369
8.371736526 -1.715425611 0.7439360023
8.348849297 -1.712254286 1.041308284
8.301994324 -1.705664754 1.335689187
8.291344643 -1.706493497 1.63720417
8.27398777 -1.705931664 1.940424442
7.126167297 -1.470570683 1.938089132
0.9391005635 -0.1951622218 -0.2454124987
1.675553918 -0.3491259515 -0.3244381249
1.667862177 -0.3481307924 -0.2631742954
1.698852777 -0.3552182913 -0.2079656422
1.692977667 -0.3546067178 -0.147616446
1.675347328 -0.3512191474 -0.08750685304
1.698694348 -0.3567326367 -0.02959748544
8.367618561 -1.740467191 0.1484832764
8.37451458 -1.744951367 0.4461128116
8.365697861 -1.744637847 0.7439360023
8.334745407 -1.741219044 1.040333271
8.320820808 -1.741341591 1.33975637
8.218395233 -1.724398375 1.928727031
7.135853767 -1.499858379 1.942230225
0.9534988403 -0.2018029094 -0.2495536208
1.699422717 -0.3612234592 -0.2684930861
1.715077162 -0.3648637533 -0.2101592869
1.719010353 -0.3663277626 -0.1500568092
1.679908514 -0.3586080968 -0.08782086521
8.845013618 -1.889748693 -0.1571745723
8.369318008 -1.771321297 0.1486229002
8.358603477 -1.772102237 0.4455895126
8.370941162 -1.777771473 0.744981885
8.332501411 -1.77112782 1.040820837
8.297304153 -1.766673803 1.336940646
8.225158691 -1.754314065 1.626518726
8.177717209 -1.747179866 1.920628905
7.13624239 -1.525969982 1.943783164
0.9188286662 -0.1976508498 -0.2402361035
8.811332703 -1.905077577 -1.1017555
8.817445755 -1.909620881 -0.7855965495
8.94742775 -1.941041827 -0.4776190817
8.832835197 -1.917796493 -0.1570698619
8.374814034 -1.80305028 0.1488323361
8.35268116 -1.799810648 0.4455895126
8.357210159 -1.803839445 0.7442846894
8.330147743 -1.801041603 1.041308284
8.283678055 -1.792508006 1.335689187
8.282613754 -1.795304418 1.639112115
8.244556427 -1.788561821 1.937724948
7.138694286 -1.551267028 1.94585371
0.9143936634 -0.1998716444 -0.2392008305
8.936808586 -1.963249683 -1.118329763
8.857764244 -1.949126482 -0.7897799611
8.835618019 -1.947486997 -0.4719668031
8.861577988 -1.954830766 -0.1576981395
8.362927437 -1.82953012 0.1487276107
8.356421471 -1.829635024 0.4461128116
8.339505196 -1.828982115 0.7432388067
8.339639664 -1.832062721 1.04325819
8.289262772 -1.822512627 1.337566257
8.280449867 -1.823605418 1.639875531
8.248094559 -1.817989111 1.939974546
7.124078274 -1.572848797 1.943265438
0.9212694168 -0.2045779377 -0.2412714064
8.842754364 -1.97983098 -0.472699523
8.852748871 -1.985313892 -0.157663241
8.34510231 -1.854649425 0.1485181749
8.351934433 -1.859227419 0.4462175369
8.341172218 -1.858359814 0.7439360023
8.319956779 -1.856681585 1.041552067
8.278995514 -1.850574613 1.336940646
8.190056801 -1.83219552 1.623084188
8.249305725 -1.848473907 1.941774249
7.126084805 -1.599399328 1.945336103
0.9355884194 -0.2113587707 -0.2454124987
8.829597473 -2.010897636 -0.4723855257
8.849663734 -2.017092466 -0.157733053
8.34637928 -1.885530472 0.1486577988
8.339549065 -1.88704741 0.4459035099
8.342078209 -1.890680671 0.744633317
8.301810265 -1.883077621 1.040089607
8.289820671 -1.883401036 1.33975637
8.269431114 -1.881804347 1.64025712
8.234874725 -1.87696445 1.939974546
7.135525703 -1.627701283 1.949477196
0.9009533525 -0.2068423927 -0.2360950261
8.823474884 -2.030572414 -1.751689434
4.114523411 -0.948399961 -0.6620822549
8.567242622 -1.977903724 -1.074456811
4.181758881 -0.9662038088 -0.3717809916
8.828361511 -2.043057203 -0.472699523
8.838672638 -2.047068834 -0.157663241
8.347208023 -1.917899847 0.1487974077
8.32707119 -1.914803386 0.4455895126
8.339310646 -1.920682788 0.744981885
8.298721313 -1.9143852 1.040577173
8.269723892 -1.909216166 1.337566257
8.270463943 -1.912427902 1.641783595
8.228272438 -1.905698061 1.939974546
7.135446548 -1.653907776 1.951030135
0.9265646935 -0.2161298394 -0.2433419526
8.780010223 -2.052867174 -1.744438648
8.558703423 -2.0058496 -1.074212909
8.558133125 -2.008867979 -0.765376389
8.866257668 -2.08282733 -0.4751069844
8.885976791 -2.090732813 -0.1586405784
8.340802193 -1.945569754 0.1487974077
8.328116417 -1.945676088 0.4460081756
8.32867527 -1.948872924 0.744633317
8.296192169 -1.94279933 1.04106462
8.261086464 -1.937620163 1.337253451
8.271720886 -1.941637754 1.643309951
8.221907616 -1.932973504 1.939974546
7.135271549 -1.680133343 1.952583075
0.9333624244 -0.2209815532 -0.2454124987
8.776976585 -2.082878113 -1.745202065
8.576753616 -2.041689157 -1.077381611
8.628591537 -2.057211876 -0.7723488212
8.337851524 -1.975594878 0.1488672346
8.33293438 -1.977501869 0.4466362
8.310536385 -1.973718882 0.7435874343
8.299016953 -1.974043608 1.042283297
8.252350807 -1.965987206 1.336940646
8.264892578 -1.970499635 1.643309951
8.226483345 -1.964376926 1.942674041
7.127484322 -1.704580665 1.952065468
0.910007298 -0.2189774215 -0.2392008305
8.801727295 -2.122858524 -1.751689434
8.57343483 -2.072548389 -1.077869177
8.313406944 -2.000476599 0.1485530883
8.341513634 -2.010320663 0.4474735558
8.310994148 -2.006035328 0.7442846894
8.295934677 -2.003932714 1.042770743
8.260797501 -1.998497128 1.339443564
8.238534927 -1.996155739 1.639493942
8.22680378 -1.996353745 1.944473743
7.121490955 -1.729449749 1.952065468
0.9017308354 -0.220318526 -0.2371302992
8.851471901 -2.167578459 -1.763138056
8.585058212 -2.108692408 -1.080306411
8.307962418 -2.031408548 0.1485880017
8.320865631 -2.036102772 0.4467408657
8.313615799 -2.037404776 0.7451562285
8.267327309 -2.029120445 1.040089607
8.238425255 -2.023551226 1.336940646
8.217891693 -2.024592161 1.944023609
7.132291794 -1.758459806 1.956724048
0.9309569001 -0.2309058905 -0.2454124987
8.859093666 -2.202251911 -1.766191006
8.578018188 -2.137149811 -1.080306411
8.192490578 -2.031989098 0.146633327
8.024893761 -1.993393779 0.431144774
8.000967026 -1.990415812 0.7176150084
7.965829849 -1.983151197 1.002797604
7.932304859 -1.977745771 1.288133025
8.163868904 -2.040022135 1.932776213
7.131731987 -1.784752369 1.958276987
0.8739815354 -0.2198533267 -0.2298833728
7.988835335 -2.014069796 0.4295746684
7.990458965 -2.015962362 0.7172663808
7.980029583 -2.016294241 1.00547874
7.923438072 -2.004938126 1.28782022
7.935871601 -2.009558201 1.583014369
8.09247303 -2.052219391 1.917479396
7.12920332 -1.810587049 1.95931232
0.9293636084 -0.2372373194 -0.2454124987
6.814535141 -1.750943184 1.359386206
6.792485714 -1.747805357 1.60929656
6.776753902 -1.746279716 1.863549352
0.8686850667 -0.2249807715 -0.2288480848
6.854460239 -1.776513457 0.1228980497
6.864920616 -1.781781912 0.3694930077
6.8557868 -1.780688643 0.6159914136
6.847639084 -1.781124115 0.8636227846
6.806260586 -1.772897959 1.107294798
6.804582119 -1.773729086 1.358622909
6.808969498 -1.777411342 1.614695311
6.763139725 -1.767969728 1.861478686
0.9015264511 -0.2368474007 -0.2381655723
1.343801856 -0.3542950749 -0.2134281397
1.369077802 -0.3614703417 -0.1687237173
6.85982132 -1.803479791 0.123107478
6.876042366 -1.810310841 0.3704350591
6.874576092 -1.811207891 0.618257463
6.837542057 -1.804003477 0.8631353378
6.7923913 -1.79462707 1.106043339
6.792655468 -1.795965195 1.357478023
6.778234005 -1.794684052 1.608846545
0.9268283248 -0.246956408 -0.2454124987
1.297008276 -0.3463194966 -0.2526939213
1.291031957 -0.3452065289 -0.2049807012
1.287270784 -0.3446823657 -0.1584866792
1.297424674 -0.3476439118 -0.113800019
1.315705419 -0.3530344665 -0.06918927282
1.297836185 -0.348482579 -0.02275614254
6.837195873 -1.824349165 0.368655622
6.789292812 -1.814106107 0.6111106873
6.773673058 -1.812466264 0.8558230996
6.711984634 -1.797215343 1.093841434
6.501904488 -1.743396401 1.300235391
6.489616871 -1.742529988 1.541361332
6.329307079 -1.700669408 1.744492531
0.9408804178 -0.2542214096 -0.2495536208
1.271156192 -0.3441745639 -0.2477328628
1.282253504 -0.3474195004 -0.2037292123
1.286120772 -0.348949194 -0.1584866792
1.278899193 -0.3474692106 -0.1122312099
1.287545323 -0.3500596285 -0.06772386283
1.275387645 -0.3472323418 -0.02237218805
6.797194481 -1.836569548 0.1221999526
6.784515381 -1.835684896 0.3661434948
6.496384144 -1.760159373 0.5851383209
6.654586792 -1.804270267 0.8414425254
6.183327675 -1.678813934 1.008115411
6.126645088 -1.664572716 1.225819826
6.075758934 -1.653024673 1.443732619
6.013921738 -1.638455629 1.658564568
0.9064928889 -0.24815844 -0.2402361035
1.266221285 -0.3473492265 -0.2469696552
1.273413658 -0.3498002887 -0.2024777383
1.294464946 -0.3560689688 -0.1597053856
1.273898125 -0.3506507874 -0.1118825972
1.292091846 -0.3561439812 -0.068037875
1.276095629 -0.352214247 -0.02240709402
6.273867607 -1.718690038 0.1128454655
6.213717937 -1.704544306 0.3354746103
6.056294918 -1.662496805 0.5457438827
6.024253368 -1.655962706 0.7619836926
5.920315742 -1.629614949 0.9658780098
5.874738693 -1.618172646 1.176209569
5.852035046 -1.614117026 1.391543865
5.792158604 -1.599777579 1.59851861
0.905621171 -0.2513211668 -0.2402361035
1.270675421 -0.3533450067 -0.2481144816
1.272184849 -0.3542431891 -0.2024777383
1.283653259 -0.3579194546 -0.1584866792
1.278423548 -0.3567017317 -0.1124055237
1.275452137 -0.3563525975 -0.06720050424
1.282561183 -0.3588214815 -0.02254671231
6.009641647 -1.668880463 0.108168222
5.965274811 -1.658802867 0.3222859502
5.82395792 -1.620600939 0.5251751542
5.777493477 -1.609844685 0.7312726378
5.712904453 -1.593996882 0.9327139258
5.640250683 -1.574786425 1.130033731
5.609892368 -1.568421125 1.334856153
5.555858612 -1.555405498 1.534331441
0.9010190368 -0.2534347177 -0.2392008305
1.322344303 -0.3726905286 -0.2587998211
1.310864091 -0.3699488938 -0.2090479732
1.362627983 -0.3850711584 -0.1687237173
1.28861022 -0.3646399379 -0.1134513989
5.715793133 -1.620639324 -0.1030023098
8.313661575 -2.339996338 0.1500539929
8.273979187 -2.331944942 0.4483109713
5.591989994 -1.57710433 0.5046063662
5.554056168 -1.568498969 0.7034864426
5.505816936 -1.556951404 0.8995497823
5.430699348 -1.536733031 1.088819027
5.405641079 -1.531680465 1.287166595
5.342244148 -1.515731692 1.47635591
0.9223771691 -0.2630941868 -0.2454124987
4.290278435 -1.226166725 -0.8590849042
5.210330486 -1.491086125 -0.8516808152
5.494835377 -1.573543072 -0.6966617703
5.504616737 -1.5784235 -0.4972852767
5.490442276 -1.57643342 -0.2971647084
8.312411308 -2.388256073 -0.1502634287
5.528632641 -1.576959133 0.09965144843
5.531047344 -1.579735756 0.2992581427
5.436756134 -1.554857969 0.49101004
5.357699394 -1.533260107 0.6791125536
5.28386879 -1.514127016 0.8638827205
5.22877121 -1.500313878 1.049130797
5.20145607 -1.494441152 1.239476919
5.180962563 -1.489532232 1.432874322
0.8880470395 -0.2566574514 -0.2360950261
4.276543617 -1.238404751 -0.8571768403
4.901536942 -1.421245456 -0.8016218543
5.309832096 -1.541643858 -0.6737502813
5.303918839 -1.540930748 -0.4795055091
8.330863953 -2.423493147 -0.4524978399
5.27425909 -1.535308957 -0.09518363327
5.353769779 -1.548323393 0.09657981992
5.314459801 -1.537960172 0.2877442241
5.216964722 -1.511719823 0.4714871645
5.169023037 -1.499783635 0.6557136774
5.092641354 -1.478585243 0.8332215548
5.057604313 -1.470327139 1.015548348
5.031553268 -1.464658499 1.199885607
4.990254879 -1.45358181 1.381110549
0.8760216832 -0.2564986348 -0.232989192
4.272194386 -1.253325224 -0.8571768403
4.856994152 -1.425807118 -0.7950515747
5.159946918 -1.516697884 -0.655226171
5.103552341 -1.502057076 -0.4617257416
5.18453598 -1.526875138 -0.2810452282
5.088571548 -1.500543714 -0.09190257639
5.175884247 -1.515495896 0.09343838692
5.151899338 -1.510425687 0.2791611254
5.035778046 -1.478290558 0.455450505
4.996414661 -1.467682481 0.634264648
4.916889668 -1.446186781 0.8050633669
4.873780251 -1.434431434 0.9792945981
4.865911961 -1.43396163 1.161193967
4.807275295 -1.418505669 1.331417322
0.875166297 -0.2594022155 -0.232989192
4.277424812 -1.270279884 -0.8590849042
4.802757263 -1.428114057 -0.7869169712
4.983391285 -1.483719587 -0.6332896948
4.941968441 -1.472325683 -0.4474321902
4.995438576 -1.490154147 -0.2709967196
4.918778896 -1.468221188 -0.08890076727
4.994184971 -1.481241584 0.09022714198
4.974537373 -1.476358652 0.2697406411
4.862782001 -1.445038557 0.4401111007
4.808605671 -1.430766582 0.6108657718
4.753035069 -1.415134907 0.7787824273
4.695651531 -1.399834514 0.9441857338
4.6965518 -1.401888132 1.121602654
4.658162594 -1.391314745 1.291041493
0.8890576363 -0.2668992281 -0.2371302992
4.278604984 -1.286899567 -0.8602297902
4.763947487 -1.433785558 -0.7812853456
4.780774593 -1.440670133 -0.6079408526
4.78801775 -1.444675803 -0.4338359237
4.772499561 -1.440902352 -0.2590641081
4.737522125 -1.432146907 -0.08568952233
4.790059566 -1.437998056 0.08659704775
4.820161819 -1.448869348 0.2615762651
4.716526508 -1.419513583 0.4272120595
4.655574799 -1.402055264 0.5918540955
4.600547314 -1.387235045 0.7543786168
4.557534695 -1.375132799 0.9170908332
4.557563782 -1.376877427 1.089209676
4.523840904 -1.368412971 1.254806876
0.9103004932 -0.2767439783 -0.2433419526
4.268452644 -1.300110817 -0.8590849042
4.686860561 -1.429339767 -0.7693963051
4.653954983 -1.42108047 -0.5923416018
4.649564743 -1.420627356 -0.421634078
4.652593136 -1.423328519 -0.2527838051
4.609872341 -1.412019134 -0.0834556073
4.669969559 -1.420626044 0.0845027566
4.642865181 -1.414151669 0.2521557808
4.543828964 -1.384853125 0.4118726552
4.525093555 -1.380869389 0.5757673383
4.459412098 -1.362528205 0.7318520546
4.43793869 -1.356813908 0.8938121796
4.418322086 -1.3525033 1.056816697
4.411665916 -1.352150083 1.224783778
0.8945581317 -0.2753728926 -0.2392008305
4.241375446 -1.308059335 -0.8545054793
4.521410465 -1.3961519 -0.7428025007
4.478278637 -1.384545922 -0.570405066
4.511341095 -1.395630598 -0.409432292
4.506417274 -1.395830989 -0.245038107
4.536157131 -1.406778216 -0.08219903708
4.542672157 -1.399244308 0.08226884902
4.504301548 -1.389146924 0.2448287606
4.420931816 -1.364280343 0.4010653198
4.372309208 -1.350947499 0.5567557216
4.330078125 -1.339554906 0.7112026811
4.294391632 -1.329336166 0.8655723929
4.286999702 -1.328688145 1.026223302
4.266695023 -1.324027538 1.185443282
0.8714591265 -0.2715961635 -0.232989192
4.251775742 -1.327537656 -0.8575584292
4.595695496 -1.436680794 -0.7559429407
4.473418236 -1.400169492 -0.570405066
4.373349667 -1.369686365 -0.3972305059
4.480489254 -1.397233009 0.08122170717
4.377648354 -1.366000414 0.238129735
4.283020973 -1.338113904 0.3888635337
4.265260696 -1.334199309 0.5435938835
4.189878464 -1.311422229 0.6886761189
4.188560486 -1.312615275 0.8449650407
4.163336754 -1.30630672 0.9974296093
4.129574299 -1.296505094 1.148173332
0.9147219062 -0.2885862589 -0.2454124987
3.889568806 -1.229362369 -0.7846693993
3.136897564 -0.9920702577 -0.5144081116
3.121301174 -0.9883365035 -0.3968631327
4.198665142 -1.333508372 -0.07619541138
3.066363335 -0.9685860276 0.1663248241
4.126351833 -1.304993629 0.3749186397
4.154827595 -1.314797163 0.5299444795
4.102417946 -1.299787641 0.6749099493
4.053182602 -1.284966707 0.8182518482
4.062396049 -1.289448142 0.974034667
4.029284954 -1.280486822 1.121256113
0.8953558803 -0.2857444882 -0.2402361035
3.805060625 -1.216545463 -0.7682598829
4.085373402 -1.307738423 -0.6727197766
4.097049713 -1.313052893 -0.5231198072
3.142112255 -1.00761199 -0.2849738896
3.14123559 -1.003100276 0.0568581447
4.065072536 -1.300457716 0.3696892858
4.002754688 -1.282062173 0.5109328628
3.992518663 -1.280320287 0.6573892832
3.951465368 -1.267915964 0.7984076738
3.950259686 -1.269050241 0.9479403496
3.921803474 -1.261418819 1.092268467
0.8796463013 -0.2841180265 -0.2360950261
3.804526567 -1.231028795 -0.7690230608
3.975547075 -1.287898898 -0.6551991105
3.979146242 -1.290599942 -0.50849545
3.987575531 -1.294103146 -0.3630654216
3.135762453 -1.020081282 -0.0568581447
3.997777224 -1.292017341 0.07263512164
3.99445343 -1.29248333 0.2178233862
3.942985773 -1.276590347 0.3588819802
3.937827349 -1.276438951 0.5031331778
3.24397707 -1.052780271 0.5334931016
3.846182346 -1.248958349 0.777800262
3.274926901 -1.064720154 0.7850757837
3.27443099 -1.06582284 0.9110951424
0.9117017984 -0.2979900837 -0.2454124987
3.794608831 -1.242468834 -0.7678781748
3.888435364 -1.274693489 -0.6414328814
3.887856007 -1.276006818 -0.4972835183
3.884601355 -1.275689602 -0.354001224
3.297686815 -1.084224224 -0.1797228158
3.284137487 -1.081039906 -0.05965052918
3.890608788 -1.272398472 0.07075025886
3.891216516 -1.274101019 0.2123804688
3.048624277 -0.9988001585 0.2769555748
3.782451153 -1.240681052 0.4836341441
3.747009516 -1.23050487 0.6179677248
3.737351656 -1.228055954 0.7564296722
3.722869158 -1.224737048 0.8948518634
3.709228516 -1.221684813 1.034810543
0.8996511102 -0.2975311577 -0.2423066795
3.758566856 -1.245210648 -0.761390686
3.775215864 -1.252189159 -0.6232864857
3.789182186 -1.258289814 -0.4850965738
3.789369345 -1.25908649 -0.3456343114
3.794202089 -1.262163043 -0.2073561996
3.718606949 -1.238457799 -0.06771353632
3.795017481 -1.255816817 0.06907482445
3.359679699 -1.11305964 0.1832816601
3.014860153 -0.9994052649 0.274166584
3.695199251 -1.226364613 0.4729096293
3.660208941 -1.216170669 0.6042014956
3.651070356 -1.213841796 0.7396385074
3.64461112 -1.213107347 0.8768558502
3.602306843 -1.200423241 1.005822897
0.9095992446 -0.3043476343 -0.2454124987
3.698353291 -1.239605308 -0.7499421835
3.669693708 -1.231424332 -0.6063916087
3.694442987 -1.241164446 -0.4733970761
3.686746597 -1.239294887 -0.3365701139
3.672410965 -1.235902905 -0.2008665502
3.63298893 -1.223341703 -0.06621263176
3.684420824 -1.23350513 0.06712015718
3.685496092 -1.234580398 0.2014945745
2.979240417 -0.9991531372 0.2712032795
3.600567102 -1.208927035 0.4612101614
3.566274643 -1.198105574 0.5891838074
3.542605162 -1.191530108 0.718267858
3.551705599 -1.195971012 0.8552604914
3.5159235 -1.18460536 0.982529223
0.9012117982 -0.3050433397 -0.2433419526
3.584305763 -1.2153126 -0.7274267077
3.572057009 -1.211854815 -0.5907481313
3.585047483 -1.217657566 -0.4597477317
3.565446377 -1.212388396 -0.3257627785
3.588878393 -1.221054912 -0.1964703351
3.562445164 -1.213449121 -0.06499096751
3.604544878 -1.220071077 0.06572397053
3.624416113 -1.228207469 0.198354423
2.981394768 -1.011466861 0.2717262208
3.51382947 -1.192784429 0.4504856467
3.48351717 -1.183851004 0.5760433078
3.497742176 -1.189366341 0.7098722458
2.517025709 -0.8578459024 0.7009340525
0.8928840756 -0.3055284321 -0.2412714064
3.524540663 -1.208094597 -0.7159781456
3.504279137 -1.202516675 -0.5801106095
3.528208256 -1.212104917 -0.4529230297
3.497344494 -1.202184319 -0.3198361993
3.561931133 -1.225775957 -0.1952142566
3.55107522 -1.215804815 0.06481644511
2.985284805 -1.023255706 0.1631846577
2.921485186 -1.001957297 0.2664968669
2.49579215 -0.8569346666 0.3188667595
2.466857672 -0.8479626775 0.4064682722
2.489193678 -0.8561263084 0.5034168959
2.465579271 -0.8489670753 0.5920677185
2.448266029 -0.8439617157 0.6822990775
0.8845096827 -0.3061160445 -0.2392008305
2.470400095 -0.85641855 -0.4999823868
2.48485899 -0.8624027967 -0.4099098444
2.500134945 -0.8686825633 -0.3198417127
2.488187551 -0.8650180101 -0.2267538458
2.5239501 -0.8784384131 -0.1378540546
2.469973803 -0.8606193066 -0.04495560378
2.515082598 -0.8709254861 0.04575841501
2.508037567 -0.8694664836 0.1369120032
2.47184968 -0.8574044108 0.2251850516
2.455280542 -0.8526174426 0.3139919639
2.415370941 -0.8397033215 0.3983336687
2.4287076 -0.8448150158 0.4915867746
2.414752245 -0.8409056067 0.580370307
2.39970088 -0.8366034627 0.6693580747
0.8542613983 -0.2989906967 -0.230918631
2.434046984 -0.8533450365 -0.4931133091
2.44082737 -0.8566790819 -0.4030267
2.457757711 -0.8635848761 -0.3147231936
2.449290037 -0.8615702391 -0.2234419435
2.471884966 -0.8700031042 -0.135132581
2.434891701 -0.8579384089 -0.04436222091
2.447858572 -0.8572277427 0.04457164928
2.452213526 -0.8597139716 0.1339811981
2.406799316 -0.8442641497 0.2194327861
2.399846554 -0.8427661657 0.3071672916
2.362108707 -0.830439806 0.3898862302
2.372035503 -0.8343949318 0.4805198908
2.367687702 -0.833794415 0.5695726871
2.33664155 -0.8237782717 0.6522760391
0.8932228088 -0.3163067997 -0.2423066795
2.373543501 -0.8419147134 -0.4812831283
2.381826162 -0.8457887769 -0.3936406672
2.398612261 -0.8522209525 -0.3074110448
2.391829491 -0.8507515192 -0.2183869034
2.395299673 -0.8529278636 -0.1310503632
2.388556957 -0.8509965539 -0.04355940968
2.395841122 -0.8484119177 0.04366412386
2.411547899 -0.8549214005 0.1318877488
2.358625174 -0.8370865583 0.2152493
2.337029457 -0.8298813701 0.2993676662
2.314525127 -0.8228000402 0.3823773563
2.304224491 -0.8200443983 0.4671632349
2.31688714 -0.8254620433 0.557875216
2.286440134 -0.8150640726 0.6388174891
0.8884756565 -0.3181203008 -0.2412714064
2.318846226 -0.8316372037 -0.4705978334
2.310069799 -0.8293998241 -0.3820645213
2.335693598 -0.839520216 -0.2996113896
2.332600117 -0.838868022 -0.2131575644
2.33781147 -0.841663897 -0.1280148923
2.317697287 -0.8353363872 -0.04230283946
2.33247447 -0.8356060386 0.04254717007
2.340718031 -0.8394814134 0.1281195581
2.303180218 -0.8264724016 0.2103685737
2.259243965 -0.811596632 0.2896181345
2.244576216 -0.8072121739 0.3711140752
2.242234468 -0.8068119884 0.4549514651
2.247988701 -0.8097689152 0.5416787267
2.228918314 -0.8037785292 0.6232883334
0.8764608502 -0.3172744215 -0.2381655723
2.249485016 -0.8156346083 -0.4568595588
2.260739565 -0.8206083775 -0.3742427528
2.278642893 -0.8280072212 -0.292542994
2.269738674 -0.825220108 -0.2075795829
2.28418541 -0.8313754797 -0.1251887381
2.258401394 -0.8228837252 -0.04125569016
2.276898623 -0.8246753216 0.04156983644
2.270178556 -0.8231378794 0.1243513823
2.240347147 -0.8127636313 0.204790622
2.209750652 -0.8025367856 0.2835246325
2.199045658 -0.7995179296 0.3639180958
2.191435337 -0.7971841097 0.4450294077
2.171904325 -0.7909379005 0.5236826539
2.178909063 -0.7943502665 0.6098297238
0.8680912256 -0.3176763058 -0.2360950261
2.196854353 -0.8052389622 -0.4465559125
2.207790852 -0.8101220131 -0.3657953143
2.21252656 -0.8122979403 -0.2842558622
2.220092058 -0.8159551024 -0.2032217979
2.213790894 -0.8145164847 -0.1214205623
2.206869125 -0.8124070168 -0.04034816474
2.234572887 -0.818179667 0.04083683342
2.211175203 -0.8100504875 0.1212112084
2.194473505 -0.804800868 0.2007814497
2.180847406 -0.8006674647 0.2801122963
2.144463778 -0.7877344489 0.3551577628
2.164685249 -0.7960200906 0.4400683641
2.154638529 -0.7927526236 0.5200834274
0.8670330644 -0.3205532134 -0.2360950261
2.153668165 -0.7975207567 -0.4381602705
2.177309036 -0.8071395755 -0.361102283
2.180041313 -0.8085852861 -0.2803560197
2.155736923 -0.8004267216 -0.1974695325
2.184868097 -0.8121110797 -0.1199551523
2.159180164 -0.8029919267 -0.03951045126
2.171831608 -0.8033849001 0.03971988335
2.178507566 -0.806286633 0.1195364669
2.163290739 -0.802372396 0.27816239
2.143630028 -0.7963571548 0.4362521768
2.146517992 -0.7978564501 0.5187336802
2.115654707 -0.7872252464 0.593265295
0.8478677273 -0.3166674674 -0.230918631
2.145495176 -0.8025946021 -0.4370154142
2.145021677 -0.8032711148 -0.3560963869
2.173487902 -0.8147963881 -0.279868573
2.160532713 -0.8103698492 -0.1981667876
2.165723324 -0.8140419126 -0.03968497738
2.181291342 -0.8159853816 0.1198504716
2.151767969 -0.8053692579 0.1972952038
2.151323795 -0.8060592413 0.2769437134
2.124255657 -0.7967631221 0.3526548147
2.120758533 -0.7958735824 0.4320543706
2.130949974 -0.8005470037 0.5155844092
2.114702225 -0.7952854633 0.5937829614
0.8648310304 -0.3264474869 -0.2360950261
2.148189783 -0.8121617436 -0.4381602705
2.142204762 -0.8107537627 -0.3560963869
2.166918039 -0.8209718466 -0.2793810964
2.150238752 -0.8150817156 -0.1974695325
2.151279449 -0.8163352013 -0.1183850765
2.155390978 -0.8187562227 -0.0395453535
2.147605181 -0.8110840321 0.0393708311
2.165352583 -0.8186504245 0.1191177741
2.15267086 -0.8142852783 0.1976438463
2.129932404 -0.8065340519 0.2745063305
2.121461391 -0.8041732907 0.3526548147
2.125310183 -0.8060564399 0.4335808754
2.122677088 -0.8059054017 0.5142346621
2.11552453 -0.804035008 0.5948182344
0.8889560699 -0.3391037881 -0.2433419526
2.132504225 -0.8147505522 -0.4354889691
2.131981373 -0.8154038787 -0.3548449278
2.149208307 -0.8228525519 -0.2774311602
2.156683207 -0.8261460662 -0.1983410865
2.137227535 -0.8195489645 -0.1177570373
2.148786306 -0.8248417974 -0.03947554529
2.14849782 -0.8200018406 0.03944064304
2.145690441 -0.8197885156 0.1181757301
2.149815321 -0.8217945695 0.1976438463
2.127104044 -0.8139640093 0.2745063305
2.107573748 -0.8073339462 0.350777626
2.118817091 -0.8120650053 0.4328176379
2.112573385 -0.8105179071 0.5124350786
2.109098434 -0.8100293875 0.5937829614
0.8661360741 -0.333866775 -0.2371302992
2.116826534 -0.8172397614 -0.4328176379
2.132807255 -0.824265182 -0.3554706573
2.137065887 -0.8267683983 -0.2762124836
2.129631758 -0.8243196607 -0.1960750371
2.145528078 -0.8313339353 -0.1183850765
2.142165184 -0.8308910728 -0.03940573707
2.138159275 -0.8246182799 0.03930102289
2.137226105 -0.8251153827 0.1178617179
2.139499187 -0.8264220953 0.1969465911
2.1168437 -0.8185203075 0.2735313475
2.097373962 -0.8118336201 0.3495261073
2.125123262 -0.8230012059 0.4347257316
2.107914209 -0.8171828389 0.5119851828
2.108058929 -0.8180854917 0.5943005681
0.8649653792 -0.3368881345 -0.2371302992
2.117618799 -0.8260508776 -0.4335808754
2.122556925 -0.8288308978 -0.3542191386
2.141562462 -0.8371140361 -0.2771874666
2.126741171 -0.8317484856 -0.1960750371
2.150052071 -0.841730535 -0.1188037544
2.141113758 -0.8390933275 -0.03944064304
2.133404732 -0.8313506842 0.03926612064
2.145496845 -0.8369256258 0.1184897348
2.125465393 -0.8295391202 0.1959007382
2.123218298 -0.8295163512 0.2747500539
2.090847969 -0.8177109361 0.3489003778
2.114924431 -0.827552557 0.4331992269
2.112307072 -0.8273787498 0.5137848258
2.097996235 -0.8226181865 0.592230022
0.8637841344 -0.3399053514 -0.2371302992
2.11837554 -0.8348774314 -0.4343441129
2.115975857 -0.8347851038 -0.3535934091
2.14970541 -0.8489592075 -0.2786498666
2.123824835 -0.8391670585 -0.1960750371
2.143386364 -0.847761333 -0.1185944155
2.140030861 -0.8472982049 -0.03947554529
2.126768112 -0.8373275399 0.0391963087
2.146278858 -0.8458744884 0.1186990887
2.129970789 -0.8398767114 0.1965979636
2.114770889 -0.8347362876 0.2740188539
2.097166538 -0.8286337852 0.3504647315
2.108371496 -0.833486557 0.4324360192
2.123902082 -0.8404835463 0.5173839927
2.105888367 -0.8342052698 0.5953358412
0.8625324965 -0.3430689871 -0.2371302992
2.122597218 -0.8455423117 -0.4358705878
2.112901926 -0.8425349593 -0.3535934091
2.142891884 -0.855360806 -0.27816239
2.128136158 -0.8499014974 -0.1967722923
2.125428438 -0.8496803641 -0.1177570373
2.148050547 -0.8595938087 -0.03968497738
2.131117105 -0.8480744362 0.03933592886
2.135742188 -0.8507786989 0.1182803959
2.13057971 -0.8491531014 0.1969465911
2.098790884 -0.8373325467 0.2723126411
2.097784281 -0.837780118 0.351090461
2.119887352 -0.8470361233 0.4354889691
2.113569736 -0.8453675508 0.5155844092
2.102816582 -0.8419181705 0.5953358412
0.8756702542 -0.3518396616 -0.2412714064
2.112347126 -0.8500147462 -0.4343441129
2.124606371 -0.855809629 -0.3560963869
2.13252902 -0.8598662615 -0.2771874666
2.13624239 -0.8617971539 -0.1978181452
2.12985754 -0.860085845 -0.1181757301
2.135766983 -0.8633394837 -0.03951045126
2.128143787 -0.8555082679 0.03933592886
2.132759333 -0.8582286835 0.1182803959
2.138691902 -0.8610497117 0.1979924589
2.097696304 -0.8453956246 0.2725563943
2.089351654 -0.8428806067 0.3501518965
2.1205585 -0.8559003472 0.4362521768
2.099765062 -0.8483601213 0.5128849745
2.103447199 -0.8507020473 0.5963711739
0.8636965156 -0.3505352139 -0.2381655723
2.10572958 -0.8559045196 -0.4335808754
2.125265598 -0.8647097349 -0.3567221165
2.133342981 -0.8684301972 -0.2776749134
2.125841141 -0.8662415147 -0.1971209049
2.130540848 -0.8690237999 -0.1183850765
2.131040812 -0.8696616292 -0.03947554529
2.143672228 -0.8704550266 0.03968497738
2.135452747 -0.8675516248 0.1185944155
2.128290653 -0.8655075431 0.1972952038
2.10944128 -0.8587003946 0.2745063305
2.086544991 -0.8498045206 0.3501518965
2.121193886 -0.8647795916 0.4370154142
2.104157925 -0.8582625389 0.5146846175
2.107768297 -0.8605934978 0.5984416604
0.8446531296 -0.346073091 -0.232989192
2.110145092 -0.8658638 -0.4351073205
2.115077496 -0.8687505722 -0.3554706573
2.134123564 -0.8770088553 -0.27816239
2.115586281 -0.8702543378 -0.1964236498
2.142421722 -0.8821677566 -0.1192224547
2.128145218 -0.8767236471 -0.03947554529
2.137073278 -0.8760418892 0.03961516917
2.128868341 -0.8731124997 0.1183850765
2.121722698 -0.8710472584 0.1969465911
2.113926411 -0.8687089682 0.2754812539
2.083715677 -0.8567190766 0.3501518965
2.114683628 -0.8703145385 0.4362521768
2.108507872 -0.868203342 0.516484201
2.087042332 -0.8602167368 0.593265295
0.8363600969 -0.345918715 -0.230918631
2.107261896 -0.8728565574 -0.4351073205
2.108535528 -0.8742462993 -0.3548449278
2.145717144 -0.8905404806 -0.2801122963
2.119895458 -0.8806914091 -0.1971209049
2.132107496 -0.8862010837 -0.1188037544
2.136149645 -0.8887559175 -0.03968497738
2.12676549 -0.8800654411 0.03947554529
2.140569448 -0.8866530061 0.1192224547
2.118822575 -0.8780783415 0.1969465911
2.112867832 -0.8764748573 0.2757250071
2.084361076 -0.8655023575 0.350777626
2.111785889 -0.8773223162 0.4362521768
2.105464458 -0.8755580783 0.516484201
2.094727993 -0.8719510436 0.5963711739
0.8636060953 -0.360900104 -0.2392008305
2.114915133 -0.885121882 -0.4373970628
2.108961105 -0.8834952712 -0.3554706573
2.135272026 -0.8949557543 -0.2791373432
2.12415719 -0.8911690116 -0.1978181452
2.125162125 -0.892463088 -0.1185944155
2.13487792 -0.8969816566 -0.03971988335
2.119990349 -0.8859418035 0.03940573707
2.133776426 -0.8925779462 0.1190131083
2.126616716 -0.8904553652 0.1979924589
2.098809719 -0.879242599 0.2742625773
2.092257023 -0.8773561716 0.3526548147
2.112176657 -0.8865761161 0.4370154142
2.105834484 -0.8847787976 0.5173839927
2.102356672 -0.8837493658 0.5994769335
0.8445425034 -0.3564013839 -0.2340244651
2.10457921 -0.889441967 -0.4358705878
2.109502554 -0.892390728 -0.3560963869
2.124665737 -0.8996797204 -0.27816239
2.12470293 -0.9001327157 -0.1981667876
2.118356466 -0.8983163238 -0.1183850765
2.127894402 -0.9032375216 -0.03965007141
2.131466866 -0.8999284506 0.03968497738
2.123131752 -0.89728266 0.1185944155
2.123495579 -0.8978732824 0.1979924589
2.093745232 -0.8861555457 0.2740188539
2.092665434 -0.8865600228 0.3532805741
2.112684488 -0.8954761028 0.4377786815
2.095557451 -0.8890797496 0.5155844092
