# .PCD v0.7 - Point Cloud Data file format
VERSION 0.7
FIELDS x y z
SIZE 4 4 4
TYPE F F F
COUNT 1 1 1
WIDTH 1235
HEIGHT 1
VIEWPOINT 0 0 0 1 0 0 0
POINTS 1235
DATA ascii
5.564122677 0.9570912123 1.501202583
2.682192802 0.4579941332 -0.7174984813
3.010517836 0.5129754543 -0.6950953603
3.415599585 0.5813857317 -0.6652229428
3.101411104 0.5267923474 -0.4915686548
4.785912037 0.8111935258 -0.5908791423
5.699129581 0.9649599791 -0.5019916892
5.677742958 0.9592975378 -0.2995721698
5.663212299 0.9548122883 -0.09954673052
5.651512623 0.9639984965 0.09937220812
4.749195576 0.808383584 0.250271678
5.476500511 0.9311954975 0.4822944999
5.46293354 0.9269295335 0.6752127409
5.600529671 0.9482653141 0.8929796219
5.582322598 0.9441803694 1.092253566
5.580449581 0.941860199 1.296614528
5.571239471 0.938303113 1.502237797
2.679964542 0.4479923248 -0.7164632082
3.023823261 0.5043866038 -0.6977947354
3.165855885 0.5275119543 -0.6156126261
3.089590788 0.5136944056 -0.4893785417
4.800464153 0.7964354157 -0.5923416018
5.688704014 0.9427785873 -0.5007715225
5.677114964 0.9388248324 -0.2993628085
5.662564278 0.9343853593 -0.09947691858
5.660759449 0.9452570677 0.09947691858
4.746078014 0.7908170223 0.2499576956
5.467925072 0.9101142883 0.4812486172
5.468093872 0.9081784487 0.6754564643
5.601856232 0.9283854961 0.8926666975
5.593332291 0.9259698391 1.093780041
5.579858303 0.9217383862 1.295714617
5.566855907 0.9175972342 1.500167251
2.671979427 0.4370747507 -0.7138749957
3.025565147 0.493830502 -0.6977947354
3.163802624 0.5158251524 -0.6148493886
3.087465286 0.502274394 -0.4887528121
4.799295902 0.7790362835 -0.5918540955
5.695893288 0.9235572815 -0.5011201501
5.686272621 0.919957757 -0.2996768057
5.673527718 0.9168769717 -0.09961653501
5.654157639 0.9238777161 0.09930240363
4.752616405 0.7757185102 0.2501670122
5.463202953 0.8897396922 0.480551362
5.475149155 0.8897236586 0.6759439707
5.604904175 0.9098050594 0.8926666975
5.581026554 0.9039299488 1.090727091
5.579194546 0.9016321301 1.294814944
5.567961693 0.8988224864 1.499649644
2.6906569 0.430491209 -0.7185336947
3.023337603 0.4831787646 -0.6968949437
3.155890465 0.5032317042 -0.6129413247
3.079360008 0.490478754 -0.4871884882
4.821457863 0.7662312388 -0.5942915082
5.68727541 0.9017955661 -0.5000742674
5.679429531 0.8995326161 -0.299153477
5.682619095 0.8980073929 -0.09972125292
5.649291992 0.9038575292 0.0991627723
4.75924015 0.759752512 0.2503763437
5.470210552 0.8712921143 0.4809000194
5.458465099 0.868444562 0.6735065579
5.613898277 0.8911649585 0.8936052918
5.578176022 0.8844963312 1.089582324
5.58600235 0.8837387562 1.295714617
5.571065426 0.8793796897 1.499649644
2.690161228 0.4212680161 -0.7180161476
3.013453722 0.4708166718 -0.6941955686
3.043094873 0.4749037623 -0.590425849
3.02640152 0.4712165296 -0.4784281552
3.054771423 0.4745417535 -0.3744391799
5.648460865 0.8835180998 0.09909296781
4.749893665 0.7421149611 0.2497483343
5.478975773 0.8540691137 0.4814229608
5.469309807 0.8506044149 0.6744815111
5.607063293 0.8710260987 0.8920409679
5.579289913 0.8647173047 1.089200735
5.581350327 0.8630418777 1.293915033
5.570132256 0.8603118062 1.498614311
2.704982519 0.4139210582 -0.7216395736
3.022703886 0.4619994462 -0.695995152
3.027266502 0.4616155326 -0.5869912505
3.031852722 0.4617734849 -0.4790538847
3.021001816 0.4590419233 -0.3700518906
3.018180847 0.4575340748 -0.2633592784
2.993835449 0.4533104599 -0.156485647
3.00545311 0.4539950788 -0.05235542357
4.750481129 0.7252275944 0.2496436685
5.472074986 0.833437264 0.480551362
5.470138073 0.8321628571 0.6742377877
5.590539455 0.848485589 0.8889123201
5.589890957 0.8473864794 1.090727091
5.572620392 0.8427814245 1.291215658
3.009570599 0.4540812373 0.8039440513
2.683413267 0.4015187323 -0.7154279351
2.943347692 0.4393623769 -0.6770992279
3.015188217 0.449546814 -0.5843199492
3.041261911 0.4523506463 -0.4803053737
3.028476954 0.4493671656 -0.3707830906
3.027564764 0.4486918449 -0.2640565038
3.009230375 0.4449012578 -0.1572183669
2.999106169 0.442334801 -0.05221580341
3.01209569 0.450160563 0.05246013775
2.994856358 0.4465154409 0.156485647
2.978969336 0.4414899051 0.4702935517
2.972952127 0.4390075207 0.6838478446
2.992025137 0.4407568872 0.7987676859
2.69244504 0.3932655454 -0.7174984813
2.887012243 0.4206554294 -0.6636021733
2.906000137 0.4229041636 -0.5625677705
3.009589434 0.436906606 -0.474986583
3.040416718 0.4386731982 -0.1587884426
3.01844573 0.4344277382 -0.05252994969
2.983967543 0.4353142381 0.0519365631
2.990467787 0.4351965189 0.1561716497
2.981485844 0.4333580732 0.2598730326
2.998517513 0.4347649217 0.3668832779
2.984402418 0.4316548109 0.4709192812
2.970563173 0.4291239381 0.575161159
2.982072115 0.4286600649 0.7956618071
2.693801165 0.3838653564 -0.7174984813
2.954061031 0.4198988378 -0.6788988709
2.90940237 0.4130343199 -0.5629493594
2.958287954 0.4189195931 -0.4665391445
4.865426064 0.6872549653 -0.5981913209
5.699895382 0.8041114211 -0.4998999536
3.109174013 0.4375192225 -0.162347272
2.99140811 0.4257400632 0.05204127729
3.003832817 0.4264401793 0.1567996591
3.000734329 0.4254646003 0.2614418268
2.994120121 0.4234622121 0.3661520779
3.00740695 0.424269259 0.4743608534
2.985651255 0.4206700921 0.5778324604
2.991382599 0.4204113781 0.6874470115
2.981637001 0.4179804921 0.7951441407
2.698951483 0.3749908507 -0.7185336947
2.866715193 0.3972799778 -0.6582033634
3.12280035 0.4322136939 -0.6045457125
2.93820715 0.4056197703 -0.4630975723
4.812732697 0.6626864076 -0.5913665891
5.706614494 0.7847542167 -0.500248611
5.471203804 0.7562733293 0.4795055091
5.469424725 0.7540819049 0.6727753878
5.621410847 0.7730372548 0.8920409679
5.585617065 0.7671217918 1.087674141
2.981247663 0.408380717 0.6847476363
2.979249954 0.4070463181 0.7941089272
2.713644981 0.367382288 -0.7221571803
2.860359669 0.3862270117 -0.65640378
3.143746614 0.4239333868 -0.6083618999
2.921985626 0.3929905295 -0.4602817595
4.81895113 0.6464116573 -0.5918540955
5.711294174 0.7650926709 -0.5004229546
2.957738161 0.3951731324 -0.1541828662
3.232939959 0.4307917953 -0.05622985587
5.489607334 0.7392991781 0.4809000194
5.489730358 0.7373623252 0.6749690175
5.626032829 0.7536709905 0.8923538327
5.613557816 0.7510024905 1.092635155
5.580686092 0.7446221709 1.28986609
2.693842888 0.3551295698 -0.7164632082
3.022055626 0.397326231 -0.6937456727
3.116008997 0.4091240466 -0.602637589
2.925297976 0.3830469549 -0.4605945945
4.852672577 0.6336978674 -0.5957539678
5.698124886 0.7430891395 -0.4990283549
5.693449974 0.738440454 -0.09951182455
5.494130135 0.7203899622 0.4810743034
5.49227047 0.7181962729 0.6749690175
5.60316515 0.7307055593 0.888286531
5.606411457 0.7301365137 1.090727091
5.602576733 0.7276458144 1.294365048
5.591404438 0.7242129445 1.499131918
2.691233873 0.3452317715 -0.7154279351
3.048553228 0.3899886608 -0.6995943785
3.117418289 0.3982438445 -0.602637589
2.91486001 0.3713348806 -0.4587174058
4.854855061 0.6167560816 -0.5957539678
5.684871674 0.7211924195 -0.4976339042
2.900980949 0.3669945598 -0.1510427147
5.488706112 0.7002002001 0.4803770781
5.494744301 0.699018836 0.6749690175
5.617439747 0.7126378417 0.8901637793
5.597239494 0.7090800405 1.088437438
5.591547966 0.706378758 1.291215658
5.584314823 0.703482151 1.496543884
2.707758188 0.3377502859 -0.7195689678
2.846842766 0.3540884256 -0.6523546576
2.962926388 0.3680031896 -0.5721082091
2.902415514 0.3594574928 -0.4565272927
4.884560108 0.6032105684 -0.5991662741
5.695263863 0.7023180127 -0.4983311594
2.88836813 0.3551589549 -0.1503100097
2.939548969 0.3604121804 -0.05099413544
5.497048855 0.6817709804 0.4809000194
5.489269733 0.6788634658 0.6739940047
5.625774384 0.6937488317 0.8911023736
5.58019495 0.6871421933 1.084621191
5.599782944 0.6875673532 1.292565346
5.594406605 0.6849251986 1.498614311
2.707003117 0.3280632496 -0.7190513611
2.819041252 0.3406428695 -0.6456061602
2.849195004 0.3437820375 -0.5495927334
2.907575369 0.3497965634 -0.4571530819
4.876780987 0.5849732161 -0.5979475975
5.707691669 0.6826233864 -0.4992026985
2.940789223 0.3501482606 -0.05099413544
5.503350735 0.6630536318 0.4812486172
5.495548248 0.6601703167 0.6744815111
5.63208437 0.674578011 0.8917280436
5.586458206 0.6681242585 1.085384488
5.598278522 0.6675559878 1.291665673
5.596763611 0.6653913856 1.498614311
2.713943243 0.3188161552 -0.7206043005
2.831825972 0.3321618736 -0.6483055353
2.838736057 0.3319693208 -0.547303021
2.916686296 0.3400516808 -0.458404541
4.861047268 0.5658839941 -0.5957539678
5.729830265 0.6649910212 -0.5009458661
2.853139162 0.3301195502 -0.1483212411
5.50574398 0.6428796053 0.4812486172
5.493875504 0.6405219436 0.6739940047
5.622632504 0.6535443664 0.8898509145
5.596670628 0.6485495567 1.086910963
5.594880104 0.6463603973 1.290315866
5.602890015 0.646297574 1.499649644
2.705442429 0.3082465827 -0.7180161476
2.833024263 0.3217810988 -0.6483055353
2.830123663 0.3209513724 -0.5453948975
2.911966562 0.3292033374 -0.4574659169
4.849280834 0.5465038419 -0.5940477848
5.710337639 0.6425366998 -0.4990283549
2.834426165 0.3179311454 -0.147274524
2.875594616 0.3220421672 -0.04980736971
5.503995419 0.6232099533 0.4809000194
5.500131607 0.6208281517 0.6744815111
5.609175682 0.6321424246 0.8873479366
5.604753494 0.6296656728 1.088055849
5.606785297 0.6279123425 1.292565346
5.591672421 0.6252317429 1.496026278
2.716102839 0.2998614907 -0.7206043005
2.855382919 0.3147338331 -0.6532544494
2.835129976 0.3114998639 -0.5461581349
2.893406153 0.3173917234 -0.4543372393
4.872772694 0.5327968001 -0.5967288613
5.694720745 0.6206557155 -0.4974596202
2.851348877 0.3102604449 -0.1481119096
2.8806777 0.3124330044 -0.04987718165
5.492273808 0.6024740338 0.4796798229
5.513999939 0.6038807631 0.6759439707
5.615275383 0.6129915118 0.8879736662
5.600955486 0.6104364991 1.086910963
5.612711906 0.6097354889 1.293465257
5.593821526 0.6057078242 1.496026278
2.720923901 0.2912634015 -0.7216395736
2.860339642 0.30517748 -0.6541542411
2.840052128 0.3025116324 -0.546921432
2.916104555 0.3095830977 -0.4577788115
4.866706848 0.5149475932 -0.5957539678
2.864332199 0.3015594184 -0.1487399191
2.869765282 0.3016250432 -0.04966775328
5.502165794 0.5850989223 0.4803770781
5.504230499 0.5833755136 0.6744815111
5.631028175 0.5958206058 0.8901637793
5.591337681 0.5896475911 1.084621191
5.62255764 0.5909557343 1.29526484
5.595798969 0.5871558785 1.496026278
2.718080997 0.2813665867 -0.7206043005
2.865213156 0.2960904241 -0.6550540924
2.844996452 0.2929990292 -0.5476846099
2.944625139 0.3027387559 -0.4621589482
4.86443758 0.4984024465 -0.5952664614
2.853394985 0.2908433378 -0.1481119096
5.705779076 0.5795741677 -0.09940710664
4.744389534 0.489449501 0.2477595657
5.508138657 0.5662952065 0.4807256758
5.502184391 0.5647153258 0.6739940047
5.635038853 0.5763605833 0.8904765844
5.593262196 0.5711039305 1.084621191
5.612854481 0.5711222291 1.292565346
5.603579998 0.568202436 1.497579098
2.722890854 0.2722619772 -0.7216395736
2.874035597 0.286360383 -0.6568536758
2.851862669 0.2836484909 -0.5488294959
2.951612234 0.2925292552 -0.4630975723
2.858417034 0.2807742655 -0.1483212411
5.713835239 0.5592404604 -0.09951182455
2.897172689 0.2891763449 0.05012151599
4.756089211 0.4730443358 0.2482829243
5.510081768 0.5470659137 0.4807256758
5.51211977 0.5453253984 0.6749690175
5.639078617 0.5558982491 0.8907894492
5.620717525 0.5530977249 1.089582324
5.601333618 0.5492162704 1.289416075
5.60754776 0.5478495359 1.498096824
2.719979048 0.2623839676 -0.7206043005
3.053479195 0.2934795022 -0.6982446909
2.82156682 0.2706926763 -0.5427235961
2.954581738 0.2824130356 -0.4634104371
2.969543934 0.2822728753 -0.2572583854
2.879263401 0.2726771235 -0.1493679583
5.689871311 0.5368512869 -0.09905806184
2.898164511 0.2790622115 0.05012151599
4.751747131 0.455868423 0.247968927
5.500058651 0.5266878605 0.4796798229
5.513989449 0.5260823369 0.6749690175
5.639019012 0.5360223651 0.8904765844
5.614795685 0.532733798 1.088055849
5.609037399 0.5302093625 1.290765762
5.611349583 0.5284519196 1.498614311
2.709336996 0.251814425 -0.7174984813
3.029259443 0.2804825902 -0.6923959255
2.843998909 0.2628285289 -0.546921432
2.953582525 0.271916002 -0.4630975723
3.066630125 0.2812455595 -0.3729767501
2.946701765 0.2697267532 -0.25516662
2.896109581 0.2640778422 -0.150205344
5.705652237 0.5182514191 -0.09930240363
5.674778938 0.5264359117 0.09877882153
4.757287025 0.4396452904 0.2481782585
5.499878407 0.5073065758 0.4795055091
5.523699284 0.5075567961 0.6759439707
5.623150826 0.5147158504 0.8876607418
5.618576527 0.5133083463 1.088437438
5.599209785 0.5095683932 1.288066387
5.601615906 0.5078160763 1.495508552
2.712123632 0.2425281852 -0.7180161476
2.874935627 0.2560745776 -0.65640378
2.850765467 0.2534216046 -0.5480661988
2.956481695 0.2617778778 -0.4634104371
3.107141495 0.2740263343 -0.3778515458
4.7587924 0.4230375588 0.2481782585
5.511539459 0.4889842868 0.4803770781
5.517528057 0.4875746369 0.6749690175
5.642623901 0.4966415465 0.8904765844
5.604688168 0.4923196137 1.085384488
5.628133297 0.4923967421 1.294365048
5.60720396 0.4885962605 1.496543884
2.722577572 0.2338856459 -0.7206043005
2.86804533 0.2453751266 -0.6546041965
2.875106573 0.2454724312 -0.5526456833
2.965250254 0.2521276772 -0.4646618962
3.086321115 0.2613355219 -0.3751704097
4.756260395 0.4060826302 0.247968927
5.527109146 0.4709249735 0.4815972447
5.509306431 0.4674711823 0.6737502813
5.642354012 0.4767796397 0.8901637793
5.61811018 0.4737408459 1.087674141
5.623991013 0.4722625315 1.293015361
5.608875275 0.4690189958 1.496543884
2.731117964 0.2245391011 -0.7226748466
2.884422064 0.2366362363 -0.6582033634
2.862289429 0.2338147312 -0.5499743223
2.975998878 0.24205634 -0.4662262499
3.136679173 0.2545759082 -0.3812638521
2.818073511 0.2316881716 0.04865551367
4.769592285 0.3904587328 0.2485969514
5.526812077 0.4505032897 0.4814229608
5.514862061 0.4485577047 0.6742377877
5.630201817 0.4559635818 0.8879736662
5.613937855 0.4526741207 1.086529255
5.598489285 0.4494590163 1.28671658
5.618181229 0.4500557482 1.498614311
2.716477871 0.2137910277 -0.7185336947
2.873613119 0.2251500189 -0.6555039883
2.843515396 0.2222911865 -0.5461581349
2.974856138 0.2315154672 -0.465913415
3.13297534 0.2421707511 -0.2712032795
5.696380615 0.4373150766 -0.09902315587
2.90263319 0.2279334515 0.05012151599
4.699244499 0.3681897819 0.2448287606
5.625850677 0.4358511865 0.8870350718
5.623314381 0.4336774349 1.088055849
5.613625526 0.4309619367 1.28986609
5.60623455 0.4294076562 1.494990945
2.717207432 0.2043093294 -0.7185336947
2.887947083 0.2166391611 -0.6586532593
2.873641253 0.2145587504 -0.5518824458
2.973637581 0.2215016484 -0.4656005204
3.105983496 0.2291797101 -0.2687629163
5.711833 0.4184495807 -0.09926749021
2.903373241 0.2183073014 0.05012151599
4.700500965 0.3517828584 0.2448287606
5.653008938 0.4210838675 0.4922302365
5.648515224 0.419757843 0.6903245449
5.635217667 0.4167919457 0.888286531
5.62472105 0.4150286019 1.088055849
5.613080025 0.412199825 1.289416075
5.607698917 0.4098367989 1.494990945
2.712089539 0.1948815137 -0.7169808149
2.880910635 0.2060003132 -0.6568536758
2.87629509 0.2051670998 -0.5522640347
2.974392891 0.2111195624 -0.4656005204
5.711263657 0.3983710706 -0.09923259169
2.904117346 0.2081705481 0.05012151599
4.689747334 0.3345212936 0.2442007214
5.666298866 0.4031850994 0.4932760894
5.644004822 0.3996188641 0.6895933151
5.636638165 0.3971172869 0.888286531
5.612426758 0.3944298625 1.085384488
5.618372917 0.3928743899 1.290315866
5.607168198 0.390126884 1.494473338
2.728171825 0.1864664853 -0.7211219072
2.889389038 0.1964722127 -0.6586532593
2.943591595 0.1996417642 -0.5652390718
2.982995272 0.2012682706 -0.4668520093
4.721678257 0.3160971999 -0.4103038311
5.716610432 0.3786954582 -0.09930240363
5.695921898 0.3883090615 0.09895334393
4.670959473 0.3167962134 0.2431540042
5.673635483 0.3838054836 0.4937990308
5.635462284 0.3792472184 0.6883746386
5.645874023 0.3779683411 0.8895379901
5.625522614 0.3756197095 1.087674141
5.625544071 0.3736488521 1.291665673
5.616206646 0.3710597456 1.496543884
2.728806019 0.1769428253 -0.7211219072
3.016462803 0.1945379376 -0.6878969073
2.944270611 0.189366132 -0.5652390718
2.987622261 0.191107288 -0.4674777389
4.762521267 0.3021374643 -0.4137901068
5.709914684 0.3582360744 -0.0991627723
5.705225468 0.3689416647 0.09909296781
4.628188133 0.2976703644 0.2408512086
5.499969006 0.352776736 0.4784596264
5.553547859 0.3542643189 0.67813766
5.649130821 0.3583845198 0.8898509145
5.626799107 0.3559792042 1.087674141
5.597640038 0.352175504 1.284916997
5.62903595 0.3521782458 1.499649644
2.721694469 0.1669426262 -0.7190513611
3.059916019 0.1866178066 -0.6977947354
2.882205248 0.175273329 -0.5530272722
2.996158123 0.181154862 -0.468729198
4.747635841 0.2845586538 -0.4123955667
5.7104702 0.3492670655 0.0991627723
4.657109261 0.2832092047 0.2423166335
5.439516544 0.3298363388 0.4730559886
5.423971653 0.3269935846 0.6620509028
5.640487194 0.3380734324 0.888286531
5.63192749 0.3365712762 1.088437438
5.608561993 0.3332103491 1.287166595
5.618659973 0.3318422139 1.496543884
2.706831455 0.1565493643 -0.7149102688
3.076113224 0.1768294573 -0.7013939619
2.890639544 0.1656614095 -0.5545537472
2.992827892 0.170469746 -0.4681034684
4.764514446 0.2688814402 -0.4137901068
5.707662106 0.3291026652 0.09909296781
4.636134624 0.2656950653 0.2411652356
5.42869997 0.3101661205 0.4720101058
5.42904377 0.3082846403 0.6625383496
5.633744717 0.3179357052 0.8870350718
5.625226974 0.3164702058 1.086910963
5.62136507 0.3142846525 1.28986609
5.610139847 0.3116927445 1.493955612
2.728580475 0.1482532769 -0.7206043005
3.072820187 0.1658798307 -0.7004941702
2.904923201 0.1563092172 -0.5572250485
2.989459991 0.1598101109 -0.4674777389
4.725631714 0.2501409352 -0.4103038311
4.850659847 0.2533658147 -0.08408389986
5.746714115 0.3112303615 0.09975615889
4.649000645 0.2501551807 0.24179326
5.427760124 0.2911064029 0.4718358219
5.432068825 0.2894386053 0.6627821326
5.632846832 0.2981623709 0.8867221475
5.622375965 0.2966268659 1.086147666
5.634104252 0.2952709198 1.292565346
5.628557205 0.293010205 1.498614311
2.731010675 0.1388251781 -0.7211219072
3.061702728 0.1545637995 -0.6977947354
2.911333561 0.1464633346 -0.5583699346
2.997890949 0.1497688293 -0.468729198
3.012272596 0.1494332999 -0.3651770949
4.778214931 0.2362025082 -0.4148359299
4.70569849 0.2367342412 0.2447240949
5.436702728 0.2725583911 0.4725330472
5.421150684 0.2698817253 0.6613196731
5.649637699 0.2792797089 0.8892251253
5.631220818 0.2773841619 1.087674141
5.619529247 0.2748420537 1.288966179
5.633404732 0.2735469937 1.499649644
2.741127253 0.1297486126 -0.7237101197
3.070010185 0.1442405581 -0.6995943785
2.919671297 0.1366678029 -0.5598964095
3.004315376 0.1395775676 -0.4696678221
3.01872468 0.1391925365 -0.3659083247
4.775030136 0.2193378806 -0.4144873321
5.711301804 0.2583496273 -0.09909296781
4.646643162 0.2175061554 0.2415839136
5.441601276 0.2537658513 0.4728816748
5.426024914 0.2511388361 0.6618071198
5.658471107 0.2599181831 0.8904765844
5.63411665 0.2578141093 1.088055849
5.618507862 0.2551346719 1.288516283
5.630465031 0.253711015 1.498614311
2.729983568 0.1196711585 -0.7206043005
3.086070061 0.1342027634 -0.7031936049
2.929937601 0.1268993765 -0.5618044734
3.018599033 0.1296852827 -0.4718579054
3.031092167 0.1291606426 -0.3673707843
4.759840965 0.2019960135 -0.4130928218
5.704176426 0.2380794883 -0.09895334393
4.61491251 0.2014916837 0.07993023098
4.70723629 0.2038764954 0.2447240949
5.434492111 0.2344246507 0.4721844196
5.442735195 0.2328769714 0.6637570262
5.65737009 0.2400849462 0.8901637793
5.629097462 0.2378982753 1.086910963
5.619364262 0.2355193496 1.288516283
5.623595715 0.2337330878 1.496543884
2.716872692 0.1095952168 -0.7169808149
3.067047834 0.1226500571 -0.6986945868
2.949979782 0.1174514815 -0.5656206608
3.005216599 0.1186015308 -0.4696678221
3.033507824 0.118657589 -0.3676145077
4.784408092 0.1863089055 -0.4151845574
5.726953506 0.2190058082 -0.09933730215
4.601601124 0.1848206222 0.07968589664
4.707919121 0.1874426752 0.2447240949
5.429305077 0.2152177244 0.4716615081
5.439547539 0.2137195468 0.6632695198
5.652252197 0.2201034725 0.8892251253
5.625969887 0.2180940062 1.086147666
5.620151997 0.2159065306 1.288516283
5.6205163 0.2139558643 1.495508552
2.728821754 0.1005395427 -0.7200866342
3.063562155 0.1118003502 -0.6977947354
2.968029499 0.1077967659 -0.5690552592
3.011534452 0.1083228663 -0.4706064463
3.037871122 0.1082084626 -0.3681019545
4.761135578 0.1687588692 -0.4130928218
5.721687317 0.1988092959 -0.09923259169
4.604216576 0.1688289493 0.07972079515
4.708545208 0.1710110754 0.2447240949
5.428031921 0.1961911768 0.4714871645
5.428357124 0.1943083405 0.6618071198
5.662856579 0.2007204592 0.8907894492
5.634544849 0.1987350583 1.087674141
5.648137093 0.197237879 1.294814944
5.625090122 0.1944672912 1.496543884
2.725294828 0.09088405967 -0.7190513611
3.052248001 0.1007208601 -0.6950953603
2.970350027 0.09749937057 -0.5694368482
3.01386857 0.09787473828 -0.4709192812
3.030294657 0.09734790027 -0.3671270311
4.809488773 0.1536664069 -0.4172763228
5.730341911 0.179084003 -0.09937220812
5.704005718 0.1892198324 0.09891844541
4.709113121 0.1545728892 0.2447240949
5.438640118 0.1775662601 0.4723587334
5.425035 0.1752290577 0.6613196731
5.66352272 0.1809533685 0.8907894492
5.639129162 0.1791888177 1.088437438
5.627366066 0.1768488735 1.28986609
5.633458614 0.1750694066 1.498614311
2.744904995 0.08194750547 -0.7242277861
3.07205987 0.09063982219 -0.6995943785
2.960859776 0.08684314042 -0.5675287247
3.028013945 0.08775353432 -0.4731093943
3.062364101 0.08768070489 -0.3710268438
4.770188332 0.1349099874 -0.4137901068
5.726934433 0.158967793 -0.09930240363
5.708629131 0.1694305688 0.09898825735
5.437235355 0.1585264355 0.4721844196
5.429581642 0.1564039439 0.6618071198
5.662145615 0.161125198 0.8904765844
5.637757778 0.1594465077 1.088055849
5.624053001 0.1570942998 1.288966179
5.641759872 0.1556181461 1.500684857
2.725875378 0.07137998194 -0.7190513611
3.064564943 0.079713732 -0.6977947354
2.959195614 0.07593934238 -0.5671471357
3.040163517 0.07695530355 -0.474986583
3.042806864 0.07649084926 -0.3685894608
4.830383301 0.1197403222 -0.4190194309
5.727454185 0.1389773041 -0.09930240363
5.713183403 0.1496058553 0.09905806184
5.435788155 0.1385447532 0.4720101058
5.445970535 0.1378532201 0.6637570262
5.654774666 0.1411636323 0.8892251253
5.646155357 0.1389764994 1.089582324
5.632383347 0.1366703957 1.290765762
5.630680561 0.1356458068 1.497579098
2.726107836 0.06186503544 -0.7190513611
3.072629929 0.06865435094 -0.6995943785
2.971219778 0.0658710748 -0.5694368482
3.038438559 0.06629878283 -0.4746737182
3.062913179 0.06576322764 -0.3710268438
4.858676434 0.10262537 -0.421459794
5.723926544 0.1179030836 -0.09923259169
5.725688934 0.1289363801 0.09926749021
5.432255268 0.1194829941 0.4716615081
5.440485001 0.1177641451 0.6630257964
5.667103291 0.1206878051 0.8911023736
5.644643307 0.1192266196 1.089200735
5.636723042 0.117088303 1.291665673
5.623414516 0.114848204 1.495508552
2.726316214 0.05187223852 -0.7190513611
3.065057039 0.05778217316 -0.6977947354
2.977329731 0.05508876219 -0.5705816746
3.036685944 0.05512671918 -0.4743608534
3.102819681 0.05578559265 -0.3759016097
5.736299515 0.09812581539 -0.09944202006
5.432656765 0.09957059473 0.4716615081
5.434908867 0.09866304696 0.6622946262
5.667490005 0.1009063795 0.8911023736
5.639153481 0.09843292832 1.088055849
5.641010761 0.09649579972 1.292565346
5.633439064 0.09538283199 1.498096824
2.738062859 0.04301246628 -0.7221571803
3.061342955 0.04702210054 -0.6968949437
2.989274502 0.04539331049 -0.572871387
3.040802717 0.04511417076 -0.474986583
3.079176903 0.04460996762 -0.3729767501
5.740605831 0.07815472037 -0.09951182455
5.706454754 0.08864976466 0.09891844541
5.438932896 0.08164550364 0.4721844196
5.423310757 0.07951501012 0.6608321667
5.683609009 0.08134718239 0.8936052918
5.64337492 0.07978622615 1.088819027
5.647145271 0.07786804438 1.293915033
5.65112257 0.07595272362 1.502755404
2.740133762 0.03300054744 -0.7226748466
3.06538558 0.03638409451 -0.6977947354
2.981568098 0.03434697166 -0.5713449717
3.046873093 0.03403563797 -0.4759251773
3.091223478 0.03399150446 -0.3744391799
5.73684454 0.05807651207 -0.09944202006
5.724725246 0.06894519925 0.09923259169
5.439195633 0.06170887873 0.4721844196
5.437449932 0.0607400015 0.6625383496
5.670032024 0.06135876477 0.8914152384
5.653445244 0.05920573696 1.090727091
5.629855633 0.05699341744 1.28986609
5.647490025 0.05618622154 1.50172019
2.726709843 0.02332041785 -0.7190513611
3.081088066 0.02527428232 -0.7013939619
2.977743149 0.02390824631 -0.5705816746
3.056850195 0.0234748926 -0.477489531
3.09132719 0.02266206034 -0.3744391799
5.756188393 0.04119037464 -0.4998999536
5.762073994 0.03922392428 -0.2997815013
5.733019829 0.03702224046 -0.09937220812
5.73293829 0.0480308421 0.09937220812
5.433401585 0.04267637432 0.4716615081
5.439620972 0.04082643986 0.6627821326
5.660342216 0.04050451517 0.8898509145
5.665396214 0.03955189884 1.093016863
5.649507046 0.03746894747 1.294365048
5.647657871 0.03548800945 1.50172019
2.726774693 0.01380155608 -0.7190513611
3.081157446 0.01452124305 -0.7013939619
2.991551399 0.01357540768 -0.5732530355
3.056913614 0.01280645281 -0.477489531
3.119178534 0.01197706535 -0.3778515458
5.758289337 0.02110853978 -0.5000742674
5.768167973 0.01912862808 -0.3000955284
5.737113476 0.01702311449 -0.09944202006
5.725072384 0.02797824517 0.09923259169
4.779506683 0.02168899775 0.2482829243
5.429532051 0.02369116619 0.4713128805
5.439730644 0.02183692157 0.6627821326
5.66835022 0.02077884413 0.8911023736
5.655683994 0.01974265836 1.09110868
5.657398224 0.01777663454 1.296164632
5.634224415 0.01573451608 1.498096824
2.730669975 0.004288593773 -0.7200866342
3.073394299 0.003755562939 -0.6995943785
2.99747014 0.003138231114 -0.574397862
3.056939602 0.002134941285 -0.477489531
3.119201422 0.001089683035 -0.3778515458
5.760320187 0.001007044455 -0.500248611
5.764204979 -0.001006043516 -0.299886167
5.745137215 -0.003008147003 -0.09958163649
5.723135948 0.007992256433 0.09919768572
4.789539814 0.005014455877 0.2488062829
5.429582119 0.004739559256 0.4713128805
5.437788963 0.002846097341 0.6625383496
5.6881423 0.0009944260819 0.894231081
5.643938541 -0 1.088819027
5.665220737 -0.001977535198 1.297964215
5.641972542 -0.003938840237 1.500167251
2.746123075 -0.005272184033 -0.7242277861
3.069491386 -0.006964466535 -0.6986945868
3.009242296 -0.007352981251 -0.5766875744
3.066805124 -0.008564157411 -0.4790538847
4.929581165 -0.01548678614 -0.6001412272
5.764273643 -0.01911512576 -0.5005972385
5.75018549 -0.02107562497 -0.299153477
5.75508976 -0.02310253307 -0.09975615889
5.725128174 -0.01199069619 0.09923259169
4.775547028 -0.01166888699 0.248073563
5.449489117 -0.01426676009 0.4730559886
5.429825306 -0.01611066423 0.6615633965
5.692061901 -0.01887566037 0.894856751
5.653720856 -0.01973528787 1.090727091
5.655435085 -0.0217154175 1.295714617
5.651583195 -0.02367343381 1.502755404
2.753820181 -0.01393845584 -0.7262982726
3.065556526 -0.01658641919 -0.6977947354
3.001348734 -0.01728671789 -0.575161159
3.068738699 -0.0182104744 -0.4793667495
4.933478832 -0.03099836595 -0.6006287336
5.784101963 -0.03836218268 -0.5023403168
5.754077911 -0.04017169029 -0.2993628085
5.748990059 -0.04113961384 -0.09965144843
5.735060215 -0.03002897836 0.09940710664
4.773489952 -0.02666047402 0.247968927
5.451409817 -0.03139821067 0.4732302725
5.431732178 -0.03318097815 0.6618071198
5.691974163 -0.03675767779 0.894856751
5.661476612 -0.03853704035 1.092253566
5.653390884 -0.03946875036 1.29526484
5.657276154 -0.04147074372 1.504308343
2.736364603 -0.02387989126 -0.7216395736
3.073270082 -0.02789287828 -0.6995943785
2.993412256 -0.02821308002 -0.5736346245
3.082478046 -0.02959057689 -0.4815568328
4.945241928 -0.04919875041 -0.6020911336
5.773961067 -0.05945913121 -0.5014687777
5.751894951 -0.06123991683 -0.2992581427
5.732803822 -0.06203733012 -0.09937220812
5.736911297 -0.05106662586 0.09944202006
4.77735424 -0.0441929549 0.2481782585
5.439303875 -0.05126575008 0.4721844196
5.437530041 -0.0531472601 0.6625383496
5.674023628 -0.05743958801 0.8920409679
5.669149876 -0.05936935917 1.093780041
5.662951469 -0.06029294059 1.297514319
5.655154705 -0.06218418106 1.503790736
2.722736835 -0.0337414369 -0.7180161476
3.073147297 -0.0391567871 -0.6995943785
3.016852856 -0.03896613419 -0.5782140493
3.066547155 -0.04067860916 -0.4790538847
4.960907459 -0.06753981858 -0.6040410399
5.771725655 -0.07958617806 -0.5012944341
5.775610924 -0.08165621758 -0.3005142212
5.744534969 -0.08322249353 -0.09958163649
5.73268652 -0.07204286009 0.09937220812
4.775163174 -0.06167674065 0.248073563
5.433103561 -0.07112322748 0.4716615081
5.44325304 -0.07315647602 0.6632695198
5.67179966 -0.07820829749 0.8917280436
5.661056042 -0.07904838026 1.092253566
5.658795357 -0.08099250495 1.296614528
5.649094105 -0.08282597363 1.502237797
2.734191895 -0.04342944548 -0.7211219072
3.0768888 -0.0499470979 -0.7004941702
3.01669836 -0.0494966805 -0.5782140493
3.072311878 -0.05148189515 -0.4799924791
4.960641384 -0.08485619724 -0.6040410399
5.651887894 -0.09766732156 -0.4908357561
5.701403618 -0.1005137637 -0.29664132
5.730213642 -0.1030225232 -0.09933730215
5.728401661 -0.09198901802 0.09930240363
4.782907009 -0.07847587019 0.2484922856
5.432822227 -0.09008786082 0.4716615081
5.437010288 -0.09205571562 0.6625383496
5.679393291 -0.09814263135 0.8929796219
5.64896822 -0.09860309958 1.089963913
5.670168877 -0.1009530351 1.299313903
5.652633667 -0.1026146114 1.503273129
2.737886906 -0.05304813758 -0.7221571803
3.061108589 -0.0603796877 -0.6968949437
3.047913074 -0.06065157801 -0.5843199492
3.238011122 -0.06556513906 -0.5062735081
4.936516762 -0.1008194238 -0.6011161804
5.661472321 -0.1176023856 -0.491707325
5.641113281 -0.1191494688 -0.2935011685
5.653869629 -0.1204061359 -0.09801091999
5.674063683 -0.1109289601 0.09835996479
4.778626442 -0.09425733984 0.2482829243
5.448410034 -0.1093712896 0.4730559886
5.428717136 -0.1108717248 0.6615633965
5.69286108 -0.1172603816 0.8951696754
5.676068306 -0.1188966781 1.095306516
5.673699379 -0.1198377386 1.300213814
5.667713165 -0.121690616 1.507414222
2.749284029 -0.062389981 -0.7252629995
3.064788103 -0.07062014192 -0.6977947354
3.024142504 -0.07021166384 -0.5797405243
3.273322821 -0.0771401301 -0.5119051337
4.920279026 -0.116812028 -0.5991662741
5.770600319 -0.1390149295 -0.5012944341
5.752500534 -0.1405880898 -0.2993628085
5.74339819 -0.1413686275 -0.09958163649
5.629683018 -0.1287384629 0.09759206325
4.786274433 -0.1102873459 0.2487016171
5.453992844 -0.1275780201 0.4735789299
5.440226555 -0.1291560829 0.6630257964
5.700340271 -0.1363268793 0.8964211345
5.679568768 -0.1378138065 1.096069813
5.669374466 -0.1385565251 1.299313903
5.671141624 -0.1405805051 1.508449554
2.73747468 -0.07120519131 -0.7221571803
3.080121517 -0.08119377494 -0.7013939619
3.014080286 -0.0799793154 -0.5778324604
3.259226322 -0.08762282133 -0.5097150803
4.91984129 -0.1339862943 -0.5991662741
5.775960445 -0.1603283137 -0.3006188869
5.746867657 -0.1615283638 -0.09965144843
5.743168831 -0.150390178 0.09958163649
4.785860062 -0.1269938946 0.2487016171
5.716441631 -0.1526854932 0.4965880215
5.695751667 -0.1541225016 0.694468081
5.691930771 -0.1560074538 0.8951696754
5.692817688 -0.1570260972 1.098741055
5.680544376 -0.1586719602 1.302013397
5.676409245 -0.1605394781 1.510002494
2.733347416 -0.08064637333 -0.7211219072
3.095402479 -0.09241012484 -0.7049931884
3.025557041 -0.09085348994 -0.5801221728
3.245079517 -0.09857925028 -0.5075250268
4.871723652 -0.1496956944 -0.593316555
4.853458405 -0.1499823481 -0.4211111367
4.847093582 -0.1514792442 -0.2519464493
4.834862232 -0.1527863592 -0.08373485506
5.718623161 -0.1697247624 0.0991627723
4.781395435 -0.1435790062 0.2484922856
5.711890697 -0.1725183725 0.4962393939
5.71502018 -0.174609676 0.6969054937
5.695300102 -0.1759970784 0.8957953453
5.688310623 -0.1767748296 1.097977877
5.679955482 -0.178499788 1.302013397
5.662298203 -0.1799233854 1.506379008
2.740772724 -0.09044191241 -0.723192513
3.071689129 -0.1024351269 -0.6995943785
3.02716589 -0.1020082161 -0.5805037618
3.236818552 -0.1096385866 -0.5062735081
4.848894119 -0.1676324904 -0.4207625389
4.846506119 -0.1692437083 -0.2519464493
4.842293262 -0.1699427962 -0.08387447149
4.824623108 -0.1600492448 0.08356032521
4.792841434 -0.1606698036 0.2491202801
5.719218731 -0.1927239448 0.4969366491
5.700488567 -0.1940849125 0.6951993108
5.698599815 -0.1960121244 0.8964211345
5.681738853 -0.1974178255 1.096832991
5.68319273 -0.1984614581 1.30291307
5.66742754 -0.1998917013 1.507931948
2.752005816 -0.1009114683 -0.7262982726
3.071293116 -0.1136927307 -0.6995943785
3.04246664 -0.113689132 -0.5835567117
3.236394882 -0.1215013862 -0.5062735081
4.934005737 -0.1869581491 -0.6011161804
4.893751621 -0.1888543665 -0.2544585466
4.857623577 -0.1883092374 -0.0841537118
4.828001499 -0.1778785586 0.08363013715
4.784236908 -0.1779384315 0.2487016171
5.710509777 -0.2133870274 0.4962393939
5.705689907 -0.2152013928 0.6959305406
5.705739021 -0.2171977907 0.8976725936
5.686861992 -0.2184672058 1.097977877
5.678533077 -0.2191398144 1.302013397
5.678239346 -0.221113503 1.511037588
2.743896484 -0.1106859371 -0.7242277861
3.078644037 -0.1252657175 -0.7013939619
3.036166191 -0.1240681559 -0.5824118257
3.231980562 -0.1331998706 -0.5056477785
4.9491539 -0.2057004124 -0.6030660868
5.807066441 -0.2423729002 -0.5047807097
5.312116146 -0.2235723883 -0.2764396667
5.769939899 -0.2448586226 -0.1001052111
4.905241013 -0.1987298578 0.08499142528
4.781557083 -0.1953908205 0.2485969514
5.703717709 -0.2340705991 0.4957164824
5.708829403 -0.2362765223 0.6964179873
5.706877708 -0.2381912619 0.8979854584
5.689987659 -0.2384811044 1.098741055
5.673797131 -0.2397865802 1.301113486
5.687041283 -0.2423350662 1.51362586
2.735773563 -0.1199248433 -0.7221571803
3.070400715 -0.1356673539 -0.6995943785
3.033753633 -0.1345786005 -0.5820302367
3.231495857 -0.1444807798 -0.5056477785
4.964270115 -0.2236897945 -0.6050159931
5.778320789 -0.2613814175 -0.5023403168
5.748249054 -0.2620317638 -0.2993628085
5.761059284 -0.2646309137 -0.09996558726
5.759559155 -0.2534821033 0.09993068129
4.786832333 -0.2123459131 0.2489109784
5.724760532 -0.2549539208 0.4976339042
5.715902805 -0.2565586865 0.6973930001
5.696145535 -0.2576642334 0.8964211345
5.696965218 -0.2586976886 1.100267529
5.682659626 -0.2600358129 1.303363085
5.674581528 -0.2616511285 1.510520101
2.731478691 -0.1292910725 -0.7211219072
3.089373827 -0.1473124027 -0.7040933967
3.025421143 -0.1447921544 -0.5805037618
3.223079681 -0.1553794593 -0.5043963194
4.951562881 -0.2404392809 -0.6035535932
5.771402836 -0.2812590003 -0.5018174052
5.78520155 -0.2839556932 -0.301351577
5.74665451 -0.2730158269 0.09972125292
4.792046547 -0.2293402255 0.2492249757
5.715875149 -0.2745531797 0.4969366491
5.722903252 -0.2768930793 0.6983679533
5.699157238 -0.2777382135 0.897046864
5.696027756 -0.2785822153 1.100267529
5.683663368 -0.2799662352 1.303812981
5.667845249 -0.2811703682 1.508967161
2.74258709 -0.1394133568 -0.7242277861
3.092733145 -0.1582946479 -0.7049931884
3.044504166 -0.1563589126 -0.5843199492
3.214626551 -0.1662211269 -0.5031448007
3.505518198 -0.1824894249 -0.4258680642
5.788292885 -0.3023385704 -0.5033861995
5.772208214 -0.3035188317 -0.3007235527
5.739102364 -0.3037869334 -0.09961653501
5.733684063 -0.2924624979 0.09951182455
5.720851421 -0.2948112488 0.4974596202
5.721901894 -0.2968680561 0.6983679533
5.709988594 -0.2982485294 0.8989240527
5.685217857 -0.2979496419 1.098359466
5.692381859 -0.3003175855 1.30606246
5.680333138 -0.3016703129 1.512590528
2.738225698 -0.1487763077 -0.723192513
3.072703362 -0.168025285 -0.7004941702
3.067463398 -0.1682757288 -0.588899374
3.194303036 -0.176352337 -0.5000161529
3.487021208 -0.1937337667 -0.4236744046
5.779245377 -0.3220981359 -0.5026890039
5.775102139 -0.3238894343 -0.3009328842
5.789916992 -0.3267477751 -0.1005240604
5.73462534 -0.3125838637 0.09954673052
5.74358511 -0.3150831461 0.2992581427
5.727744579 -0.3152168691 0.4981568158
5.708938122 -0.3161807358 0.6969054937
5.710886002 -0.3182882071 0.8992369771
5.693943977 -0.3183408678 1.100267529
5.691298485 -0.3201858997 1.30606246
5.677317142 -0.3213873506 1.512072921
2.737689734 -0.1583336145 -0.723192513
3.068207264 -0.178523615 -0.6995943785
3.078616858 -0.1796684414 -0.5911890864
3.197612047 -0.1877330095 -0.5006418824
3.454617739 -0.2040319741 -0.4197745621
5.817863941 -0.3446258008 -0.50617522
5.77876091 -0.3463581502 -0.1003495455
5.368168831 -0.3114067614 0.09315914661
5.734475136 -0.334664613 0.2988394499
5.740532398 -0.3360234797 0.4993770421
5.715726376 -0.3365734816 0.6978804469
5.711711407 -0.338337779 0.8995497823
5.700637817 -0.3386802673 1.101794124
5.682365417 -0.3395852745 1.304262877
5.689658642 -0.3420143127 1.515696406
2.733263731 -0.1676524132 -0.7221571803
3.079235792 -0.1899524778 -0.7022937536
3.101484776 -0.1918683797 -0.5957684517
3.192994118 -0.1986483037 -0.5000161529
3.447940826 -0.2157177478 -0.4190433919
5.804694176 -0.3641832769 -0.5051293373
5.788646221 -0.3652050793 -0.3017702699
5.763546467 -0.3656414449 -0.1001052111
5.750266552 -0.3537161052 0.09986086935
5.729381561 -0.3554427624 0.4985054433
5.72244215 -0.3570175171 0.6988554597
5.708524704 -0.3581496477 0.8992369771
5.707258224 -0.3590702116 1.103320479
5.685035229 -0.3596644402 1.305162668
5.684574127 -0.3616275489 1.514661074
2.72495079 -0.1766922474 -0.7200866342
3.094110727 -0.2017140538 -0.7058929801
3.077287436 -0.2011566907 -0.5911890864
3.156800985 -0.2074609995 -0.4943844378
3.443205118 -0.2274902463 -0.4185558856
5.752987385 -0.3740456402 0.09993068129
5.726118088 -0.3753096163 0.4983311594
5.725122452 -0.3772514462 0.6993428469
5.705267906 -0.3779433072 0.8989240527
5.696175098 -0.3783395588 1.101412416
5.689578533 -0.3798961937 1.306512356
5.675567627 -0.3809507191 1.512590528
2.735881567 -0.1869934052 -0.723192513
3.077834606 -0.2114447951 -0.7022937536
3.060897589 -0.2108180076 -0.5881361365
3.152116299 -0.2182061672 -0.4937587082
3.448331118 -0.239921242 -0.4192870855
5.749651909 -0.3939883113 0.09989578277
5.708871365 -0.3941971958 0.4969366491
5.626734734 -0.3904991746 0.6873996854
5.709825993 -0.3982685208 0.8998626471
5.692861557 -0.3980836272 1.101030827
5.705713272 -0.4009838402 1.310561538
5.681910992 -0.4013042748 1.514661074
2.746773481 -0.1973730326 -0.7262982726
3.069303036 -0.22162579 -0.7004941702
3.044478178 -0.220367372 -0.5850831866
3.139514208 -0.2283479869 -0.4918815196
3.427674294 -0.2505097389 -0.4168497026
5.417058945 -0.3968534172 -0.4714871645
5.418000698 -0.3988238275 -0.2825106084
5.424367905 -0.401196301 -0.09424119443
5.459031105 -0.3980125189 0.6669256687
5.720221996 -0.4190630913 0.9017398953
5.693394661 -0.4180967808 1.101412416
5.690673828 -0.4198941886 1.307412148
5.695888996 -0.4222780168 1.518802285
2.753773451 -0.2075406164 -0.7283688784
3.080169678 -0.2332210988 -0.7031936049
3.063266516 -0.2324789166 -0.588899374
3.142637253 -0.2396059185 -0.4925072491
3.406986237 -0.2609570324 -0.4144123197
5.788957119 -0.4464523494 -0.3020842671
5.765854836 -0.446695298 -0.1002448276
5.409772396 -0.408661902 0.09399686009
5.380169868 -0.4092589319 0.468349576
5.394269943 -0.4122253954 0.6591259837
5.374047279 -0.4125669003 0.8469878435
5.702084064 -0.442756027 1.520872831
2.745328426 -0.2165441513 -0.7262982726
3.098763466 -0.2455105931 -0.7076926231
3.085921526 -0.2450351268 -0.5934787989
3.133905411 -0.2499461174 -0.49125579
3.273478031 -0.2622277737 -0.3980818391
5.79532671 -0.4672990143 -0.3025029898
5.792164803 -0.4690790176 -0.1007334962
5.728263855 -0.4558542967 0.4990283549
5.679721355 -0.4539864659 0.694468081
5.70731163 -0.4581968188 0.9001755714
5.723605156 -0.4605103731 1.107899904
5.135960102 -0.4150339663 1.179639935
5.696652889 -0.4623447955 1.519837618
2.733004093 -0.2251740694 -0.723192513
3.092061281 -0.2558437288 -0.7063429356
3.476355314 -0.2882519364 -0.6698024273
3.12120223 -0.2599004209 -0.4893785417
3.306172132 -0.2764648497 -0.402225405
5.809582233 -0.4888653755 -0.3033403456
5.782521248 -0.4886210859 -0.1005938798
3.262412548 -0.2693656385 0.05643928796
5.722667217 -0.4755169451 0.4986797869
5.743383408 -0.479257077 0.7025114894
5.709614277 -0.4784461856 0.900801301
5.727832317 -0.4809794426 1.10904479
5.144189835 -0.4337780476 1.181889534
5.69115448 -0.4819010198 1.518802285
2.751449108 -0.2363661379 -0.7283688784
3.085324764 -0.2661330402 -0.7049931884
3.512491226 -0.3035970926 -0.6770531535
3.112404108 -0.2701107264 -0.4881270826
3.277500391 -0.2855913639 -0.3988130391
3.201865196 -0.2795637846 -0.2774784863
5.78794384 -0.5073973536 -0.3022936285
5.78476429 -0.5091534853 -0.1006636843
3.189728498 -0.2745778263 0.05518271402
5.742806435 -0.4973809421 0.5005972385
5.745630741 -0.4996462762 0.7029989958
5.731523991 -0.5004353523 0.904555738
5.694826126 -0.4982326925 1.10293889
5.144585133 -0.4519024789 1.18233943
5.699059486 -0.5026124716 1.521390438
2.742910385 -0.2452807575 -0.7262982726
3.066908598 -0.2753330171 -0.7009441257
3.149668694 -0.2833169699 -0.606453836
3.091768742 -0.2791967988 -0.484998405
3.276483297 -0.2970301807 -0.3988130391
3.222696304 -0.2927212417 -0.2793959379
5.798071861 -0.5286862254 -0.3029216528
5.792908669 -0.5302544832 -0.1008382067
3.162858009 -0.2833904326 0.05472895131
5.750957012 -0.5183182955 0.5014687777
5.730012894 -0.5184471011 0.7012928128
5.727775574 -0.5202604532 0.9042428732
5.720424652 -0.5205993652 1.108281612
5.17596817 -0.4728717506 1.189987659
5.706889153 -0.5233850479 1.523978591
2.75165534 -0.2557477355 -0.7288864851
3.093093157 -0.2885711491 -0.7072427273
3.107610941 -0.2904726863 -0.5984398127
3.102575541 -0.2910944819 -0.4868755937
3.275426626 -0.308465451 -0.3988130391
3.157867432 -0.2940583527 0.05465914309
5.75704813 -0.5391328335 0.5021660328
5.732120514 -0.5388168693 0.7017802596
5.733790398 -0.5409930944 0.9054943323
5.718572617 -0.540564239 1.108281612
5.688393116 -0.5397148728 1.30921185
5.708874226 -0.5436689258 1.525013924
2.733439445 -0.2636817694 -0.7242277861
3.084308386 -0.2986151278 -0.7054431438
3.090945482 -0.2998022437 -0.5953868628
3.081879854 -0.3000088632 -0.4837469161
3.145910501 -0.3073505759 -0.3829700649
3.164783478 -0.3058490157 0.05479875952
5.753147602 -0.559032619 0.5019916892
5.736131668 -0.5594004989 0.7025114894
5.722037315 -0.5600423813 0.9039299488
5.726419926 -0.5614804029 1.110189557
5.698110104 -0.5607128143 1.311911106
5.706941605 -0.5635932684 1.525013924
2.74019146 -0.2739905119 -0.7262982726
3.098759174 -0.3109360933 -0.7090423703
3.087926626 -0.3103934228 -0.5950052738
3.102433205 -0.3129455745 -0.4871884882
3.186293125 -0.3225281835 -0.3880885541
3.155737877 -0.3160970509 0.05465914309
5.751161098 -0.5791114569 0.5019916892
5.757844925 -0.5818148255 0.7054363489
5.73183918 -0.5812082887 0.9058071971
5.724425316 -0.5814658999 1.110189557
5.707750797 -0.5817851424 1.3146106
5.701095581 -0.5831176043 1.523978591
2.744982958 -0.2841506302 -0.727851212
3.07439518 -0.3193348348 -0.7036435008
3.096587896 -0.322186321 -0.5969133377
3.12882781 -0.3266447484 -0.4915686548
3.228582859 -0.338198334 -0.3934507966
3.084379435 -0.3258142173 -0.05343747512
3.158592939 -0.3275232017 0.05472895131
5.749104977 -0.5991832614 0.5019916892
5.743933201 -0.6006711125 0.703973949
5.733704567 -0.6016249061 0.9064329267
5.708693027 -0.6000078321 1.107518315
5.725064754 -0.6037490964 1.319109559
5.706709862 -0.6038277149 1.526049137
2.745895624 -0.2939363122 -0.7283688784
3.069386721 -0.3296483755 -0.7027437091
3.107156515 -0.3342533708 -0.5992030501
3.072677374 -0.3316293061 -0.4828083217
3.251065016 -0.3520304859 -0.3963756561
3.077700377 -0.3348887563 -0.1600444913
3.142859459 -0.3430889249 -0.05448461697
5.774031639 -0.6191045642 0.1006636843
5.222773075 -0.5618414879 0.2730901539
5.733111382 -0.6177535653 0.5007715225
5.739827633 -0.6205042005 0.7037302256
5.73746109 -0.6222746372 0.9073715806
5.716322899 -0.6209913492 1.109426379
5.70936203 -0.6222516894 1.315960288
5.704566956 -0.6237441301 1.526049137
2.744852781 -0.3035194874 -0.7283688784
3.083712101 -0.342079401 -0.7063429356
3.111824512 -0.3457477093 -0.6003479362
3.114691973 -0.3471670151 -0.4896914363
4.950367928 -0.5535230041 -0.6064783931
3.101900816 -0.3495785892 -0.05378652364
5.710222244 -0.6324319839 0.09958163649
5.181079388 -0.5756579041 0.2709967196
5.754682541 -0.6404064894 0.5028632879
5.745518208 -0.6414170861 0.7047051191
5.737217426 -0.6425181031 0.9076843858
5.729728222 -0.6426919699 1.112479329
5.705218315 -0.6419594288 1.315510392
5.715792656 -0.6451697946 1.529672623
2.738018274 -0.3124418557 -0.7268159389
3.076690912 -0.3521766067 -0.7049931884
3.102796793 -0.3557134867 -0.5988214016
3.152709961 -0.3625506759 -0.4959488213
4.95235014 -0.5712546706 -0.6069658995
3.162583113 -0.3664826751 -0.1646500677
3.092716217 -0.3594805598 -0.05364689976
5.709966183 -0.6525875926 0.09961653501
5.754391193 -0.6607173681 0.5030375719
5.739299774 -0.6610144377 0.7042176127
5.727090359 -0.661634028 0.9064329267
5.73525095 -0.6635911465 1.114005804
5.712621212 -0.6629936695 1.317759871
5.711586952 -0.6648942828 1.529155016
2.731155157 -0.3213202655 -0.7252629995
3.087054729 -0.3642843962 -0.7076926231
3.082039118 -0.3642379344 -0.5950052738
3.123962402 -0.3702981472 -0.4915686548
4.958210468 -0.5894755125 -0.6079408526
3.113688231 -0.3718360066 -0.1621379405
3.091442347 -0.3702739775 -0.05364689976
5.783120155 -0.681407094 0.1009429246
5.19081831 -0.6134551764 0.2717294097
5.752049923 -0.6807999611 0.5030375719
5.748785019 -0.6824484468 0.7056800723
5.732592106 -0.6825554967 0.9076843858
5.729001045 -0.6831419468 1.113242626
5.721881866 -0.6843189001 1.320459366
5.709231377 -0.6848273873 1.529155016
2.72618103 -0.3303869665 -0.7242277861
3.074157476 -0.373647213 -0.7049931884
3.122650623 -0.3812005818 -0.4915686548
5.00341177 -0.6125689149 -0.6137905717
3.199594021 -0.3934276104 -0.166743502
3.038529634 -0.3746995628 -0.05273937434
5.784676552 -0.7020717263 0.1010127291
5.738017082 -0.7035233378 0.9089358449
5.714889526 -0.7017002106 1.110952854
5.725260735 -0.7050023675 1.321809053
5.714475632 -0.705699265 1.531225562
2.736513376 -0.3413358033 -0.7273336053
3.076701641 -0.3848594725 -0.7058929801
3.098901749 -0.3881857693 -0.5988214016
5.18046999 -0.6526083946 -0.6359708309
3.051572323 -0.3860443532 -0.1589977741
3.08481431 -0.3913438022 -0.05357709154
5.780206203 -0.7220118046 0.1009778306
5.199556351 -0.6522473693 0.4547532797
5.214066505 -0.6559163928 0.640114367
5.739446163 -0.7240430713 0.9095616341
5.724092484 -0.7231209278 1.113242626
5.716965675 -0.7242482305 1.320459366
5.715810299 -0.7261291742 1.532260895
2.73913765 -0.3513775468 -0.7283688784
3.083070993 -0.3965913951 -0.7076926231
3.08779192 -0.3977465034 -0.5969133377
3.147340536 -0.4065340161 -0.4959488213
5.020668507 -0.6502889395 -0.6164717078
3.116219521 -0.4041732252 -0.2712032795
3.141313076 -0.4085428715 -0.163812682
3.305515051 -0.4310715497 -0.05748642981
5.789550781 -0.7437128425 0.101187259
5.124682903 -0.6601237059 0.2685892582
5.203176498 -0.6711578965 0.455276221
5.211744785 -0.6741127372 0.640114367
5.742761135 -0.7448352575 0.9105002284
5.733214855 -0.7446146011 1.115532279
5.718267441 -0.744703114 1.321359158
5.717071533 -0.7465769053 1.533296108
2.730232954 -0.3599267602 -0.7262982726
3.093259335 -0.4088831246 -0.7103919983
3.506781101 -0.4641673565 -0.6793428659
4.093674183 -0.5433042645 -0.6473774314
4.969174385 -0.6612640619 -0.6103782654
3.112152576 -0.4158026278 -0.162347272
5.74976635 -0.7702469826 -0.1005589664
5.794849873 -0.7649644017 0.1013268754
5.120368004 -0.6777462363 0.2684845924
5.212652206 -0.6908869147 0.4563221037
5.232974052 -0.6954392195 0.6430392265
5.742083549 -0.7651375532 0.9108130932
5.734472275 -0.765141964 1.116295457
5.723359108 -0.7656926513 1.323158741
5.718260288 -0.7670423388 1.534331441
2.721302509 -0.3684182167 -0.7242277861
3.080227137 -0.4181054533 -0.7076926231
3.507084608 -0.4766697884 -0.6797244549
