# .PCD v0.7 - Point Cloud Data file format
VERSION 0.7
FIELDS x y z
SIZE 4 4 4
TYPE F F F
COUNT 1 1 1
WIDTH 1307
HEIGHT 1
VIEWPOINT 0 0 0 1 0 0 0
POINTS 1307
DATA ascii
5.652601242 4.454557419 -1.390678883
5.645205021 4.445531368 -1.131385684
2.581929922 2.032510996 -0.3983255923
5.692474365 4.477928162 -0.6299363375
5.677955627 4.463300228 -0.3762966692
5.702876568 4.48127985 -0.1258998662
5.672281742 4.47488308 0.1254111975
5.667013168 4.467514038 0.375982672
5.678390503 4.473270416 0.6287161708
5.658607483 4.456085682 0.879222095
5.651413441 4.447225094 1.132324338
5.655724049 4.447416782 1.390297294
5.623620033 4.419001102 1.641239524
5.609651566 4.406436443 1.899783969
5.599066257 4.385499477 -1.894089818
5.616747379 4.396185875 -1.636740565
5.665024757 4.432377815 -1.389915586
5.711209297 4.460484505 -0.630284965
5.712396145 4.458197594 -0.3775527477
5.731096745 4.471187592 -0.1261790991
5.710690975 4.471317291 0.1258998662
5.707736969 4.467402458 0.3776574135
5.706527233 4.463240147 0.6301106811
5.6999259 4.454875469 0.8831219077
5.66379118 4.425037384 1.131698608
5.688232422 4.440941334 1.39449501
5.666666508 4.420921803 1.649337888
5.609762192 4.374952316 1.894607544
5.615867138 4.367113113 -1.894607544
5.66975832 4.407437325 -1.647988081
5.697518349 4.425822735 -1.394113421
5.73619318 4.447845459 -0.6313308477
5.753983974 4.460032463 -0.379332155
5.764060497 4.464622974 -0.1265630573
5.739693165 4.463405132 0.1262140125
5.742222309 4.462156296 0.378913492
5.729939461 4.449404716 0.6309822202
5.736621857 4.452989101 0.886534214
5.704175472 4.424612999 1.136704564
5.718444347 4.434082508 1.398311257
5.688999176 4.408071995 1.651587248
5.612780094 4.345880032 1.890466332
5.660897732 4.37208128 -1.904960275
5.695908546 4.395952225 -1.651137471
5.732372284 4.422492981 -1.399074554
2.564933062 1.977405667 -0.5062735081
5.77491951 4.448894978 -0.8899465203
5.769852638 4.443387508 -0.6334225535
5.785344601 4.452101707 -0.3803788722
5.795463085 4.456664085 -0.1269121021
5.767900467 4.453119755 0.1264932454
5.779903412 4.459163189 0.3803788722
5.769904613 4.449847698 0.6337711811
5.770999908 4.447476387 0.8894590735
5.744625568 4.423959732 1.141710401
5.744778156 4.422476292 1.400982499
5.736786842 4.413140297 1.66103518
5.626383781 4.325085163 1.889948726
5.689921379 4.362875462 -1.909619093
5.714311123 4.378414154 -1.652037144
5.766476154 4.416783333 -1.40365386
5.79041481 4.428708076 -0.8899465203
5.80273962 4.436529636 -0.6353399754
5.807199001 4.436728001 -0.380797565
5.831645966 4.452183247 -0.1273658723
5.799282074 4.445122719 0.1268423051
5.808116913 4.44867754 0.3812162578
5.810714245 4.449058056 0.636560142
5.789641857 4.429718971 0.8899465203
5.778865337 4.418276787 1.145464778
5.774218082 4.413126945 1.404417157
5.766096592 4.4037323 1.665084362
5.639912128 4.304245949 1.889431238
5.72356081 4.357029438 -1.915830612
5.755928516 4.378497124 -1.659685612
5.794360638 4.406136036 -1.40670681
5.82183218 4.423820019 -1.151409388
5.834294796 4.43007803 -0.8943338394
5.838820457 4.431908131 -0.6376060247
5.841747761 4.430912971 -0.3820536435
5.863087177 4.443880081 -0.1277149171
5.83863163 4.443017483 0.1273658723
5.836328506 4.43804884 0.3820536435
5.845242977 4.443217754 0.6386519074
5.827198982 4.426293373 0.8933588862
5.802119732 4.40405035 1.147029161
5.816174507 4.413119316 1.410904646
5.79385519 4.392998695 1.668683648
5.673381329 4.298531055 1.895642757
5.758769512 4.352167606 -1.922559977
5.791394711 4.373643875 -1.665534377
5.822238922 4.395346642 -1.40975976
5.8514328 4.414175987 -1.15422523
5.86082077 4.418049335 -0.8960400224
5.870168686 4.423489094 -0.6393491626
5.889087677 4.434524059 -0.3841470778
5.886552334 4.429399967 -0.1278894395
5.87644434 4.439484119 0.127854526
5.867723942 4.429684162 0.3831003606
5.870260239 4.429986477 0.6396977901
5.863217354 4.42146492 0.8965274692
5.828501701 4.392090321 1.149219275
5.853496552 4.409328461 1.416247249
5.824725151 4.384465694 1.673182607
5.679087162 4.271734715 1.892536998
5.781654358 4.337834835 -1.925148249
5.828453541 4.36976862 -1.671832919
5.861113071 4.392656803 -1.415484071
5.871547699 4.397276878 -1.155163765
5.906403065 4.420163631 -0.9006710052
5.901526451 4.414907455 -0.6410923004
5.930125237 4.433074951 -0.3858218193
5.927612305 4.427971363 -0.1284479201
5.901503086 4.4261446 0.1280639619
5.902329922 4.423547268 0.3843564093
5.898442745 4.419026375 0.6410923004
5.904042244 4.420004368 0.9004272819
5.862777233 4.385919571 1.152973652
5.890865326 4.405328751 1.421589971
5.86496973 4.382772446 1.68038106
5.67384243 4.236856937 1.885807753
5.81380415 4.330318451 -1.930842161
5.854615688 4.357540131 -1.67498219
5.900038242 4.38974762 -1.421208262
5.897959709 4.385003567 -1.157353878
5.945697308 4.41727829 -0.9043271542
5.936097145 4.408534527 -0.6431840062
5.95518589 4.419490814 -0.3864498436
5.968732834 4.426309586 -0.1290063858
5.934559822 4.418655872 0.1284479201
5.943374634 4.421990871 0.3860311508
5.933015823 4.412679672 0.6431840062
5.933775902 4.410024166 0.9026209712
5.906598091 4.386626244 1.158605337
5.921971321 4.396440029 1.425406098
5.908405304 4.383170605 1.688479304
5.690145969 4.21818018 1.886325359
5.849077225 4.324931145 -1.937571526
5.877623558 4.342871189 -1.677231669
5.937433243 4.385457039 -1.426550865
5.930711746 4.37729454 -1.16079545
5.97705698 4.408277988 -0.9067645073
5.973901272 4.404336929 -0.6456243992
5.981833935 4.40696764 -0.3871825635
6.014743328 4.427974224 -0.1296695769
5.966029167 4.409797668 0.1287969649
5.971625805 4.410712242 0.3868685365
5.972425938 4.409692287 0.6457986832
5.958716869 4.396357536 0.9040834308
5.948904514 4.38590765 1.163924098
5.956245422 4.389719963 1.429985523
5.942500591 4.376385689 1.693878174
5.704836369 4.198290348 1.886325359
5.892170906 4.325062275 -1.946888924
5.906891346 4.332699776 -1.681280851
5.965372086 4.373990059 -1.429603934
5.960295677 4.36707449 -1.163611293
6.002017975 4.394424915 -0.9082269669
6.014960766 4.402289391 -0.6484133601
6.019751549 4.402565002 -0.3886479735
6.036622524 4.411670685 -0.1298092008
6.000731945 4.403142929 0.1292158216
6.003093243 4.401648521 0.3879152536
6.018314362 4.411198139 0.6491106153
5.996448517 4.391950607 0.9074957371
5.978521824 4.375619888 1.166739941
5.984209538 4.378174305 1.433038473
5.967176914 4.362520695 1.696577549
5.722577572 4.180628777 1.887360573
5.922842979 4.315849304 -1.952065468
5.951911926 4.333847523 -1.689828992
5.990124702 4.360076904 -1.431893587
5.996272087 4.361345768 -1.167678595
6.033379555 4.385116577 -0.91066432
6.043187141 4.390633106 -0.6498078108
6.056092262 4.396780491 -0.390008688
6.066549301 4.401144028 -0.130123347
6.04839325 4.405714989 0.1299139112
6.037795544 4.394775391 0.3891713023
6.051398277 4.403056622 0.6510280371
6.034217358 4.387339592 0.9109080434
6.006545067 4.364011288 1.169242859
6.024868965 4.375722408 1.439144373
6.007603645 4.359976292 1.703775883
5.735570908 4.159494877 1.886842966
5.948830128 4.303072929 -1.955688834
5.997010708 4.334736824 -1.698377132
6.024404526 4.352936745 -1.436473012
6.022669315 4.348484039 -1.169868588
6.072798252 4.381449699 -0.9143204093
6.074635029 4.381167412 -0.6515509486
6.09732914 4.394296646 -0.3916834593
6.093235493 4.388119698 -0.1303676814
6.079940319 4.396290779 0.1302629709
6.079002857 4.392386436 0.3908460736
6.06673193 4.381905079 0.6510280371
6.084908485 4.391806602 0.9162703156
6.044170856 4.359196186 1.173622966
6.049662113 4.361551762 1.441434026
6.035434723 4.34809351 1.707375169
5.740649223 4.132675171 1.883737087
5.98421526 4.296927929 -1.962418199
6.031106472 4.32740736 -1.703775883
6.068279743 4.35247612 -1.443342209
6.044235229 4.332036018 -1.171120048
6.107419014 4.374099255 -0.9172452688
6.101233006 4.368053913 -0.6527711749
6.130496025 4.385773182 -0.3928348422
6.132153034 4.385336399 -0.1308912486
6.106618404 4.383207798 0.1305072904
6.11625576 4.388503551 0.3923114836
6.101418018 4.37463665 0.6531197429
6.109884739 4.377474785 0.9177327752
6.081076622 4.355233192 1.178003192
6.084009647 4.354117393 1.446013451
6.075938702 4.345135689 1.714573622
5.754321575 4.113616943 1.883737087
6.022773743 4.292833328 -1.970182657
6.058119297 4.316431999 -1.707375169
6.113821983 4.352903366 -1.450592875
6.077879429 4.325715065 -1.174874544
6.138068676 4.365325451 -0.9196826816
6.144052505 4.366348743 -0.6557344794
6.156404972 4.373514652 -0.3935675323
6.180037022 4.38705349 -0.1315893531
6.143918991 4.379181385 0.1309959739
6.147803783 4.378715038 0.3933582008
6.147494316 4.375261307 0.656431675
6.140543938 4.368695736 0.920170188
6.115562439 4.347712994 1.181757569
6.124021053 4.352113247 1.45211935
6.104612827 4.335118771 1.718622684
5.77179575 4.095742702 1.88477242
6.065359116 4.292927742 -1.979500175
6.095422745 4.311013699 -1.71367383
6.147458553 4.346206665 -1.4551723
6.11068821 4.317011833 -1.178316116
6.174352169 4.358754635 -0.9228512645
6.186931133 4.364404202 -0.6586977243
6.194486141 4.36811018 -0.3950329423
6.21002388 4.375822067 -0.1319034994
6.185287952 4.376185894 0.1315544546
6.182620049 4.371065617 0.3946142495
6.181495667 4.368648052 0.6585234404
6.17034626 4.357544422 0.9223637581
6.151682377 4.341146946 1.185824871
6.171257496 4.353347778 1.459751725
6.135637283 4.325008869 1.723121643
5.793955803 4.081130981 1.887360573
6.093700886 4.279549122 -1.983641267
6.13435936 4.30650425 -1.720422387
6.168169975 4.327026844 -1.456317186
6.150733471 4.311592579 -1.183009148
6.215539932 4.3554039 -0.9267510772
6.218449593 4.354207039 -0.6604408622
6.236637115 4.363698483 -0.3967076838
6.240007401 4.364434719 -0.1322176307
6.223434925 4.370659828 0.1320431083
6.217459679 4.363223553 0.3958703279
6.226827621 4.366554737 0.6616610289
6.20990324 4.353069305 0.9260198474
6.178124905 4.327578545 1.188014984
6.212907314 4.348710537 1.465857625
6.175400734 4.319246769 1.729870319
5.800248623 4.055348396 1.88477242
6.122864723 4.268195629 -1.988300085
6.166091919 4.295131683 -1.724921346
6.205791473 4.321177006 -1.461659789
6.190067768 4.307021141 -1.18770206
6.260799885 4.352989197 -0.9311383963
6.255639076 4.346162796 -0.6627069116
6.27807951 4.36012888 -0.3983824551
6.28881979 4.36433506 -0.1329157352
6.250898361 4.355821609 0.1322874427
6.256355762 4.356385708 0.3973357379
6.255115032 4.353896618 0.6630555391
6.256781101 4.351814747 0.9306509495
6.22151947 4.324072361 1.193333745
6.237724781 4.333716393 1.468147397
6.220854282 4.318781376 1.73841846
5.815074444 4.034060478 1.88477242
6.159123421 4.260010242 -1.99502933
6.200283051 4.286879063 -1.730320096
6.247433186 4.316256046 -1.467765689
6.215567112 4.291036606 -1.189579368
6.29556179 4.344639778 -0.9340632558
6.285532951 4.334481239 -0.6642757058
6.307174206 4.346157074 -0.3992198408
6.325423717 4.357104778 -0.1333694905
6.282510281 4.345352173 0.1326364875
6.294527531 4.350416183 0.3988011181
6.293982029 4.346793652 0.6654958725
6.285001278 4.338971615 0.9326007962
6.265844345 4.322517872 1.19896543
6.268113613 4.320854664 1.471581817
6.263925552 4.314743042 1.746066809
5.837075233 4.019217014 1.887360573
6.197951794 4.258143902 -2.003311396
6.232138634 4.278425694 -1.735269189
6.290098667 4.316605091 -1.474634886
6.246938229 4.28377533 -1.193020821
6.326308727 4.334960938 -0.9365006089
6.32542038 4.332726002 -0.6670647264
6.335629463 4.336475372 -0.4001618624
6.35799551 4.348521233 -0.1337534487
6.329852581 4.347136974 0.133334592
6.328680038 4.343081474 0.4000571966
6.343751431 4.35179615 0.6693307757
6.310818195 4.325961113 0.9343069792
6.314368725 4.325156212 1.20553565
6.302716732 4.31555891 1.47654295
6.293533802 4.306045532 1.750565767
5.855154991 4.003110409 1.888913512
6.238316536 4.253895283 -2.01159358
6.26957798 4.272012234 -1.741567731
6.321355343 4.305672646 -1.478451014
6.284713268 4.277508259 -1.197401047
6.354534626 4.321781158 -0.9384505749
6.376751423 4.335268021 -0.6708995104
6.372206211 4.328921795 -0.4015226066
6.389679432 4.337533474 -0.1341024935
6.36646986 4.339655399 0.1337883472
6.357008457 4.329957008 0.4008945525
6.390194893 4.350928783 0.6726426482
6.35542202 4.324006557 0.9386942983
6.3392272 4.309756756 1.207412839
6.340474606 4.308982849 1.481885672
6.318198681 4.290620804 1.753265262
5.878685474 3.989154339 1.892019272
6.272326469 4.245085716 -2.017805338
6.313509464 4.269749641 -1.749665976
6.349359512 4.292375565 -1.481503963
6.332345009 4.277657986 -1.203658462
6.395905972 4.317344666 -0.942350328
6.405059338 4.321896553 -0.6722940207
6.422053337 4.33010149 -0.4037207365
6.421366692 4.326375008 -0.1344515383
6.414703369 4.339817524 0.1344864517
6.398560047 4.325636864 0.4025693238
6.433405876 4.34756279 0.6756059527
6.39454031 4.313169956 1.491044402
6.352528095 4.281611443 1.758664012
5.895778179 3.970769405 1.893054605
6.299933434 4.231787205 -2.02194643
6.355883598 4.266147137 -1.757314324
6.392015934 4.288785458 -1.487991452
6.363646984 4.266526699 -1.206787109
6.434027195 4.310459137 -0.9457627535
6.431695938 4.307271004 -0.6735142469
6.465348244 4.326539993 -0.4055001438
6.461360931 4.320611477 -0.1349751055
6.439775467 4.324086666 0.1346958727
6.440153599 4.321084499 0.4042440653
6.455162525 4.329516888 0.6763032079
6.425027847 4.306058884 0.9445440173
6.37572813 4.269789696 1.208664417
6.429131985 4.303933144 1.495623827
6.396591187 4.278912067 1.766762257
5.896755219 3.94157505 1.888913512
6.340385437 4.226913929 -2.030228615
6.386953831 4.254739761 -1.761813402
6.431459904 4.282767773 -1.493715763
6.39659071 4.256326199 -1.210228682
6.484647751 4.313287258 -0.9511249661
6.473240376 4.30244112 -0.6763032079
6.498713493 4.316097736 -0.4066515267
6.512305737 4.323491573 -0.135743022
6.468143463 4.310450554 0.1349751055
6.487692833 4.321848392 0.4063374996
6.490139484 4.320203781 0.6783949137
6.453243732 4.29239893 0.9464939833
6.401367664 4.256277561 1.210854411
6.460469723 4.292328358 1.499440074
6.446460247 4.281394005 1.776660085
5.911402702 3.923068523 1.889431238
6.384976864 4.226122856 -2.04006362
6.417281151 4.244287968 -1.766312361
6.471831322 4.278738976 -1.499821663
6.432095528 4.249247074 -1.214295983
6.515481472 4.302697182 -0.9535623193
6.512415409 4.297413349 -0.6789178848
6.52799654 4.304420471 -0.4075935781
6.556660175 4.321683407 -0.1363713145
6.510749817 4.307740688 0.1355684996
6.515315056 4.309126377 0.4071748853
6.534346581 4.318436146 0.6815325618
6.492290497 4.287382126 0.950150013
6.463253975 4.266587734 1.219927549
6.494334698 4.28385067 1.50401938
6.475262642 4.269649029 1.780709147
5.937285423 3.911945105 1.893572211
6.423172474 4.220840931 -2.047828197
6.449239731 4.234748363 -1.771261215
6.502396107 4.268028259 -1.503637791
6.477536201 4.248476505 -1.220240474
6.550384045 4.29298687 -0.9564872384
6.560713291 4.29648304 -0.6824041009
6.560615063 4.294783115 -0.408744961
6.591787815 4.311903954 -0.1367901713
6.555083275 4.305889606 0.1361967772
6.543675423 4.2951231 0.4080122709
6.578615189 4.316418648 0.6846701503
6.513111591 4.270184517 0.9511249661
6.483064175 4.247249603 1.220866203
6.529855728 4.276275158 1.508980393
6.511324883 4.260893345 1.786557913
5.952522278 3.892251968 1.894089818
6.458018303 4.209931374 -2.054039955
6.495004654 4.232423306 -1.779809475
6.541028023 4.259166718 -1.508980393
6.517899513 4.240867615 -1.224933505
6.578640938 4.278754711 -0.9584370852
6.592375755 4.284414768 -0.6841471791
6.611489296 4.293550491 -0.4109430909
6.613506794 4.293224335 -0.1369297802
6.595201969 4.299360752 0.1367203593
6.592097759 4.294059277 0.4101057053
6.614432335 4.305315495 0.6867619157
6.572902679 4.276655674 0.957705915
6.509444714 4.232129097 1.223056316
6.580057621 4.274775982 1.516994476
6.553050041 4.253978252 1.793756485
5.957967281 3.866196394 1.891501665
6.48727417 4.196805954 -2.058698654
6.546476841 4.231865406 -1.789707184
6.585537434 4.255486012 -1.51584959
6.550918579 4.229875565 -1.228375077
6.627641201 4.276136875 -0.9633119106
6.627384186 4.274333477 -0.6862389445
6.654975414 4.288839817 -0.4127224982
6.656099319 4.286276817 -0.1374882609
6.63778162 4.292534828 0.137278825
6.631278038 4.28504324 0.4115711153
6.642808437 4.290850639 0.6881563663
6.621891499 4.274064541 0.9625806808
6.554792404 4.227515221 1.228688002
6.611440659 4.26241684 1.520810604
6.590795517 4.245851517 1.800055027
5.970474243 3.843286037 1.890984058
6.532770634 4.193966389 -2.068533897
6.584173679 4.223717213 -1.796005845
6.626793385 4.24943018 -1.52195549
6.583940506 4.218703747 -1.231816649
6.672617912 4.272244453 -0.9676991701
6.662403107 4.26406002 -0.6883307099
6.690095901 4.278497696 -0.4139785469
6.696295738 4.279170036 -0.138011843
6.662823677 4.275816441 0.1374882609
6.676457882 4.281277657 0.4134552181
6.691292286 4.289142132 0.6916425824
6.638440609 4.251995564 0.9628244042
6.591139793 4.218450546 1.232755303
6.646122932 4.252010822 1.525390029
6.635131359 4.241710663 1.808153152
5.97896862 3.819303513 1.889431238
6.573440552 4.187743187 -2.076815844
6.610383511 4.208034992 -1.799155116
6.668088913 4.243134022 -1.528061271
6.62529707 4.212656021 -1.236822605
6.707598209 4.261699677 -0.9706240892
6.707519531 4.260006428 -0.6914682984
6.715108871 4.261538506 -0.414606601
6.747599125 4.28050518 -0.1387797445
6.708068848 4.271869659 0.1381165534
6.717576981 4.276272297 0.4151299596
6.729758263 4.280731201 0.6940829754
6.723607063 4.273518085 0.9730613828
6.706798077 4.261191368 1.251840353
6.694075108 4.249828815 1.533022404
6.672934532 4.233139992 1.814451933
5.989970207 3.798419237 1.888913512
6.615777493 4.182322502 -2.085615873
6.647364616 4.200667381 -1.805453897
6.702778816 4.232412338 -1.532640815
6.669297218 4.20964241 -1.242454171
6.745199203 4.254260063 -0.9740363955
6.752687931 4.255689144 -0.6946058869
6.768070221 4.263733864 -0.4170140326
6.787883282 4.272906303 -0.1393033117
6.756004333 4.270969868 0.138814643
6.752725124 4.265598774 0.4163860083
6.774988174 4.276354313 0.6972206235
6.740010738 4.249343872 1.255281806
6.734705925 4.244356632 1.539128304
6.698477745 4.218258858 1.817601323
6.00482893 3.778514624 1.889431238
6.655790329 4.176791668 -2.093898058
6.686753273 4.192965508 -1.812202454
6.733411312 4.220590115 -1.536457062
6.714086533 4.205209255 -1.248085856
6.786932945 4.247537136 -0.9779361486
6.789461136 4.245826244 -0.6968719363
6.808317184 4.255961418 -0.4185841084
6.816323757 4.257662296 -0.1395825446
6.79797554 4.264360905 0.1393731236
6.791265011 4.25685358 0.4178514183
6.81276989 4.268672943 0.6996609569
6.8080616 4.262418747 0.9811047912
6.76485157 4.232075214 1.257158995
6.779441357 4.239560127 1.545997381
6.747867584 4.216535568 1.827049136
6.013065338 3.754462481 1.887878299
6.684176445 4.160534859 -2.098039389
6.73443985 4.190190315 -1.82120049
6.775512695 4.21246624 -1.542562842
6.746232033 4.190997124 -1.251214504
6.832071781 4.242671967 -0.9823235273
6.824557781 4.234705925 -0.6989637017
6.849331856 4.246767521 -0.4201542139
6.863440037 4.253857136 -0.1402457356
6.836587429 4.255402088 0.1398617923
6.836611748 4.252106667 0.4197355211
6.841906548 4.252088547 0.7010554075
6.838077068 4.248054504 0.9832984805
6.794687748 4.217813492 1.259974957
6.809954166 4.223993301 1.549432039
6.79309082 4.2102561 1.8351475
6.014639854 3.726326466 1.884254813
6.724956036 4.153420448 -2.106321335
6.774628639 4.180828571 -1.827948928
6.826934814 4.211467266 -1.550958395
6.781000614 4.179860115 -1.254968882
6.871240139 4.23217535 -0.9857358336
6.866445065 4.227569103 -0.7017527223
6.894734859 4.241668701 -0.4220382869
6.904538155 4.244382381 -0.1407693028
6.87255764 4.242919922 0.1402806491
6.886146545 4.2479949 0.4218289554
6.883841991 4.244909763 0.7038443685
6.873880386 4.235460758 0.9862233996
6.847108841 4.215664387 1.266857982
6.839701653 4.209461689 1.552866459
6.834306717 4.202849388 1.842345834
6.031547546 3.70628047 1.885290027
6.775651932 4.152125359 -2.117709398
6.814109802 4.172420979 -1.834697366
6.868387222 4.204008579 -1.557064414
6.820827007 4.171626091 -1.259662032
6.909686565 4.222654819 -0.98914814
6.915163994 4.224349022 -0.7052389383
6.928253174 4.229020596 -0.4231896996
6.948335171 4.237955093 -0.1413626969
6.904375553 4.229354382 0.1406296939
6.91796875 4.23435688 0.4228757024
6.936005116 4.243737221 0.7076792717
6.91064167 4.224899769 0.9893919826
6.888753414 4.208215237 1.271863818
6.889541149 4.207045555 1.560880423
6.867233753 4.190134048 1.847294807
6.052696705 3.690231085 1.887878299
6.823117256 4.148522854 -2.12806201
6.856947422 4.165809631 -1.842345834
6.90483427 4.193257332 -1.562025428
6.865746021 4.166235447 -1.265293598
6.941355705 4.208806992 -0.9915856123
6.960537434 4.218771935 -0.7083764672
6.970304966 4.22137022 -0.424864471
6.987039089 4.228167534 -0.1418513656
6.960110188 4.23015213 0.1414674222
6.949777603 4.220551014 0.4239223897
6.981432438 4.238107681 0.7108168602
6.954198837 4.218254089 0.993535459
6.923673153 4.196428299 1.275618315
6.94616127 4.208405495 1.57042098
6.898489475 4.17622757 1.851793766
6.067191601 3.670084715 1.888395905
6.852446079 4.13365984 -2.132720947
6.903154373 4.16096735 -1.850893974
6.937927246 4.180272102 -1.566223025
6.915782928 4.163645267 -1.271863818
6.986624718 4.202969074 -0.9959728718
6.992293358 4.204721451 -0.7101196647
7.014101982 4.21449852 -0.4266438484
7.0223279 4.216105938 -0.1422702223
7.00565815 4.224415779 0.1420956999
6.995262146 4.214818001 0.4258064926
7.020079613 4.228101254 0.7132572532
6.996096134 4.210329533 0.9974353313
6.958590984 4.184454918 1.279372692
6.994463921 4.204360485 1.578053236
6.943092823 4.170186996 1.859892011
6.06671524 3.640929222 1.884254813
6.88506937 4.12062645 -2.138415098
6.941052914 4.150846481 -1.857192516
6.979441166 4.17214489 -1.572329044
6.950626373 4.151632786 -1.275618315
7.02682066 4.193816662 -0.9996290207
7.024039268 4.190494537 -0.7118626833
7.069943428 4.214535236 -0.4291560054
7.074799538 4.214078903 -0.1430381238
7.037521362 4.210203648 0.1424447447
7.040791512 4.208818913 0.4276905954
7.051897526 4.213792324 0.7150003314
7.0516572 4.21030426 1.00328505
7.000299931 4.17633152 1.284378648
7.025959969 4.189972878 1.581869602
6.997786045 4.169865608 1.87068975
6.082705975 3.621708155 1.885290027
6.932630539 4.116298676 -2.148767948
6.972260952 4.136533737 -1.861691713
7.027730942 4.167790413 -1.579961419
6.982071877 4.137413979 -1.278747082
7.075581074 4.189489365 -1.004503727
7.069487572 4.184214592 -0.7150003314
7.10180378 4.199995041 -0.4302026927
7.118731976 4.206653595 -0.1436315179
7.07625103 4.199899673 0.1429334134
7.089793682 4.204596519 0.4297840297
7.100842476 4.209469318 0.7184865475
7.088511467 4.198820591 1.006453633
7.055634975 4.176015854 1.291887522
7.055747509 4.174424171 1.585304022
7.01900959 4.149377823 1.872489214
6.091985703 3.598486662 1.884254813
6.956943989 4.09795475 -2.15187335
7.015207291 4.128976822 -1.869339943
7.072696686 4.161151886 -1.586830616
7.027123451 4.131037712 -1.284378648
7.110702515 4.176828384 -1.007428646
7.118411541 4.179690361 -0.7184865475
7.130204201 4.183263779 -0.4310401082
7.160973072 4.19796133 -0.1441899836
7.118437767 4.191408634 0.1434918791
7.128529072 4.193999767 0.4312494397
7.142970562 4.200818539 0.721275568
7.120240211 4.184106827 1.008891106
7.0974226 4.167366505 1.296893477
7.095674038 4.164674759 1.591028214
7.025044918 4.119924068 1.870239615
6.114511013 3.583058596 1.887360573
7.022912502 4.103861809 -2.167920351
7.059869766 4.122148991 -1.877438188
7.114305973 4.152273178 -1.592936397
7.077335835 4.127379894 -1.290948868
7.157826424 4.170972824 -1.012059689
7.163948536 4.172865868 -0.7216241956
7.184463978 4.18145752 -0.4334475398
7.191142559 4.181984901 -0.1445041299
7.167558193 4.18670845 0.1441899836
7.163824081 4.181174278 0.4325055182
7.195450306 4.197949886 0.7251104116
7.165670395 4.177223682 1.013278246
7.140945435 4.159466743 1.302212119
7.142403126 4.158651352 1.598278999
7.036016464 4.09341526 1.869339943
6.13199091 3.564606905 1.888913512
7.058922768 4.091915131 -2.174649477
6.986527443 4.046691418 -1.854043245
7.125896931 4.122435093 -1.297206283
7.189527512 4.155897617 -1.014497042
7.2060709 4.16378355 -0.7244131565
7.230149746 4.174330711 -0.4353316426
7.228213787 4.169849873 -0.1449579
7.225385666 4.186725616 0.1450626105
7.212945461 4.17615509 0.4345989525
7.237651348 4.188773155 0.7278993726
7.211141586 4.170071602 1.017665625
7.17081356 4.14341116 1.305028081
7.206178665 4.162168026 1.609346032
7.04688549 4.066883564 1.868440151
6.13937521 3.540286779 1.887360573
7.156063557 4.1115942 -1.89543426
7.172797203 4.116215229 -1.303150773
7.245319843 4.154476643 -1.020346761
7.241306305 4.150491714 -0.7265049219
7.286271095 4.172890663 -0.43784374
7.280909061 4.166441441 -0.1457258016
7.248624325 4.166463375 0.1452371329
7.262119293 4.170844078 0.4366923869
7.269506931 4.173404694 0.7296425104
7.265258789 4.167590141 1.02327168
7.212655067 4.13406992 1.310033917
7.237699509 4.146746635 1.61316216
7.064422607 4.044195175 1.869339943
6.141633034 3.513081074 1.884254813
7.144627094 4.078529358 -2.192766905
7.182486057 4.09681797 -1.899033427
7.109926701 4.053786278 -1.58263278
7.28766346 4.148386002 -1.024490237
7.286202431 4.144187927 -0.7296425104
7.32018137 4.161823273 -0.4390998185
7.34438467 4.172192574 -0.1467380375
7.298149586 4.164484501 0.1459701359
7.313356876 4.169774055 0.4389951527
7.313741207 4.168302059 0.7327801585
7.300740719 4.157516956 1.026440263
7.266811371 4.134837627 1.317542791
7.271169186 4.135637283 1.617741585
7.083869457 4.02583456 1.871139646
6.156000137 3.495675087 1.885290027
7.193151951 4.071349621 -2.203119755
7.222185135 4.086113453 -1.905781865
7.305896759 4.130114079 -1.623084188
7.216126919 4.076043129 -1.305966616
7.329757214 4.138540268 -1.028390169
7.340536594 4.141243458 -0.733651638
7.345825672 4.14084816 -0.4397278428
7.388522148 4.163217068 -0.1473314166
7.338746548 4.153756618 0.1464937031
7.34525156 4.154053688 0.4400418997
7.363663197 4.16106987 0.7362663746
7.33940506 4.14567709 1.029852629
7.319047928 4.130804539 1.324425817
7.310217857 4.122461796 1.623084188
7.101973057 4.001754761 1.872039318
6.173213959 3.477010727 1.886842966
7.24606514 4.067964554 -2.215025425
7.276203632 4.081545353 -1.916129708
7.315134048 4.101704597 -1.621939421
7.175165176 4.01993084 -1.295954704
7.369125366 4.125224113 -1.031802416
7.375923157 4.123959064 -0.440669924
7.288511276 4.071743011 -0.1450276971
7.38182354 4.142490864 0.1470521837
7.377849102 4.136869907 0.441088587
7.416376114 4.156776428 0.7401012182
7.385727882 4.136206627 1.034239888
7.365168095 4.121316433 1.330057502
7.367400646 4.120877266 1.632624745
7.105691433 3.971237421 1.869339943
6.197724342 3.460953236 1.890466332
7.084050655 3.939695597 -1.567368031
7.12008667 3.956479073 -1.283439994
7.334427357 4.070559025 -0.730165422
7.320407391 4.05944109 -0.4364829957
7.440860748 4.122841835 -0.1477851868
7.12890625 3.967900038 0.1417117566
7.462187767 4.148286343 0.7432388067
7.440032482 4.13257122 1.039845824
7.398509502 4.106123924 1.333498955
7.428092003 4.120851994 1.642928362
7.122919559 3.948297024 1.870239615
6.203006744 3.435555458 1.888395905
7.091649532 3.916414976 -2.15912056
7.403758049 4.083722115 -1.635295987
7.286094666 4.015510082 -1.310972452
7.457890987 4.108489513 -1.040333271
7.463787556 4.108346939 -0.7416699529
7.487785339 4.116449833 -0.1484483778
7.137462139 3.940090179 0.1416070312
7.486275196 4.130945683 0.4459035099
7.497560978 4.13375473 0.7453305721
7.485711098 4.12381506 1.044233203
7.439770699 4.096814632 1.33850503
7.463073254 4.106252193 1.647507787
7.142802715 3.928412914 1.872039318
6.210980415 3.413104057 1.887360573
7.321452618 4.011702061 -2.225378036
7.416987419 4.06068325 -1.942224145
7.41553688 4.058207512 -1.634914398
7.431093693 4.063350677 -1.334750533
7.509795189 4.104682922 -1.045695662
7.512343884 4.102671146 -0.7451562285
7.509167671 4.097529411 -0.4461128116
7.571617603 4.129896641 -0.1498445719
7.527964592 4.121441841 0.4475782812
7.546187401 4.127990723 0.7488167882
7.528954983 4.11515522 1.048376679
7.486252785 4.090114117 1.34444952
7.493880272 4.090889931 1.651323915
7.169476986 3.91217041 1.875638485
6.229048252 3.396189213 1.889431238
7.404304504 4.025228977 -2.246601343
7.450960159 4.047228336 -1.947623014
7.422053337 4.029844761 -1.633387923
7.421954632 4.026442051 -1.330683231
7.560726166 4.098310947 -1.050814152
7.570418358 4.100142002 -0.7495139837
7.570136547 4.098281384 -0.4489390254
7.617648125 4.120564938 -0.1504728645
7.579166412 4.115149975 0.4497763813
7.594854832 4.121957302 0.7523030639
7.563501835 4.101519108 1.051301599
7.545639515 4.088429451 1.352584124
7.545385361 4.086584091 1.659719586
7.153951168 3.871358871 1.867990255
6.251061916 3.379936457 1.892536998
7.456421375 4.018228054 -2.257989407
7.458180904 4.017496586 -1.945823312
7.429703236 3.995467663 -1.329431653
7.592470646 4.081290722 -1.053251386
7.616279125 4.090662956 -0.7526516318
7.627342224 4.093175411 -0.451451093
7.653130531 4.105294228 -0.1508917212
7.620589256 4.106697083 0.1504030377
7.618100643 4.101930141 0.4512417912
7.648512363 4.114857674 0.7561378479
7.612738132 4.093898296 1.056176305
7.594666958 4.080762863 1.358841538
7.594906807 4.077476025 1.667351961
7.171527386 3.846952438 1.868890047
6.264523983 3.359009743 1.893054605
7.504479885 4.010384083 -2.268342257
7.533020973 4.022261143 -1.961569786
7.594456196 4.053357124 -1.665062308
7.466264248 3.981594324 -1.333498955
7.638912678 4.070240021 -1.057638764
7.661119461 4.078635216 -0.7556149364
7.676845074 4.085292339 -0.4535445571
7.691080093 4.089418888 -0.1513454765
7.662047386 4.092873573 0.1509266198
7.663040161 4.089962006 0.4530211687
7.697985649 4.106892109 0.759624064
7.666232109 4.086510181 1.061538696
7.628749847 4.063116074 1.362282991
7.65068531 4.07308054 1.676510692
7.17802906 3.818236351 1.867090344
6.276792526 3.336028099 1.893054605
6.991618633 3.703434467 -2.108392
7.609016895 4.028767109 -1.977766395
7.649174213 4.046611786 -1.673839331
7.606550217 4.020665169 -1.356025577
7.69519949 4.065804958 -1.063488483
7.692927837 4.061171055 -0.7573580146
7.739465237 4.082284451 -0.4563706815
7.738915443 4.080268383 -0.1520086527
7.713397026 4.085757732 0.1516596228
7.716106415 4.083744049 0.4553239942
7.727078438 4.086099625 0.7610185742
7.726078987 4.083845615 1.067875862
7.674328804 4.053064823 1.367914677
7.689869881 4.057840347 1.681853294
7.197148323 3.79462719 1.868440151
6.286691189 3.313195229 1.892536998
7.591134071 3.987126589 -2.285941839
7.647888184 4.013531208 -1.984065056
7.704979897 4.041772366 -1.6829983
7.664278507 4.017015457 -1.363847375
7.748735905 4.057835102 -1.068850756
7.745890617 4.054622173 -0.7611928582
7.774905205 4.066353798 -0.45762676
7.795641422 4.075466156 -0.1528463811
7.753106117 4.070474148 0.1521482766
7.779831886 4.082773685 0.4582547843
7.783642292 4.081308842 0.7652020454
7.762096882 4.066553116 1.070800662
7.725177765 4.045497894 1.374484897
7.738780499 4.049175262 1.689485908
7.217256546 3.7730937 1.870239615
6.301642895 3.293017864 1.893572211
7.647841454 3.982910633 -2.298882961
7.681899548 3.998943329 -1.989463806
7.757358551 4.034784317 -1.691393852
7.696837902 4.001599312 -1.367288947
7.790337086 4.046756268 -1.072750688
7.804206848 4.050502777 -0.765550673
7.813168526 4.053423405 -0.4590921402
7.859530926 4.073994637 -0.1538237035
7.802034855 4.063212872 0.1528463811
7.809980392 4.063890457 0.459196806
7.836733341 4.074331284 0.7690368891
7.801958084 4.054527283 1.074456811
7.788341522 4.04399395 1.38324523
7.780044079 4.03796196 1.695591688
7.215890408 3.741960764 1.866640449
6.316529751 3.27278018 1.894607544
7.695333958 3.975261927 -2.309235573
7.728713036 3.989088058 -1.998012066
7.79512167 4.021641254 -1.696736455
7.76343298 4.001862049 -1.376674891
7.839709759 4.037718296 -1.077625394
7.860110283 4.046489716 -0.7697341442
7.882329464 4.054443836 -0.4623369873
7.906786919 4.065283775 -0.1544869095
7.865920544 4.061644554 0.1538237035
7.848263264 4.050792694 0.4606622756
7.889157772 4.068413258 0.7728717923
7.858415127 4.049087524 1.080306411
7.83683157 4.036235809 1.389502645
7.835988522 4.03234148 1.704750538
7.216775894 3.710514069 1.863491178
6.334219933 3.255349159 1.89667809
7.752150536 3.970389843 -2.322176695
7.785263062 3.985638857 -2.009259462
7.835331917 4.007815838 -1.702460885
7.832941532 4.004873276 -1.386686802
7.907858849 4.039691448 -1.085181236
7.916779041 4.040764332 -0.773917675
7.949103355 4.055514336 -0.4654771686
7.938746452 4.046738625 -0.1548359543
7.92740345 4.060148239 0.1547661424
7.922807217 4.0543046 0.4642210901
7.938789368 4.058991432 0.7763580084
7.908920765 4.041974545 1.0854249
7.870223522 4.018738747 1.392944098
7.891284943 4.027751923 1.713909268
7.227304459 3.685678244 1.863041282
6.345545769 3.233217001 1.89667809
7.785941601 3.955161572 -2.328387976
7.849524498 3.98401475 -2.022306681
7.885345459 4.000465393 -1.71047473
7.896209717 4.002512455 -1.395447135
7.964412689 4.03358984 -1.091030955
7.971724987 4.033792973 -0.7779268026
7.993509293 4.043068409 -0.4672565758
7.999228477 4.042450905 -0.1557434797
7.975402832 4.049654961 0.1554293334
7.970752239 4.043794632 0.4662098885
7.977084637 4.045257092 0.7787983418
7.963710785 4.034976006 1.091030955
7.921216488 4.009976387 1.399514437
7.933325768 4.014362335 1.720015287
7.24012661 3.660425901 1.863041282
6.35506773 3.21017766 1.896160483
7.840074539 3.946574688 -2.340293884
7.88775301 3.968854904 -2.028605223
7.9490695 3.996226072 -1.721160054
7.949660301 3.993052244 -1.402330279
8.021022797 4.027139187 -1.096880794
8.019590378 4.022921085 -0.7812387347
8.043985367 4.031639576 -0.4693500102
8.049044609 4.032423019 -0.1564415842
8.014497757 4.034376621 0.1559180021
8.034778595 4.041076183 0.4691406786
8.023903847 4.032093048 0.7819359899
8.007901192 4.022305965 1.095174551
7.986365795 4.007994175 1.408587575
7.983085155 4.002860069 1.727647662
7.256978035 3.635612249 1.863941073
6.371417999 3.190568209 1.897713423
7.883185863 3.933853149 -2.349093676
7.928408146 3.952958822 -2.035353661
8.001625061 3.987725258 -1.729555726
8.013063431 3.989929676 -1.411090493
8.06771946 4.013630867 -1.101267934
8.079968452 4.01796627 -0.7857708335
8.08662796 4.017757416 -0.4710247815
8.108551979 4.025117397 -0.1573142111
8.073966026 4.027291298 0.1567906141
8.081710815 4.027637482 0.4710247815
8.084296227 4.027159214 0.786468029
8.05102253 4.007082462 1.099074364
8.041682243 3.998927116 1.415783525
8.032170296 3.992444277 1.735279918
7.262644768 3.606789589 1.862141609
7.940159798 3.927723169 -2.362034559
7.978843689 3.943392992 -2.044801712
8.043660164 3.973680496 -1.735661507
8.07299614 3.984668255 -1.419225097
8.110167503 3.999490499 -1.105167866
8.129686356 4.007357121 -0.7892570496
8.140022278 4.008916378 -0.4733275473
8.162023544 4.016217232 -0.1580820978
8.127411842 4.018580437 0.1575585306
8.124372482 4.013553619 0.472699523
8.144752502 4.021848679 0.7910001278
8.10412693 3.998275042 1.104436517
8.085712433 3.985681295 1.421102405
8.081276894 3.981742144 1.742912292
7.264699459 3.576253653 1.859442115
7.990248203 3.917841196 -2.372905016
8.038063049 3.937806129 -2.056499243
8.083930969 3.958527565 -1.741385818
8.125893593 3.975560427 -1.426108241
8.166183472 3.993505478 -1.111017466
8.181218147 3.997320175 -0.7929175496
8.18985939 3.998006582 -0.4754209816
8.200458527 4.001403809 -0.1585707664
8.182686806 4.01043272 0.1583613455
8.173510551 4.004161358 0.4747929573
8.190950394 4.009165287 0.7941377759
8.164399147 3.992633343 1.110773802
8.123730659 3.970993042 1.425482512
8.140995026 3.975907326 1.752834439
7.273015022 3.550434828 1.858542442
6.404479027 3.123673916 1.897713423
8.037944794 3.908215761 -2.383257627
8.093144417 3.931567669 -2.067296982
8.141165733 3.953135014 -1.750926256
8.174578667 3.965838671 -1.432365775
8.218678474 3.985457182 -1.116379857
8.224910736 3.984938383 -0.7958809137
8.251612663 3.994319677 -0.4782471359
8.264082909 3.998576403 -0.1595481038
8.235509872 4.002503872 0.1591292322
8.229859352 3.997982264 0.4773050845
8.232880592 3.9958992 0.7969267964
8.216892242 3.984590769 1.116136074
8.190182686 3.969877958 1.434868693
8.196541786 3.969423294 1.76199317
7.291766167 3.529691696 1.860341907
6.400889397 3.095688105 1.893572211
8.082181931 3.896646976 -2.392575264
8.135985374 3.91908288 -2.074945211
8.203756332 3.949969053 -1.761611581
8.21616745 3.952408075 -1.437371612
8.282633781 3.980827332 -1.12320447
8.28187561 3.976900101 -0.8000643253
8.300825119 3.984216928 -0.4803405702
8.319461823 3.989590168 -0.1603509188
8.273956299 3.987327337 0.1596179157
8.297748566 3.995224953 0.480445236
8.285581589 3.987585545 0.8007615805
8.26584053 3.974527121 1.1210109
8.246723175 3.961791754 1.442377448
8.237976074 3.955819845 1.76809907
7.30404377 3.504215002 1.860341907
6.409914017 3.072492361 1.893054605
8.131274223 3.883647919 -2.402927876
8.177752495 3.904093981 -2.082143545
8.253619194 3.936776161 -1.769243836
8.266262054 3.939265013 -1.443628907
8.32874012 3.967255354 -1.127591848
8.335285187 3.966804504 -0.8038992286
8.349644661 3.970059156 -0.4823293388
8.376683235 3.981128216 -0.1611886173
8.332935333 3.979964972 0.1604905277
8.344091415 3.98171711 0.4823293388
8.346901894 3.979482174 0.8052936792
8.310126305 3.9601686 1.125154376
8.301524162 3.95251441 1.449573517
8.287877083 3.942468643 1.775731444
7.30979681 3.474076509 1.858542442
6.420599461 3.050100088 1.893054605
8.200656891 3.881690741 -2.419492483
8.239572525 3.896586657 -2.094290972
8.297485352 3.922207117 -1.775731444
8.329977036 3.934004307 -1.45238924
8.371949196 3.950253725 -1.131491542
8.4002285 3.960017443 -0.8087799549
8.403198242 3.959619999 -0.4846321046
8.425593376 3.966584444 -0.1618518233
8.390849113 3.969923496 0.1613282561
8.383908272 3.963058949 0.483794719
8.400372505 3.969048262 0.8091285229
8.365872383 3.949176073 1.130760431
8.355261803 3.940596819 1.456456542
8.347758293 3.93528223 1.785653591
7.314828873 3.445216179 1.85674274
6.447468281 3.033948183 1.897713423
8.246315002 3.866367579 -2.428809881
8.300765991 3.890130997 -2.106438398
8.347365379 3.90841651 -1.783363819
8.396227837 3.927722216 -1.461462498
8.421650887 3.937823772 -1.136366367
8.441078186 3.94331789 -0.8113945723
8.464710236 3.950758934 -0.4873535633
8.468384743 3.950674057 -0.162410304
8.43905735 3.956736803 0.1619914472
8.444717407 3.955795527 0.4865162075
8.461783409 3.960188866 0.8136606216
8.433550835 3.945181608 1.138072491
8.399388313 3.925628185 1.461775422
8.411935806 3.927915096 1.796338797
7.330937386 3.420031786 1.857642412
6.447514057 3.006526709 1.894607544
8.296957016 3.858364582 -2.440197945
8.363105774 3.885576248 -2.119035721
8.407680511 3.904497385 -1.793667436
8.435403824 3.913797855 -1.466155529
8.495897293 3.938257456 -1.14465344
8.49388504 3.933722973 -0.8152294755
8.520581245 3.944281101 -0.4898657203
8.528629303 3.944392443 -0.1633178294
8.49928093 3.950643301 0.1628989726
8.501264572 3.947957516 0.4890283346
8.503098488 3.94700551 0.8164496422
8.489808083 3.937234879 1.143922329
8.455374718 3.91768527 1.469284177
8.470553398 3.922917604 1.806260824
7.345181942 3.398622274 1.858542442
6.44342041 2.978642702 1.890466332
8.351401329 3.84651494 -2.452103615
8.404941559 3.869396448 -2.126234055
8.466526031 3.894167185 -1.803207994
8.482001305 3.897699118 -1.471787214
8.556493759 3.93012166 -1.150990605
8.545589447 3.921501875 -0.8188900352
8.5785532 3.933003902 -0.4923778474
8.59324646 3.937925577 -0.1642951667
8.549345016 3.937684298 0.1635970622
8.558535576 3.938301802 0.491540432
8.557332039 3.93412447 0.8202844858
8.541378021 3.924984217 1.149040818
8.51388073 3.90874958 1.477105856
8.506287575 3.901669502 1.810840368
7.368219376 3.376547337 1.861241579
6.4625597 2.960156679 1.893054605
8.408715248 3.837388277 -2.465044498
8.443889618 3.849884987 -2.132532597
8.519370079 3.882498503 -1.811603546
8.542297363 3.889351606 -1.479921818
8.592523575 3.908599377 -1.153915524
8.610010147 3.914740324 -0.8237707019
8.621324539 3.916249275 -0.4940525889
8.648817062 3.926921844 -0.1650979668
8.607383728 3.926242352 0.1644347906
8.615846634 3.928286552 0.4940525889
8.621780396 3.927357197 0.8251652122
8.584616661 3.906806231 1.152940631
8.574221611 3.900274277 1.485240459
8.566327095 3.893070221 1.820762396
7.372863293 3.347585917 1.859442115
6.467576504 2.935183287 1.891501665
8.471344948 3.830304623 -2.479538441
8.51166153 3.846739769 -2.146479607
8.574023247 3.871324778 -1.820380807
8.605563164 3.883752823 -1.488682151
8.64525032 3.898037195 -1.159277916
8.679937363 3.910027266 -0.8291743994
8.681612015 3.908963919 -0.4967740476
8.693475723 3.910652161 -0.1656913459
8.667730331 3.919099808 0.165342316
8.658631325 3.911340952 0.4957273602
8.686285019 3.920183182 0.8300458789
8.653617859 3.903622389 1.160496473
8.632808685 3.890609741 1.493062258
8.625729561 3.885608196 1.830684423
7.373262882 3.318317652 1.85674274
6.484828472 2.915762424 1.893572211
8.517496109 3.817200422 -2.489373684
8.571281433 3.837707996 -2.158177137
8.626237869 3.860511541 -1.82877636
8.673168182 3.877876759 -1.498068094
8.695054054 3.884026051 -1.164152622
8.72196579 3.894216299 -0.8319633603
8.746277809 3.90141511 -0.4997048676
8.750909805 3.899819851 -0.1665290743
8.730631828 3.910889626 0.16628474
8.723274231 3.903938532 0.4986581504
8.735611916 3.907630444 0.8335322142
8.710686684 3.892832518 1.166346192
8.680608749 3.875751019 1.499006748
8.67151165 3.869879007 1.83755362
7.391920567 3.295731783 1.858542442
6.484379768 2.888390303 1.890466332
8.55548954 3.798417807 -2.496620655
8.629157066 3.827524424 -2.169424772
8.691710472 3.853450298 -1.839843154
8.715547562 3.860384226 -1.50307405
8.777541161 3.884173632 -1.173414588
8.777412415 3.882289648 -0.8359725475
8.805515289 3.891040325 -0.5023217201
8.819350243 3.893475294 -0.1675762087
8.786271095 3.89904356 0.16708754
8.784322739 3.894509792 0.5013796687
8.789273262 3.894869328 0.8373669982
8.771417618 3.883294582 1.172683477
8.739247322 3.865408897 1.506828547
8.672397614 3.834027052 1.83488214
7.410508156 3.27306366 1.860341907
6.487353802 2.862616777 1.888395905
8.609365463 3.78642416 -2.508526087
8.676363945 3.812271833 -2.177973032
8.746449471 3.841250181 -1.848620534
8.768766403 3.847395897 -1.509957075
8.831044197 3.871045351 -1.178776979
8.834709167 3.870814085 -0.8401559591
8.861124992 3.878702164 -0.5047291517
8.880525589 3.883495569 -0.1684837341
8.840100288 3.886055946 0.1678554416
8.852720261 3.887922049 0.5045198202
8.850248337 3.884989023 0.841899097
8.828552246 3.871785164 1.178533196
8.801539421 3.856281042 1.515275955
8.678536415 3.800579071 1.833355784
7.439742565 3.254985571 1.864840984
6.491995335 2.837634325 1.886842966
8.672122002 3.777950525 -2.523020267
8.739649773 3.803739309 -2.190570116
8.804812431 3.830272675 -1.858160973
8.829245567 3.83723712 -1.518091679
8.88092041 3.856005192 -1.183651686
8.89751339 3.861369371 -0.8448623419
8.911259651 3.863634586 -0.5068225861
8.94173336 3.873144388 -0.1693912596
8.897614479 3.87433219 0.16869317
8.906531334 3.874522448 0.5068225861
8.911262512 3.874725819 0.8464311957
8.882066727 3.858350277 1.183895469
8.867495537 3.84834218 1.524349093
8.698950768 3.773392916 1.83488214
7.440331936 3.224345207 1.862141609
6.50363493 2.81572175 1.887360573
8.72960186 3.766788006 -2.535960913
8.794034004 3.790949821 -2.200917721
8.86320591 3.818934441 -1.867701411
8.893390656 3.828260422 -1.526852012
8.938091278 3.843805075 -1.189501405
8.96402359 3.853103161 -0.8499174714
8.972406387 3.852996826 -0.5095440745
8.994956017 3.860821247 -0.170159176
8.956988335 3.863050222 0.169565782
8.95601368 3.860776663 0.5089160204
8.975970268 3.865664482 0.8513119221
8.941068649 3.846934319 1.189988971
8.920133591 3.83608222 1.531232357
8.712071419 3.743002415 1.83488214
7.447958469 3.196817875 1.861241579
6.523587704 2.798710585 1.890466332
8.790659904 3.756792545 -2.549937248
8.853150368 3.781671524 -2.212615252
8.912595749 3.803385973 -1.875333786
8.949645042 3.817350388 -1.534360886
9.001922607 3.835935354 -1.196326137
9.017748833 3.838955641 -0.8537522554
9.047618866 3.849811792 -0.5131029487
9.056225777 3.849736452 -0.1710666865
9.02307415 3.856117725 0.1705780178
9.013521194 3.848309755 0.5114281178
9.033390999 3.853071213 0.8554954529
8.999428749 3.836723566 1.196082473
8.973450661 3.821952581 1.538115382
8.728049278 3.71562767 1.835645556
7.462105274 3.173629284 1.862141609
6.531538963 2.775167942 1.889948726
8.849323273 3.747204065 -2.563395739
8.92014122 3.77352047 -2.226112366
8.975790977 3.795215607 -1.886019111
9.010227203 3.806069613 -1.542495489
9.06098175 3.823782682 -1.202419639
9.065976143 3.822162628 -0.8570641875
9.103335381 3.836042166 -0.5155103207
9.102783203 3.832068682 -0.1716949791
9.086201668 3.845639467 0.1715204418
9.096801758 3.84638238 0.5154056549
9.088330269 3.8409307 0.8595045805
9.074944496 3.831540823 1.204369545
9.037700653 3.812099695 1.546875715
8.74458313 3.686665058 1.836408734
7.483914375 3.152098417 1.864840984
6.523380756 2.74485755 1.88477242
8.88794136 3.72520113 -2.570642948
8.922472954 3.737844229 -2.223412991
9.038537979 3.782758713 -1.896322727
9.06238842 3.789023638 -1.549065709
9.070611 3.790596962 -1.201932073
9.068229675 3.785889149 -0.8560183048
9.102585793 3.796502352 -0.5146729946
9.095802307 3.79180479 -0.1713110358
9.099569321 3.813901186 0.1715204418
9.108329773 3.813835859 0.5153010488
9.096832275 3.805289984 0.8589816689
9.058959007 3.787589788 1.200469613
9.103812218 3.802610397 1.555948973
8.747166634 3.650051594 1.834118962
7.50980711 3.130644321 1.868440151
6.534706116 2.722810984 1.885290027
8.824167252 3.662308455 -2.548384428
8.840705872 3.665560484 -2.199568033
9.102471352 3.772228241 -1.907008052
9.123012543 3.777015448 -1.557200313
9.104620934 3.765673637 -1.204613209
9.132944107 3.775526762 -0.8608990312
9.134244919 3.772326708 -0.5157197118
9.166942596 3.782085896 -0.1723930687
9.113488197 3.780521631 0.1715204418
9.129629135 3.783483028 0.5157197118
9.14503479 3.787997246 0.862293601
9.100295067 3.765744925 1.204125762
9.170627594 3.791104794 1.565022111
8.763482094 3.620997429 1.83488214
7.524291515 3.105899811 1.869339943
6.542855263 2.698107004 1.88477242
8.826174736 3.627080202 -2.545278549
8.830012321 3.625054836 -2.193719387
9.164622307 3.760556459 -1.917311668
9.185492516 3.765374422 -1.56564784
9.172819138 3.756440401 -1.211925387
9.201386452 3.766263962 -0.8661283851
9.239789009 3.778218031 -0.5209532976
9.294863701 3.796947241 -0.1745571792
9.180271149 3.770721912 0.1725326926
9.188972473 3.770548105 0.5183364749
9.259585381 3.797635078 0.8718807101
9.197880745 3.768578053 1.215337753
9.227682114 3.777027369 1.572530985
8.779704094 3.591869593 1.835645556
7.524262905 3.075193882 1.866640449
6.562964439 2.679634571 1.887878299
8.806571007 3.583145618 -2.535960913
8.835391045 3.591272831 -2.191919804
9.21407032 3.743323565 -1.924944043
9.260813713 3.758543015 -1.576285362
9.303614616 3.772132158 -1.227524638
9.229249954 3.740105867 -0.8675228953
9.34733963 3.784163237 -0.5262915492
9.361160278 3.787857294 -0.1755694151
9.326750755 3.792889357 0.1750458479
9.327244759 3.791193724 0.5254542232
9.350318909 3.796769857 0.8792017102
9.323188782 3.781968594 1.230205774
9.287754059 3.765701532 1.580665588
8.803103447 3.565629005 1.837935209
7.545791626 3.053294659 1.869339943
6.564650059 2.654960394 1.885807753
8.804691315 3.546606302 -2.53181982
8.843635559 3.560499907 -2.191020012
9.279904366 3.732380629 -1.936011076
9.337376595 3.753597736 -1.587235808
9.37501812 3.764934063 -1.235324264
9.210812569 3.695257664 -0.8645596504
9.411741257 3.77396059 -0.5292223692
9.41516304 3.771518469 -0.1763373166
9.400485992 3.786597729 0.1761977077
9.408976555 3.786201239 0.529327035
9.406033516 3.781197786 0.8832109571
9.38541317 3.771010876 1.236786723
9.357672691 3.756066561 1.590364456
8.811235428 3.534952402 1.837171912
7.570346355 3.034052372 1.87293911
6.566704273 2.629155159 1.883737087
8.800256729 3.510944366 -2.52716136
8.850579262 3.527445793 -2.189670086
9.297701836 3.703763485 -1.937155843
9.335737228 3.715144634 -1.58473289
9.378881454 3.728517294 -1.234105587
