# .PCD v0.7 - Point Cloud Data file format
VERSION 0.7
FIELDS x y z
SIZE 4 4 4
TYPE F F F
COUNT 1 1 1
WIDTH 1170
HEIGHT 1
VIEWPOINT 0 0 0 1 0 0 0
POINTS 1170
DATA ascii
-0.8207440972 -0.4061719179 0.107301563
-0.831405282 -0.4110864997 0.1402168125
-0.8374002576 -0.4138690829 0.1733173728
-0.8476596475 -0.4185712636 0.2083012462
-0.8428503275 -0.4158308804 0.2402361035
-0.8468248248 -0.416505903 -0.2412714064
-0.8327208757 -0.4092080295 -0.2042521238
-0.8525062203 -0.418746084 -0.1763703078
-0.8609946966 -0.4225426018 -0.1452227086
-0.8703510761 -0.4267574549 -0.1138825119
-0.8626201749 -0.4227800667 -0.08033221215
-0.8682771325 -0.4251765311 -0.04846422374
-0.8657996058 -0.4235889912 -0.01612422802
-0.8685738444 -0.4270150363 0.01619403623
-0.8516228795 -0.418312192 0.04752217606
-0.867690146 -0.4260164201 0.08085514605
-0.836414516 -0.4102984965 0.1092514694
-0.8363826871 -0.4099207819 0.1408425421
-0.8476551175 -0.4152620435 0.1752254516
-0.8351128697 -0.4087562859 0.2047020197
-0.8581804633 -0.419675529 0.2443772256
-0.8482735157 -0.4135475755 -0.2412714064
-0.8429040313 -0.4105655551 -0.2065016329
-0.8539627194 -0.4157676995 -0.1763703078
-0.8624643683 -0.419534564 -0.1452227086
-0.8861186504 -0.4306584597 -0.1158324108
-0.860506475 -0.4180251956 -0.07998359203
-0.8769430518 -0.4256316423 -0.04888291284
-0.8690721989 -0.421436727 -0.01615913212
-0.8772496581 -0.4274844527 0.01633365639
-0.8638523221 -0.4205826521 0.04815021157
-0.8691719174 -0.4229849577 0.08085514605
-0.8449827433 -0.4108484685 0.1102264225
-0.8253707886 -0.4009566307 0.1386524588
-0.8614618778 -0.4183034897 0.1778967828
-0.843547821 -0.4092410803 0.2065016329
-0.8526865244 -0.4133070409 0.2423066795
-0.8357964754 -0.4038600624 -0.2371302992
-0.8548616171 -0.4127041698 -0.2092010528
-0.8554087281 -0.4127844572 -0.1763703078
-0.8639236093 -0.41652143 -0.1452227086
-0.8983470798 -0.4327315688 -0.117294848
-0.8565750122 -0.4124258757 -0.07946065813
-0.8964217901 -0.4312260747 -0.04992963001
-0.8705380559 -0.4184004962 -0.01615913212
-0.8859392405 -0.427898258 0.01647327468
-0.8761076927 -0.4227729142 0.04877823964
-0.8670541048 -0.4182172418 0.08050652593
-0.8678708076 -0.4182381034 0.1131512895
-0.8321048617 -0.4006439149 0.139591068
-0.8558406234 -0.4118883312 0.1763703078
-0.859021306 -0.4130498469 0.2101008594
-0.8541240096 -0.4103280604 0.2423066795
-0.8546248078 -0.4092841148 -0.2423066795
-0.852781117 -0.4080355763 -0.2083012462
-0.8639290333 -0.4131840169 -0.1778967828
-0.8618074656 -0.4118000865 -0.1445969641
-0.8998521566 -0.4295930862 -0.117294848
-0.8687982559 -0.4145818949 -0.08050652593
-0.890710175 -0.4246561825 -0.04951094463
-0.8882413507 -0.4230986834 -0.01647327468
-0.8784089684 -0.4204860628 0.01629875042
-0.8847854137 -0.4231588542 0.04919692874
-0.8685086966 -0.4151880741 0.08050652593
-0.8657429814 -0.4134947956 0.1126638055
-0.8477606177 -0.4045429528 0.142094031
-0.8572731614 -0.4088983238 0.1763703078
-0.8604578376 -0.4100489914 0.2101008594
-0.8625280857 -0.4106659591 0.2443772256
-0.8560482264 -0.406298399 -0.2423066795
-0.8577219248 -0.4067262411 -0.2092010528
-0.8760104179 -0.4152110517 -0.1801864952
-0.8703809977 -0.4121708274 -0.145848453
-0.9049348235 -0.4281474948 -0.1177823171
-0.8828481436 -0.4175089002 -0.08172670007
-0.890381217 -0.4206914306 -0.04940627143
-0.9041795135 -0.4268246591 -0.01675251313
-0.8834847212 -0.4191316962 0.01636856049
-0.8808427453 -0.4175014794 0.04888291284
-0.8807558417 -0.4172722995 0.08155239373
-0.858209908 -0.4062238336 0.111445114
-0.8598822355 -0.4066480398 0.1439712346
-0.8622451425 -0.407581389 0.1771335453
-0.868932426 -0.4103714526 0.2119004577
-0.8744390011 -0.412599057 0.2474830449
-0.8749424815 -0.4115302861 -0.2474830449
-0.8644276261 -0.4062159359 -0.2105507553
-0.881008327 -0.4138202071 -0.1809497327
-0.8861205578 -0.4158437252 -0.1483514011
-0.8955665827 -0.4200861752 -0.1163198948
-0.8951247334 -0.4194975495 -0.08277257532
-0.8972707391 -0.4201213419 -0.04972028732
-0.900156498 -0.4212810099 -0.01664779894
-0.8939908147 -0.4202991724 0.01654308476
-0.8786071539 -0.4128792584 0.04867357016
-0.8894211054 -0.4175823033 0.08224964142
-0.8596225977 -0.4032258093 0.111445114
-0.8665915132 -0.4063102603 0.1449098438
-0.867218256 -0.4062349498 0.1778967828
-0.8667587638 -0.4058349729 0.2110006511
-0.8828018904 -0.4129713476 0.2495536208
-0.8745515943 -0.4078101814 -0.2469654083
-0.8710691929 -0.4058161974 -0.2119004577
-0.8823757768 -0.4108963609 -0.1809497327
-0.891076684 -0.4145694077 -0.1489771307
-0.9041546583 -0.4204622209 -0.117294848
-0.8892832994 -0.4131688476 -0.08207532763
-0.9059053063 -0.420507431 -0.0501389727
-0.8942927718 -0.4149271548 -0.01650818065
-0.90625453 -0.4224009514 0.01675251313
-0.8835923076 -0.4116505086 0.04888291284
-0.8980261087 -0.4179935753 0.08294688165
-0.8771548271 -0.4079064131 0.1136387661
-0.8571861982 -0.3984383941 0.1430326253
-0.8917086124 -0.4141066968 0.1828578115
-0.8751701117 -0.4062406421 0.2128002644
-0.880661428 -0.4084160626 0.2485183477
-0.8741455078 -0.40409711 -0.2464477718
-0.8918709755 -0.4119133949 -0.2168493867
-0.8872984648 -0.4096137285 -0.1817129552
-0.8888589144 -0.4099577963 -0.1483514011
-0.9164341092 -0.4222881198 -0.1187572777
-0.8942677975 -0.4118847847 -0.08242394775
-0.9163666964 -0.4216755331 -0.05066233128
-0.8939186931 -0.4109678268 -0.01647327468
-0.9076503515 -0.4193933606 0.01675251313
-0.895903945 -0.4135863781 0.04951094463
-0.8921710253 -0.4116742313 0.08224964142
-0.8929247856 -0.4116440415 0.1155886799
-0.8621602058 -0.3970965743 0.1436583698
-0.8805935383 -0.4054003656 0.1801864952
-0.8836647272 -0.406440258 0.2145998776
-0.8768155575 -0.4029195011 0.2469654083
-0.8737943769 -0.400238812 -0.2459301353
-0.8862153292 -0.4055539966 -0.2150497735
-0.9030056596 -0.4130471051 -0.1847659051
-0.8938778043 -0.4084946513 -0.1489771307
-0.9287372828 -0.4240333438 -0.1202197075
-0.8957001567 -0.4087606966 -0.08242394775
-0.9178330898 -0.4184742272 -0.05066233128
-0.9080863595 -0.4136475325 -0.01671760902
-0.9018360376 -0.4128927588 0.01661289483
-0.9082397819 -0.4154412448 0.0501389727
-0.897226572 -0.4102143049 0.08259826154
-0.8907449245 -0.4068750739 0.1151012033
-0.870729506 -0.397365123 0.1449098438
-0.8820033073 -0.4023240209 0.1801864952
-0.8921711445 -0.4065859318 0.2163994908
-0.8870075941 -0.4038589001 0.2495536208
-0.9033328891 -0.4099600613 -0.2542123497
-0.8805263638 -0.3992391825 -0.2132501751
-0.915171206 -0.4147549272 -0.1870556176
-0.9042959213 -0.4094458818 -0.1505414844
-0.9302118421 -0.4207888544 -0.1202197075
-0.9080141187 -0.410556674 -0.08346981555
-0.9156479836 -0.4136233926 -0.05045299232
-0.9168154001 -0.4137655199 -0.01685722917
-0.9105560184 -0.4130467474 0.01675251313
-0.9115037322 -0.4130928218 0.05024364963
-0.9095422029 -0.4120127857 0.08364413679
-0.8903512955 -0.4029448032 0.1148574576
-0.8829108477 -0.3992062509 0.1467870474
-0.8941364884 -0.4040939808 0.1824761927
-0.8935849667 -0.4034691751 0.2163994908
-0.891933918 -0.4023486972 0.2505888641
-0.9047583342 -0.4068045318 -0.2542123497
-0.8996908069 -0.4041483104 -0.2177491784
-0.9094492197 -0.4083414376 -0.1855291426
-0.9147314429 -0.4103292525 -0.1521058381
-0.9316750169 -0.4175392091 -0.1202197075
-0.9185332656 -0.4114571214 -0.08434136957
-0.9243783355 -0.4136880934 -0.0508716777
-0.9219052792 -0.4121948779 -0.01692703739
-0.9284080863 -0.4172430634 0.01706665568
-0.9001857042 -0.4041821361 0.04951094463
-0.9218812585 -0.4137297869 0.08469000459
-0.8899409175 -0.39902246 0.1146137193
-0.8842989802 -0.3961218596 0.1467870474
-0.9027089477 -0.4041797519 0.1840026677
-0.8949878812 -0.4003474712 0.2163994908
-0.9074428082 -0.4055387676 0.2547299862
-0.906172812 -0.4036438465 -0.2542123497
-0.9046568274 -0.4025901556 -0.2186489999
-0.9108691216 -0.4051643312 -0.1855291426
-0.9215735197 -0.409540534 -0.1530444473
-0.9331268072 -0.4142844975 -0.1202197075
-0.916321516 -0.4066322148 -0.0839927569
-0.9367718697 -0.4153157771 -0.05149970949
-0.9233384132 -0.4089745283 -0.01692703739
-0.9371660352 -0.4172531366 0.01720627584
-0.9180150032 -0.4083429277 0.05045299232
-0.9233198762 -0.4105092883 0.08469000459
-0.9022135139 -0.4007482827 0.116076149
-0.8748427629 -0.3882253766 0.1449098438
-0.9184715152 -0.4073942006 0.1870556176
-0.8999430537 -0.3988001645 0.2172992826
-0.9053198695 -0.4008046091 0.2536947131
-0.8969718814 -0.3957986236 -0.2511065304
-0.9238882065 -0.4072908163 -0.2231480181
-0.9230573177 -0.4067318738 -0.187818855
-0.9302292466 -0.409504652 -0.1542959064
-0.9454698563 -0.4158199728 -0.1216821522
-0.9250311852 -0.4066383243 -0.08469000459
-0.9473591447 -0.4160590768 -0.05202306807
-0.9357475042 -0.4105696678 -0.01713646762
-0.9349574447 -0.412365526 0.01713646762
-0.9267457128 -0.4083570838 0.0508716777
-0.9211003184 -0.4056778252 0.08434136957
-0.9217767119 -0.4055913985 0.1185135394
-0.8870428205 -0.3899388611 0.1467870474
-0.9126983881 -0.4010266066 0.1855291426
-0.9156048894 -0.4019224346 0.220898509
-0.903175056 -0.3960901797 0.25265944
-0.9125089049 -0.3988551497 -0.2552476227
-0.9253043532 -0.4040631056 -0.2231480181
-0.928070128 -0.4050782621 -0.1885820925
-0.9244102836 -0.4030965269 -0.1530444473
-0.9505553842 -0.4141027629 -0.1221696138
-0.9300984144 -0.404997468 -0.08503861725
-0.9488057494 -0.4127496183 -0.05202306807
-0.9463449121 -0.4112860858 -0.01731099188
-0.9327263832 -0.4074982405 0.01706665568
-0.9373178482 -0.4091146588 0.05139504001
-0.929815352 -0.4056468606 0.08503861725
-0.9195472002 -0.4007851779 0.1180260554
-0.8992653489 -0.3915716708 0.1486642659
-0.9104922414 -0.3962714672 0.1847659051
-0.9241508245 -0.4018321931 0.2226981223
-0.9080959558 -0.3944747448 0.2536947131
-0.9263055921 -0.401040256 -0.2588711083
-0.9231318831 -0.3992836475 -0.2222482264
-0.9456970096 -0.4088478982 -0.1920166612
-0.925811708 -0.399867475 -0.1530444473
-0.9556405544 -0.4123548567 -0.1226571053
-0.9424834847 -0.4064825475 -0.0860844925
-0.9539093375 -0.4110155702 -0.05223241448
-0.9569584727 -0.4119336605 -0.01748551428
-0.9414839745 -0.4074165821 0.01720627584
-0.9442400932 -0.4082180262 0.0517090559
-0.9385415316 -0.4055599868 0.08573586494
-0.9118280411 -0.3936389983 0.1168073639
-0.9042544961 -0.3899948299 0.1492900103
-0.9226872325 -0.3977539539 0.1870556176
-0.9327071309 -0.4016870856 0.2244977355
-0.927213192 -0.3989374042 0.2588711083
-0.9365773797 -0.4016111493 -0.261459291
-0.9245200157 -0.3960588574 -0.2222482264
-0.9417040348 -0.4032258987 -0.190871805
-0.9417312741 -0.4028486609 -0.1555473804
-0.9534233212 -0.4074563086 -0.1221696138
-0.9512255788 -0.4063210487 -0.08678174019
-0.9516642094 -0.4061154127 -0.05202306807
-0.9564798474 -0.4079734087 -0.01745061018
-0.9502524137 -0.4072787762 0.01734589599
-0.9400808811 -0.4027250707 0.05139504001
-0.9509416819 -0.4069849551 0.08678174019
-0.9241481423 -0.3951362371 0.1182698086
-0.9146251082 -0.3908754587 0.1508543491
-0.9385146499 -0.4006978571 0.1901085675
-0.9305184484 -0.3968999386 0.223597914
-0.9356393814 -0.3988909423 0.2609416544
-0.9308608174 -0.395318985 -0.259388715
-0.9401789308 -0.399082303 -0.2258474231
-0.9412983656 -0.3991700411 -0.1904901862
-0.9503369331 -0.4028070271 -0.1567988545
-0.9620811343 -0.4073885381 -0.1231445819
-0.9452982545 -0.3998931348 -0.0860844925
-0.9658828378 -0.4084021151 -0.05275577307
-0.956056118 -0.4038540423 -0.01741570607
-0.9589601159 -0.4072522223 0.01748551428
-0.9433195591 -0.4002211392 0.05149970949
-0.9560253024 -0.4052180946 0.08713036031
-0.9364203215 -0.396715641 0.1197322309
-0.9032498002 -0.3822910488 0.1486642659
-0.9452626109 -0.3998780251 0.1912534088
-0.9354196191 -0.395329237 0.2244977355
-0.9388058186 -0.3963739276 0.261459291
-0.9268247485 -0.3899822533 -0.2578358352
-0.9451592565 -0.3973083794 -0.2267472446
-0.953476727 -0.4006091654 -0.1927798837
-0.9553800821 -0.4010163546 -0.1574246138
-0.9744811654 -0.4086339176 -0.1246069968
-0.9502942562 -0.3982965052 -0.08643311262
-0.9820406437 -0.4111994505 -0.05359315127
-0.9666840434 -0.4043725431 -0.01759023033
-0.9659058452 -0.4062277973 0.01759023033
-0.95575881 -0.4015680254 0.052127745
-0.9463419914 -0.3974168897 0.0860844925
-0.9579350352 -0.4018923938 0.1224133521
-0.9191533923 -0.3852444589 0.1511672139
-0.9448418021 -0.3958176374 0.190871805
-0.9457821846 -0.3958232999 0.2267472446
-0.9384012818 -0.3923494518 0.2609416544
-0.9442296028 -0.3934318125 -0.2624945343
-0.9501384497 -0.3955047131 -0.2276470363
-0.9621198773 -0.4002948403 -0.1943063587
-0.9531257749 -0.3961628377 -0.1567988545
-0.985068202 -0.4090360999 -0.1258257031
-0.9590394497 -0.3980318308 -0.08713036031
-0.9834700823 -0.407768935 -0.05359315127
-0.9717844725 -0.4025263786 -0.01766003855
-0.9710099697 -0.4043912292 0.01766003855
-0.9792830348 -0.4074356556 0.05338380486
-0.9550821185 -0.3971712291 0.08678174019
-0.9464999437 -0.3932148516 0.1207071841
-0.9259660244 -0.3843052983 0.1521058381
-0.9462177753 -0.3925168216 0.190871805
-0.959759891 -0.3977419436 0.2298965454
-0.9397650957 -0.3890714049 0.2609416544
-0.9527406096 -0.3930804133 -0.2645651102
-0.9497115612 -0.3914430737 -0.2271971405
-0.9762179852 -0.4021686614 -0.196977675
-0.9581564069 -0.3943369985 -0.1574246138
-0.9938338995 -0.4086145163 -0.1268006563
-0.9714800715 -0.3992255628 -0.08817622811
-0.9793445468 -0.4020579457 -0.05327913165
-0.9879848361 -0.4052021503 -0.01793927886
-0.9705669284 -0.4002372324 0.01762513444
-0.9696192145 -0.3994501829 0.05275577307
-0.9712010622 -0.3999038637 0.08817622811
-0.9441949725 -0.3883981407 0.1202197075
-0.9419187307 -0.3870774508 0.1546087861
-0.9584783912 -0.3936870396 0.1931615025
-0.9611424804 -0.3943892717 0.2298965454
-0.9518424869 -0.3901850581 0.2640474737
-0.9666255713 -0.3948664367 -0.2681885958
-0.9564851522 -0.3903342485 -0.2285468578
-0.981251657 -0.4002417922 -0.1977409273
-0.9705030918 -0.3954622746 -0.1593018174
-0.9952540994 -0.4051430821 -0.1268006563
-0.9820951819 -0.3995863795 -0.08904778212
-0.9881429672 -0.4016453922 -0.05369782075
-0.9893932343 -0.401750952 -0.01793927886
-0.9904713035 -0.4044056833 0.01797418296
-0.9673088193 -0.3945547044 0.05254642665
-0.9799709916 -0.3995199502 0.08887347579
-0.9565758109 -0.3895924985 0.1216821522
-0.9432641864 -0.3837871552 0.1546087861
-0.9707585573 -0.3947763741 0.1954512298
-0.9589024782 -0.3895649016 0.2289967537
-0.9603589177 -0.3897661269 0.2661180198
-0.9733708501 -0.3936627805 -0.2697415054
-0.9668760896 -0.3906431496 -0.230796352
-0.9735406637 -0.3931384385 -0.1958328336
-0.9901968241 -0.3994624019 -0.1624305099
-0.9966623187 -0.4016662836 -0.1268006563
-0.9798566699 -0.3944961727 -0.08869916201
-0.9988034368 -0.4019214213 -0.05422117934
-0.9759463072 -0.3923281431 -0.01766003855
-0.9937309623 -0.4016952515 0.01800908707
-0.9797920585 -0.3956629038 0.05317446217
-0.9924449921 -0.4005710483 0.08991934359
-0.9616119266 -0.3877359331 0.1221696138
-0.9427657723 -0.3797540963 0.1542959064
-0.9757729173 -0.3928520381 0.1962144524
-0.9638724327 -0.3876696229 0.2298965454
-0.9617136121 -0.3864114285 0.2661180198
-0.9712200761 -0.3886567652 -0.2687062025
-0.9790899158 -0.3916081488 -0.233495757
-0.9913831353 -0.3961234391 -0.1992674023
-0.9879849553 -0.3943660855 -0.1618047804
-1.00912106 -0.402598381 -0.128263101
-0.9849293232 -0.3925486803 -0.08904778212
-1.00954771 -0.4019521475 -0.05474454165
-0.9977477193 -0.39705199 -0.01804399118
-0.9951272011 -0.3982237577 0.01800908707
-0.9885854125 -0.3952059448 0.05359315127
-0.9828048348 -0.3924972117 0.08887347579
-0.9906141162 -0.3954155445 0.1258257031
-0.9569296837 -0.3815828264 0.1564859897
-0.9808540344 -0.3907257915 0.196977675
-0.9761507511 -0.3884575069 0.2325959653
-0.9576713443 -0.3809100986 0.2645651102
-0.9815510511 -0.3888218105 -0.271294415
-0.9841428995 -0.3894508481 -0.2343955785
-0.9945853353 -0.3933827579 -0.199649021
-0.9856814146 -0.389462918 -0.161179021
-1.021668553 -0.4032702744 -0.1297255158
-0.99370718 -0.3920327127 -0.08974502981
-1.010944605 -0.3984256983 -0.05474454165
-1.0102911 -0.3979641497 -0.01825342141
-0.9965800047 -0.3945739865 0.01800908707
-1.001101851 -0.3961619437 0.05422117934
-0.9915803671 -0.3919940889 0.08957072347
-0.9865179658 -0.3895947039 0.1250944883
-0.965605557 -0.3811412156 0.1577374786
-0.9730799198 -0.3836989701 0.1950695962
-0.9883795977 -0.3893329799 0.2352953702
-0.9697804451 -0.3818113804 0.2676709592
-0.9972906709 -0.3910347819 -0.2754355073
-0.9817999005 -0.3847634792 -0.233495757
-1.006921291 -0.3942027986 -0.2019387186
-0.9943255186 -0.3890715539 -0.1624305099
-1.02300024 -0.3998800218 -0.1297255158
-0.998781383 -0.3900112808 -0.09009365737
-1.0085392 -0.3936187327 -0.05453519896
-1.024715543 -0.3995200694 -0.01849775389
-1.00719142 -0.3949168622 0.01818361133
-1.009917259 -0.3955789804 0.05463986844
-1.004074931 -0.3928864002 0.09061658382
-0.9767119288 -0.3819829226 0.1236320436
-0.9853295088 -0.3849564493 0.1608661562
-0.9871484637 -0.385468781 0.1977409273
-0.993296206 -0.3874696195 0.2361951619
-0.9765072465 -0.3805281222 0.269223839
-0.9967810512 -0.3870262206 -0.2749178708
-0.9885877371 -0.3834479153 -0.2348454744
-1.010053515 -0.3915711641 -0.2023203224
-1.00672996 -0.3898786008 -0.1643077135
-1.028092504 -0.3977390528 -0.1302129924
-1.020510554 -0.3946011066 -0.09201107919
-1.02108562 -0.394413799 -0.05516322702
-1.02230382 -0.3946793675 -0.01842794567
-1.019749284 -0.3957394361 0.01839304157
-1.00377512 -0.389338702 0.05422117934
-1.012803555 -0.3924339712 0.09131383151
-0.9928494096 -0.3843037784 0.1255819649
-0.9902852178 -0.38311252 0.1614918858
-0.990319252 -0.382728368 0.1981225461
-0.9873708487 -0.3811928034 0.2343955785
-0.9957870245 -0.3842423856 0.2744002342
-1.001732588 -0.3849303126 -0.2759531438
-0.9971305132 -0.3829624653 -0.2366450876
-1.009581208 -0.387339741 -0.2019387186
-1.020928264 -0.3914890885 -0.1664978117
-1.029405832 -0.3943275511 -0.1302129924
-1.016299248 -0.3889002204 -0.09148814529
-1.037311792 -0.3967333436 -0.05600060523
-1.023675323 -0.3911084235 -0.01842794567
-1.034122348 -0.3973765671 0.01863737404
-1.012586474 -0.3886954784 0.05463986844
-1.021608472 -0.3917499185 0.09201107919
-1.012654424 -0.3881134391 0.1280193478
-0.9731686711 -0.3725904524 0.1583632082
-1.015419722 -0.388563633 0.2030835748
-0.9959105253 -0.3806996942 0.2361951619
-0.9880985022 -0.3773182333 0.2718120217
-0.9958471656 -0.3786848485 -0.2738825977
-1.018566608 -0.3869170845 -0.2415940166
-1.018268824 -0.3866009116 -0.2034651935
-1.020509481 -0.3870438337 -0.1661849469
-1.041982293 -0.3947717845 -0.1316754371
-1.019513965 -0.3860558271 -0.09166246653
-1.046231031 -0.3957552612 -0.05641928688
-1.026972532 -0.3880606592 -0.01846284978
-1.035571933 -0.3935836256 0.01863737404
-1.02894187 -0.3906531036 0.05547723919
-1.015518546 -0.385353744 0.09131383151
-1.014070034 -0.3843994737 0.1280193478
-0.9819170833 -0.3718191683 0.1596146822
-1.01316452 -0.3834496439 0.2023203224
-1.004590392 -0.3798035383 0.2379947752
-0.9967038035 -0.3764242828 0.2738825977
-1.009819746 -0.3799687922 -0.2775060833
-1.01626265 -0.3819881976 -0.2406942248
-1.026963472 -0.3858056068 -0.2049916685
-1.02000463 -0.3827853501 -0.1658720523
-1.052647829 -0.3946162462 -0.1328941286
-1.028318167 -0.3852911294 -0.09235969931
-1.051347375 -0.3935009837 -0.05662863702
-1.039559126 -0.3886753023 -0.01867227815
-1.029452562 -0.3871507645 0.01849775389
-1.03777802 -0.3898683488 0.05589592829
-1.024318576 -0.3846079707 0.09201107919
-1.015405774 -0.3808570802 0.1280193478
-0.9924580455 -0.3718550503 0.161179021
-1.010819793 -0.3785334229 0.2015570998
-1.01686132 -0.3803914785 0.2406942248
-1.001631141 -0.3742953241 0.2749178708
-1.016571283 -0.3784633279 -0.2790589631
-1.019416332 -0.3791176677 -0.2411441207
-1.046706438 -0.3890585899 -0.2088078409
-1.030593872 -0.3826605082 -0.1674364209
-1.057741165 -0.3923202455 -0.1333816051
-1.035328388 -0.3835959733 -0.09288264066
-1.041476607 -0.3856675029 -0.05600060523
-1.054038048 -0.3899005353 -0.01891661249
-1.040168405 -0.387041986 0.01867227815
-1.039132595 -0.386243403 0.05589592829
-1.029390097 -0.3824179471 0.09235969931
-1.009284854 -0.3745477498 0.1270444095
-1.010419965 -0.3745677769 0.1639948487
-1.02686286 -0.380459398 0.2046100497
-1.012700319 -0.3748101592 0.2393444926
-1.013803244 -0.3748163879 0.2780237198
-1.034267664 -0.3807415068 -0.2837177217
-1.020733595 -0.3755566776 -0.2411441207
-1.048125267 -0.3852198422 -0.2088078409
-1.039406896 -0.3816037476 -0.16868788
-1.064695001 -0.3906771243 -0.13411282
-1.047884941 -0.3840939105 -0.09392850101
-1.054136276 -0.3859676719 -0.05662863702
-1.046003103 -0.3827830553 -0.01874208823
-1.052772641 -0.3875536919 0.01888170838
-1.036725402 -0.3812353909 0.05568658933
-1.053227425 -0.3868861198 0.09445144236
-1.014312983 -0.3723908961 0.1275318712
-1.011721253 -0.3710384667 0.1639948487
-1.035624027 -0.3793947995 0.2061365247
-1.014067173 -0.3710961342 0.2393444926
-1.029620051 -0.3765836954 0.2821648121
-1.031960011 -0.3758068085 -0.2826824486
-1.031259775 -0.3751441538 -0.2433936298
-1.045773387 -0.3802171648 -0.2080446184
-1.055586457 -0.3833678067 -0.1711908281
-1.058588386 -0.3842487037 -0.1331378669
-1.04921937 -0.380433768 -0.09392850101
-1.070500016 -0.3877271712 -0.05746601149
-1.052973628 -0.3811713457 -0.01884680241
-1.069218755 -0.3891638815 0.01916094497
-1.045557618 -0.3803452849 0.05610527471
-1.05457139 -0.3832075 0.09445144236
-1.034330845 -0.3754436374 0.1299692541
-1.013010263 -0.3675048351 0.1639948487
-1.048016906 -0.3797905445 0.2084262222
-1.033614755 -0.3743675947 0.2438435256
-1.030928373 -0.3729873002 0.2821648121
-1.040470243 -0.3750026822 -0.2847529948
-1.045332789 -0.3763430417 -0.2465429306
-1.054417729 -0.3794059455 -0.2095710933
-1.060569882 -0.3812015653 -0.1718165874
-1.078538775 -0.3874475956 -0.1355752498
-1.054225922 -0.3782981932 -0.09427713603
-1.079300404 -0.3868707418 -0.05788469315
-1.063644528 -0.3810495138 -0.01902132668
-1.061096668 -0.3822275698 0.01898642071
-1.058088183 -0.3809352517 0.0567333065
-1.048336864 -0.3770112991 0.09375419468
-1.050515652 -0.3773807883 0.1319191754
-1.023519278 -0.3674810827 0.1655591875
-1.05666244 -0.3789643943 0.2099526972
-1.047691822 -0.3755407929 0.2469928265
-1.030340552 -0.36891523 0.2816471457
-1.045347214 -0.3728482425 -0.2857882679
-1.046575069 -0.3728744686 -0.2465429306
-1.063068032 -0.3785415292 -0.2110975385
-1.054383516 -0.3750344813 -0.1705650985
-1.09484899 -0.3889971972 -0.1375251561
-1.059229493 -0.3761335313 -0.09462574869
-1.080577374 -0.3832892179 -0.05788469315
-1.072507739 -0.3800057471 -0.01916094497
-1.066125512 -0.3800498843 0.01905623265
-1.066937566 -0.3799194396 0.0571519956
-1.060843706 -0.3775408864 0.09480006248
-1.046150088 -0.3719002306 0.1311879456
-1.03782618 -0.3685331941 0.1677492857
-1.061613798 -0.3767715394 0.2107159346
-1.063690066 -0.3770904541 0.2505920529
-1.055295825 -0.3736996949 0.2883764505
-1.059395075 -0.373695761 -0.2894117534
-1.04603231 -0.3685713112 -0.2460930347
-1.07734549 -0.379393518 -0.2137688845
-1.063140035 -0.3739736378 -0.1718165874
-1.099945784 -0.3864891827 -0.1380126327
-1.071815252 -0.3763947785 -0.0956716314
-1.085678101 -0.3808374405 -0.05809404328
-1.090812564 -0.3822107017 -0.01947508939
-1.07876122 -0.3803150952 0.01926566102
-1.064489365 -0.3748661876 0.05694264546
-1.077190399 -0.3791272938 0.09619455785
-1.053060055 -0.3702216744 0.1319191754
-1.055880427 -0.3707988858 0.1705650985
-1.066627502 -0.3743635714 0.2114791721
-1.064999938 -0.3733751476 0.2505920529
-1.065710068 -0.3732064664 0.2909646332
-1.062517166 -0.3706317544 -0.28992939
-1.056513548 -0.3681239486 -0.2483425438
-1.080517292 -0.376275897 -0.2141504884
-1.081230402 -0.3761014044 -0.1746324003
-1.097537994 -0.3813442588 -0.1375251561
-1.090127707 -0.3783431649 -0.0972404331
-1.094548702 -0.3796634972 -0.05851273239
-1.086471677 -0.3764370084 -0.0193703752
-1.081970453 -0.3772054315 0.01930056512
-1.069563985 -0.3724615574 0.0571519956
-1.089797258 -0.3792942464 0.0972404331
-1.06372118 -0.3698025048 0.1331378669
-1.05343616 -0.3658151031 0.1699393541
-1.079056025 -0.3745005727 0.2137688845
-1.060773015 -0.3677406609 0.2492423356
-1.06883204 -0.370116353 0.2914822996
-1.069347739 -0.3686236739 -0.2914822996
-1.072531819 -0.3695119321 -0.2519417405
-1.080032706 -0.3716744781 -0.2137688845
-1.099414468 -0.3779149354 -0.1774482131
-1.106371999 -0.3800909519 -0.1385001242
-1.09144187 -0.3745355606 -0.0972404331
-1.099711537 -0.3769443631 -0.05872207135
-1.09156251 -0.3739383221 -0.01944018528
-1.096514106 -0.3779884577 0.01954489946
-1.085965157 -0.3739277422 0.05798937008
-1.100600362 -0.3785376847 0.09811198711
-1.076269031 -0.3699588776 0.1346002966
-1.047233462 -0.3595694602 0.16868788
-1.091563702 -0.3743647337 0.2160585821
-1.067644477 -0.3657446504 0.2505920529
-1.082911134 -0.3707634509 0.2951057553
-1.07245636 -0.3655118942 -0.2919999361
-1.090481877 -0.3712305129 -0.2559908628
-1.092475176 -0.3716963232 -0.2160585821
-1.096986294 -0.3728039861 -0.1768224835
-1.115276694 -0.3785853684 -0.1394750774
-1.105949879 -0.3752041459 -0.09846060723
-1.114261866 -0.3775903881 -0.05945478007
-1.092861176 -0.370125711 -0.01944018528
-1.094106436 -0.3726771772 0.01947508939
-1.094826579 -0.3727095425 0.05840805918
-1.092483521 -0.3714861572 0.0972404331
-1.096414089 -0.3723960817 0.1370376796
-1.063446641 -0.3609914482 0.1711908281
-1.085426688 -0.3680304885 0.2145321071
-1.085526466 -0.3676416278 0.2546411455
-1.076879382 -0.3645035625 0.2930352092
-1.079217911 -0.3636164963 -0.2935528457
-1.089860201 -0.3669903874 -0.255540967
-1.108652711 -0.3728873432 -0.219111532
-1.101961374 -0.3704229593 -0.1774482131
-1.13158071 -0.3799396455 -0.1414249688
-1.111030698 -0.372608602 -0.09880922735
-1.123082757 -0.3764322102 -0.05987346545
-1.11879766 -0.3745618761 -0.01989394799
-1.099126339 -0.3703241646 0.01954489946
-1.111264348 -0.3739818931 0.05924542993
-1.101327658 -0.3702099621 0.09793766588
-1.099524856 -0.3693903983 0.1372814327
-1.075936556 -0.3610476255 0.1730680466
-1.090363979 -0.3656775653 0.2152953595
-1.105217814 -0.3702296913 0.2591401637
-1.089137435 -0.3644202352 0.2961410582
-1.089581728 -0.3630894423 -0.2961410582
-1.087436557 -0.3619529009 -0.2546411455
-1.121060371 -0.3729272783 -0.2214012295
-1.106996894 -0.3678198755 -0.1780739576
-1.129132032 -0.3747368157 -0.1409375072
-1.123606801 -0.3726857007 -0.0998551026
-1.120598078 -0.3712533116 -0.05966411904
-1.139082909 -0.3769361675 -0.02024299465
-1.108001232 -0.3690126836 0.01968451962
-1.101192117 -0.3663179576 0.05861740187
-1.113893151 -0.3703271449 0.09898354113
-1.089503884 -0.3617963791 0.1358189881
-1.088439941 -0.3610213101 0.1749452651
-1.102815032 -0.365575403 0.217585057
-1.106503367 -0.3663697541 0.2591401637
-1.108744264 -0.3666820526 0.3013174236
-1.105521441 -0.3641188145 -0.3002821207
-1.099800229 -0.3618087173 -0.2573405802
-1.118625283 -0.3677850664 -0.2206380069
-1.123288155 -0.368884027 -0.1805769056
-1.130433202 -0.3707933426 -0.1409375072
-1.132473826 -0.3712438345 -0.1005523503
-1.133275628 -0.3710686564 -0.06029215083
-1.140391707 -0.3729576766 -0.02024299465
-1.128276944 -0.3713950813 0.02003356628
-1.10625875 -0.3637191653 0.05882674083
-1.130321503 -0.3714123368 0.100378029
-1.100190759 -0.3610859215 0.1370376796
-1.085939288 -0.3559890389 0.1743195206
-1.115278482 -0.3653910458 0.2198747545
-1.104071379 -0.3612929583 0.2582403719
-1.110017419 -0.3628098369 0.3013174236
-1.115970731 -0.3632470071 -0.3028703332
-1.117735744 -0.3633903861 -0.2613897026
-1.119902253 -0.3638783395 -0.2206380069
-1.135842443 -0.3686196506 -0.1824541241
-1.14305079 -0.3705177605 -0.1423999369
-1.133762956 -0.367288202 -0.1005523503
-1.142165065 -0.3695699573 -0.0607108362
-1.134075403 -0.3665151298 -0.02010337636
-1.140976191 -0.3711660206 0.02024299465
-1.118918657 -0.363558799 0.05945478007
-1.139191151 -0.3699259162 0.1010752767
-1.112774134 -0.3609182239 0.1385001242
-1.087175488 -0.3521959484 0.1743195206
-1.124018192 -0.363914907 0.2214012295
-1.120159507 -0.3622333705 0.2618395984
-1.118630409 -0.3613079488 0.3033879697
-1.109875798 -0.3569832444 -0.300799787
-1.139406323 -0.3660427332 -0.2663386166
-1.132381201 -0.3635678887 -0.2229277045
-1.137122273 -0.364652276 -0.1824541241
-1.155679941 -0.3701585531 -0.1438623667
-1.135038018 -0.3633286357 -0.1005523503
-1.154862642 -0.3692301512 -0.06133887544
-1.156302094 -0.3692455888 -0.02048732899
-1.138457179 -0.3659573197 0.02017318644
-1.131590843 -0.3633140922 0.06008280814
-1.140475392 -0.3659473658 0.1010752767
-1.132930875 -0.3630901277 0.1409375072
-1.103448868 -0.3532168865 0.1768224835
-1.125281692 -0.3599891067 0.2214012295
-1.128842235 -0.3606938422 0.2636392117
-1.119884849 -0.3574007154 0.3033879697
-1.120320559 -0.3560325801 -0.3033879697
-1.140677094 -0.3620631993 -0.2663386166
-1.152356863 -0.3655494153 -0.2267438769
-1.142154455 -0.3618739843 -0.1830798537
-1.175891042 -0.3721113205 -0.1462997645
-1.157195568 -0.3659729362 -0.1024697721
-1.159953356 -0.3663998246 -0.06154821441
-1.167054892 -0.3684190214 -0.02066185325
-1.137821794 -0.3613757789 0.02013828047
-1.153729677 -0.3662061989 0.06123419479
-1.149342895 -0.3643722534 0.1017725244
-1.141761422 -0.3615301847 0.1419124603
-1.114030719 -0.3525355756 0.1783868223
-1.134019375 -0.3584256172 0.2229277045
-1.148677826 -0.3626177013 0.2681382298
-1.122906208 -0.3542665541 0.3039056063
-1.132615447 -0.3555917442 -0.306493789
-1.138152719 -0.3571117222 -0.2654387951
-1.16111958 -0.3638730347 -0.2282703668
-1.147118449 -0.3592652082 -0.1837055981
-1.17711854 -0.3682101369 -0.1462997645
-1.160367727 -0.3625254631 -0.1026440784
-1.153536081 -0.3601701558 -0.06112952903
-1.172151804 -0.3655335903 -0.02073166333
-1.154276967 -0.3623925149 0.02041751891
-1.162624002 -0.3645670414 0.06165288761
-1.154410481 -0.3615490198 0.102121152
-1.133481741 -0.3547771275 0.1406937689
-1.126567006 -0.3521811366 0.1802640259
-1.138949633 -0.3558339775 0.2236909568
-1.142432928 -0.3564845622 0.2663386166
-1.137046456 -0.3543682992 0.307529062
-1.144858718 -0.3552691638 -0.3095996082
-1.144976497 -0.3548673391 -0.2667885125
-1.1660707 -0.3611823916 -0.2290336043
-1.159688234 -0.3587616086 -0.1855828017
-1.178396702 -0.3640986681 -0.1462997645
-1.172985792 -0.3622025549 -0.1036899537
-1.162420511 -0.3584957421 -0.06154821441
-1.184887052 -0.3649719954 -0.02094108984
-1.163174748 -0.3607304096 0.02055713907
-1.15053463 -0.3563702106 0.06092018262
-1.174635887 -0.3636104465 0.1038642675
-1.144195676 -0.3537503481 0.1419124603
-1.139114022 -0.3517434299 0.1821412593
-1.151440501 -0.3553298414 0.2259806544
-1.147394776 -0.3536424637 0.2672384083
-1.15673995 -0.3560807109 0.3127054572
-1.151633024 -0.3529689908 -0.3111525476
-1.162978768 -0.3560023904 -0.2708376348
-1.17107892 -0.3582584262 -0.2297968417
-1.179825068 -0.3604837656 -0.1887114942
-1.187255025 -0.3623005748 -0.1472747028
-1.178054333 -0.3592684865 -0.1040385738
-1.178949714 -0.3590914607 -0.06238559261
-1.184240818 -0.3602514267 -0.02090618573
-1.179723144 -0.3613529205 0.02083637752
-1.165140748 -0.3564418256 0.06165288761
-1.179708719 -0.3606729805 0.1042128876
-1.160611868 -0.3543919027 0.1438623667
-1.144113779 -0.3489176929 0.1827669889
-1.163941622 -0.354742229 0.2282703668
-1.15980792 -0.3530403078 0.2699378431
-1.157975912 -0.3520407379 0.3127054572
-1.149160266 -0.3478272855 -0.3101172447
-1.179137349 -0.3564518392 -0.2744368613
-1.172322392 -0.354168117 -0.2297968417
-1.188640833 -0.358645618 -0.1899629682
-1.199916482 -0.3615908921 -0.1487371475
-1.17548573 -0.3540050089 -0.1036899537
-1.199321985 -0.3607269228 -0.0634323135
-1.179745674 -0.3543895483 -0.02080147341
-1.18289113 -0.3578119278 0.02087128162
-1.177849531 -0.3558379114 0.0622809194
-1.1771456 -0.3554013669 0.1038642675
-1.188449979 -0.3583614528 0.1472747028
-1.135867476 -0.3420737088 0.1812026501
-1.168932915 -0.3518087864 0.2290336043
-1.168498158 -0.3512334824 0.2717374265
-1.155497074 -0.34688586 0.3116701841
-1.157771111 -0.3460268676 -0.3121878207
-1.184108973 -0.3534484208 -0.275336653
-1.199890256 -0.3579309285 -0.2351394892
-1.182313085 -0.3522379696 -0.1887114942
-1.216392636 -0.3619291484 -0.1506870538
-1.191992402 -0.3544422984 -0.1050844416
-1.200573921 -0.3565382659 -0.0634323135
-1.211649895 -0.3593673706 -0.02135994844
-1.178384781 -0.3519637883 0.02076656744
-1.198223591 -0.3574337661 0.0633276403
-1.18601644 -0.3535670042 0.1045615152
-1.18779099 -0.3536446095 0.1470309645
-1.148415446 -0.3414845467 0.1830798537
-1.173917413 -0.3488449752 0.2297968417
-1.188399315 -0.3526967466 0.2762364745
-1.164109707 -0.345046252 0.3137407303
-1.177500486 -0.3474507034 -0.317364186
-1.181597114 -0.3482112288 -0.2744368613
-1.204898953 -0.3548496366 -0.2359027416
-1.191115618 -0.350338608 -0.1899629682
-1.225267053 -0.3599188328 -0.1516619921
-1.200869083 -0.3525243402 -0.1057816893
-1.201811194 -0.3523449898 -0.0634323135
-1.228249907 -0.3596310616 -0.02163918875
-1.193032503 -0.3518075049 0.02101090178
-1.199463964 -0.3532489836 0.0633276403
-1.206356764 -0.3550501764 0.1063046232
-1.18901825 -0.3494962454 0.1470309645
-1.168554306 -0.3430380821 0.1862085611
-1.190198898 -0.3491664231 0.2328497916
-1.189623117 -0.3485465646 0.2762364745
-1.1819942 -0.3458631039 0.3183994889
-1.195399046 -0.3482007086 -0.3220229447
-1.190290093 -0.3462618291 -0.2762364745
-1.213670969 -0.3528337181 -0.2374291867
-1.20750773 -0.3505849242 -0.1924659312
-1.222702861 -0.3545339406 -0.1511745304
-1.21357429 -0.35165748 -0.1068275571
-1.212626457 -0.3509240448 -0.06395567209
-1.225655556 -0.3542309701 -0.02156937681
-1.209613204 -0.3521123528 0.02129014023
-1.204525352 -0.3501749635 0.06353698671
-1.222895026 -0.3552838862 0.1076991186
-1.199763179 -0.3481093943 0.148249656
-1.175436497 -0.3406062722 0.1871471554
-1.198953629 -0.347194016 0.2343762666
-1.18708837 -0.3433090448 0.275336653
-1.196186066 -0.345487684 0.3220229447
-1.198463917 -0.3445599079 -0.3225405812
-1.204602957 -0.345869422 -0.2793857753
-1.211120963 -0.3475124538 -0.2366659641
-1.222016692 -0.3501768708 -0.1946559995
-1.231566906 -0.3524484038 -0.1521494836
-1.22628808 -0.3507061899 -0.1078734323
-1.223446369 -0.3494315445 -0.06447903067
-1.230730772 -0.3510474861 -0.02163918875
-1.226210594 -0.3523051143 0.02156937681
-1.209579945 -0.3470702469 0.06374633312
-1.227958083 -0.3521113098 0.1080477387
-1.216238141 -0.3482916057 0.1501995772
-1.17092061 -0.3348716497 0.1862085611
-1.222810268 -0.3494807184 0.2389556617
-1.199523091 -0.3423723578 0.2780360878
-1.1936692 -0.3402509689 0.3209876716
-1.205234885 -0.3419559896 -0.3240934908
-1.215177417 -0.3443190157 -0.2816352844
-1.227438688 -0.3475614786 -0.239718914
-1.22893405 -0.3475219309 -0.1955946088
-1.251893401 -0.3535422683 -0.1545868665
-1.221752286 -0.3448003232 -0.107350491
-1.243882418 -0.350576818 -0.06552574784
-1.239648223 -0.3489164412 -0.02177880704
-1.231280684 -0.3491136432 0.02163918875
-1.226157665 -0.3471987545 0.06458370388
-1.225345612 -0.346737802 0.1076991186
-1.234639049 -0.3489021957 0.1523932219
-1.181587934 -0.3334652483 0.1877728999
-1.21646452 -0.3430785239 0.2374291867
-1.215716839 -0.3424099088 0.2816352844
-1.198568821 -0.3371283114 0.3220229447
-1.212002158 -0.3393092155 -0.3256464005
-1.227632642 -0.343223393 -0.2843347192
-1.236207724 -0.3453879058 -0.241245389
-1.230139732 -0.3432297111 -0.1955946088
-1.268356204 -0.3536541462 -0.1565367877
-1.238303423 -0.3448088169 -0.1087449864
-1.258568168 -0.349978596 -0.06625845283
-1.252358437 -0.3480160236 -0.02198823541
-1.232491732 -0.3448137939 0.02163918875
-1.246537328 -0.3485087752 0.06563042104
-1.234224319 -0.3446018696 0.1083963588
-1.233937383 -0.3440572321 0.1521494836
-1.199813247 -0.3343170881 0.1905887276
-1.217654705 -0.3388301134 0.2374291867
-1.228110671 -0.3415090442 0.2843347192
-1.214571595 -0.3372871578 0.326164037
-1.222430944 -0.3378613591 -0.3282346129
-1.221250057 -0.3370765448 -0.2825351059
-1.252486944 -0.3454626501 -0.244298324
-1.238888979 -0.3412470818 -0.1968460977
-1.261866331 -0.3473388553 -0.1555618197
-1.254809022 -0.3449254632 -0.1101394817
-1.25009191 -0.3431595564 -0.06573509425
-1.270861864 -0.3486222327 -0.02230237983
-1.245193481 -0.3439190388 0.02184861712
-1.251536727 -0.3454359472 0.06583976746
-1.254567862 -0.3458013535 0.1101394817
-1.235071659 -0.3399633765 0.1521494836
-1.21615231 -0.3345277309 0.1930916607
-1.23391664 -0.3389506042 0.2404821366
-1.236753225 -0.3394980133 0.2861343026
-1.226862073 -0.3363220096 0.3292698562
-1.234726906 -0.3368568122 -0.3313404322
-1.228001714 -0.3345615268 -0.2838847935
-1.257414222 -0.3423390985 -0.2450615615
-1.257169366 -0.3418011367 -0.1996619105
-1.274565339 -0.3460530639 -0.1570242494
-1.271389127 -0.3447139263 -0.1115339622
-1.255078316 -0.3400567472 -0.06594444066
-1.272071004 -0.3441839516 -0.02230237983
-1.257902741 -0.3429437578 0.02205804549
-1.248880625 -0.340015769 0.06563042104
-1.267242789 -0.3447774351 0.1111853495
-1.247685909 -0.3389886022 0.1536119133
-1.213499784 -0.3292459548 0.1924659312
-1.246402979 -0.3379394114 0.242771849
-1.237930775 -0.3351787925 0.2861343026
-1.24854219 -0.3375842571 0.3349638879
-1.243415594 -0.334335506 -0.3334109783
-1.242336035 -0.3338127732 -0.2870341241
-1.262452841 -0.3387457132 -0.2458247989
-1.273678303 -0.3412812054 -0.2021648735
-1.27960062 -0.342628777 -0.1575117409
-1.272584558 -0.3402741253 -0.1115339622
-1.27561295 -0.3406065106 -0.06699115783
-1.271332622 -0.3392259181 -0.02226747572
-1.278403521 -0.3437432051 0.02240709402
-1.261633635 -0.3387618959 0.06625845283
-1.272346735 -0.3411624134 0.1115339622
-1.262283802 -0.3382280469 0.1553180963
-1.2356323 -0.3306246102 0.1959074736
-1.262806892 -0.3374235332 0.2458247989
-1.246682525 -0.3326486051 0.2879339159
-1.247846365 -0.3327262402 0.3344462812
-1.248309851 -0.3309833705 -0.3344462812
-1.262389421 -0.3342449665 -0.2915331423
-1.273117423 -0.3368476629 -0.2477328628
-1.274861932 -0.3368331492 -0.2021648735
-1.303880811 -0.3440134525 -0.1604366004
-1.281470776 -0.3378615975 -0.1122312099
-1.288382888 -0.3392027318 -0.06761918962
-1.282178283 -0.3373303115 -0.02244199812
-1.279654741 -0.3390552998 0.02240709402
-1.278254271 -0.3384455442 0.06709583104
-1.26967752 -0.3357004225 0.1111853495
-1.280788898 -0.3381600082 0.1575117409
-1.244418979 -0.3283251822 0.1971589625
-1.271570921 -0.3350141644 0.2473512739
-1.262912869 -0.3322617114 0.2915331423
-1.250868559 -0.3288595378 0.3349638879
-1.255064607 -0.3280899823 -0.335999161
-1.27103281 -0.3320269585 -0.2933327556
-1.289482832 -0.3363662064 -0.2507858276
-1.27406013 -0.3321053088 -0.2018519938
-1.312698603 -0.3416878581 -0.1614115536
-1.294212341 -0.3363936245 -0.1132770777
-1.289500594 -0.3349283934 -0.06761918962
-1.298833251 -0.3368688524 -0.02272123657
-1.273033261 -0.3327872157 0.02226747572
-1.294887781 -0.3380171359 0.06793320179
-1.286265254 -0.3352867961 0.1125798449
-1.278061152 -0.3329100609 0.1570242494
-1.257028103 -0.3269628286 0.1990361661
-1.272674918 -0.3307955861 0.2473512739
-1.286642671 -0.3339467347 0.296931982
-1.26322937 -0.3273988962 0.3380697072
-1.282334924 -0.3306796551 -0.3432461023
-1.26840961 -0.3266162574 -0.292432934
-1.301998973 -0.3350236118 -0.2530755401
-1.292430758 -0.3320803046 -0.2046678066
-1.313883424 -0.3371035457 -0.1614115536
-1.29532063 -0.3320999742 -0.1132770777
-1.294531465 -0.3314161301 -0.06782853603
-1.315500379 -0.3362948596 -0.02300047502
-1.295488 -0.3338300586 0.02265142649
-1.296059728 -0.3334953487 0.06793320179
-1.306666374 -0.3359811008 0.1143229529
-1.284983635 -0.3299280405 0.1577554792
-1.269642711 -0.3255165517 0.2009133995
-1.285232782 -0.329274863 0.2496409565
-1.291576385 -0.3304193914 0.2978317738
-1.279338479 -0.3268128633 0.3422108293
-1.298460007 -0.3300082982 -0.3473872244
-1.284652829 -0.3260218501 -0.2960321605
-1.306966662 -0.3314419389 -0.2538387775
-1.308901668 -0.3314464092 -0.2071707696
-1.32659924 -0.3354348838 -0.1628739834
-1.321583867 -0.3339216411 -0.1155431271
-1.307299852 -0.3298268318 -0.06845656037
-1.318605304 -0.3321896493 -0.02303537913
-1.312150717 -0.3332437277 0.0229306668
-1.301087976 -0.3299511075 0.0681425482
-1.323282003 -0.3353332877 0.1157174483
-1.293825269 -0.3273881078 0.1587304324
-1.286092758 -0.3249541819 0.2034163326
-1.301602602 -0.3286310732 0.2526939213
-1.292721748 -0.3259092271 0.2978317738
-1.287965059 -0.324231565 0.3442814052
-1.301478028 -0.3259428144 -0.3479048312
-1.308469415 -0.3272087276 -0.3014310002
-1.304306269 -0.3259254694 -0.2530755401
-1.321550369 -0.3297447562 -0.2090479732
-1.335466862 -0.3327220082 -0.1638489366
-1.326608181 -0.3302690685 -0.1158917546
-1.327826023 -0.3300797641 -0.06950328499
-1.325521827 -0.3292613328 -0.02314009517
-1.324945092 -0.3315744996 0.02314009517
-1.313800573 -0.3285418749 0.06877057999
-1.324444294 -0.3307124078 0.1157174483
-1.308443069 -0.3262314498 0.1604366004
-1.279496074 -0.3187773228 0.2021648735
-1.31798327 -0.3278772235 0.2557468712
-1.301416755 -0.3232735991 0.299631387
-1.300282836 -0.3227510154 0.3473872244
-1.308234692 -0.3227864206 -0.3494577706
-1.324684024 -0.3265997767 -0.3050302267
-1.316874027 -0.3241867125 -0.2553652525
-1.330309153 -0.3272479177 -0.2102994472
-1.355840683 -0.3330266476 -0.1662863195
-1.321947932 -0.3242122531 -0.1153688207
-1.348311782 -0.3304286301 -0.07055000961
-1.334432721 -0.3265335858 -0.02327971347
-1.337686181 -0.330053091 0.02334952354
-1.338210821 -0.3296867311 0.07002664357
-1.329460144 -0.3270390332 0.1160660684
-1.326867104 -0.3261552751 0.1626302451
-1.295948505 -0.3180758953 0.2046678066
-1.315249681 -0.3225694895 0.2549836338
-1.311945677 -0.3212740421 0.3018808961
-1.301401496 -0.3182102144 0.3473872244
-1.326192021 -0.3225553036 -0.3541164994
-1.325815916 -0.3219737113 -0.3050302267
-1.337020636 -0.3244476914 -0.2591814399
-1.331443429 -0.3226022422 -0.2102994472
-1.368571639 -0.3310925364 -0.1677487642
-1.338508606 -0.3235719204 -0.1167633161
-1.345573902 -0.3247831464 -0.07034065574
-1.362780809 -0.3284327388 -0.02376838215
-1.336887002 -0.324909389 0.02331461944
-1.341294289 -0.3254847527 0.07013131678
-1.338282347 -0.3245065808 0.1167633161
-1.327997446 -0.32152161 0.1626302451
-1.310491443 -0.3167990446 0.2068579048
-1.320184588 -0.3188984096 0.2557468712
-1.332003355 -0.3212612867 0.3063799143
-1.317529678 -0.3172841668 0.3515283167
-1.3348248 -0.3197240233 -0.3561870754
-1.328827143 -0.317797035 -0.3054801226
-1.36105895 -0.3252543807 -0.2637608349
-1.347933054 -0.3216200173 -0.2128024101
-1.373581171 -0.3272333443 -0.1682362407
-1.36095047 -0.3239729702 -0.1186807379
-1.354471922 -0.3219315708 -0.07075934857
-1.371701598 -0.3255209327 -0.02390800044
-1.347736716 -0.3225680888 0.02348914184
-1.346307278 -0.3217291832 0.07034065574
-1.362661839 -0.3253860176 0.1188550442
-1.334904671 -0.3182654977 0.16336146
-1.321197867 -0.3145098984 0.2084222436
-1.332749367 -0.317014277 0.2580365837
-1.336908698 -0.3175103068 0.3072797358
-1.337426424 -0.317140162 0.3567047119
-1.350974798 -0.3186101317 -0.3603281379
-1.343206286 -0.3162831366 -0.3086294234
-1.366064191 -0.3211625814 -0.2645241022
-1.368277669 -0.3214306533 -0.2159311026
-1.386310935 -0.3251560926 -0.1696986556
-1.377647877 -0.3226172626 -0.1200752333
-1.371201277 -0.3206027448 -0.07159672678
-1.382565737 -0.3230054677 -0.0240825247
-1.3566401 -0.319696635 0.02362876199
-1.351310611 -0.3179425597 0.07055000961
-1.383184433 -0.3251875937 0.1205981672
-1.343737721 -0.3154183924 0.164336428
-1.337673664 -0.3135023415 0.2109252065
-1.360665083 -0.3183893859 0.263379246
-1.341803908 -0.313729316 0.3081795275
-1.346050501 -0.3142264187 0.3587752581
-1.363424897 -0.3162756562 -0.3634339869
-1.363341212 -0.3157551885 -0.3131284416
-1.367232203 -0.3161531985 -0.2645241022
-1.377145171 -0.318192631 -0.2171825767
-1.391361833 -0.3209655583 -0.1701861471
-1.376879692 -0.3171185851 -0.1199009195
-1.391831756 -0.3200504184 -0.07264344394
-1.385689259 -0.3183836639 -0.02411742881
-1.381179452 -0.3201402128 0.02404762059
-1.360250235 -0.3147888184 0.07096869498
-1.392131686 -0.3219108582 0.1212954074
-1.358424187 -0.3136170208 0.1660425812
-1.331114054 -0.3068226278 0.2096737176
-1.369475722 -0.3151616752 0.2649057209
-1.358138204 -0.3123026192 0.311778754
-1.343427181 -0.3084265292 0.3577399552
-1.360807776 -0.3104173243 -0.3623987138
-1.387290597 -0.3159486651 -0.3185272813
-1.383642077 -0.3148637116 -0.2675770521
-1.389860034 -0.3157684803 -0.2190597802
-1.409896493 -0.3200618923 -0.1723797917
-1.381864309 -0.3131911755 -0.1202495396
-1.396836281 -0.3160719275 -0.07285278291
-1.400445461 -0.3166316748 -0.02436176315
-1.386242747 -0.31596452 0.02411742881
-1.384709358 -0.3153608143 0.07222475111
-1.385531068 -0.3150393069 0.1205981672
-1.37311554 -0.3117122352 0.1677487642
-1.341809273 -0.304359138 0.2112380713
-1.37056756 -0.3103793561 0.2649057209
-1.370624065 -0.3101406991 0.314478159
-1.352033138 -0.3054379225 0.3598105311
-1.375023961 -0.3088667393 -0.3660221994
-1.395936728 -0.3130521774 -0.3203268945
-1.39617312 -0.3128492534 -0.2698667347
-1.387044072 -0.310295254 -0.2184340507
-1.428385496 -0.3192819953 -0.1745734513
-1.398451924 -0.3120785952 -0.121644035
-1.405674696 -0.3131753802 -0.07327146828
-1.419055104 -0.3158965111 -0.02467590757
-1.387282968 -0.311366111 0.02411742881
-1.409133792 -0.3160117269 0.07348082215
-1.402122021 -0.3139256835 0.1219926476
-1.381890774 -0.3088891804 0.1687237173
-1.362089872 -0.3042135835 0.2143667489
-1.379254103 -0.3075416982 0.2664321959
-1.38686192 -0.3089840114 0.3180773854
-1.368124843 -0.3043082952 0.3639516234
-1.393017173 -0.3080595434 -0.3706809282
-1.395064354 -0.3080011904 -0.3198769987
-1.420208693 -0.3132926226 -0.2744461596
-1.411215067 -0.3107921481 -0.2221884727
-1.437246442 -0.3159994483 -0.1755484045
-1.41504705 -0.3108593524 -0.1230385303
-1.414509058 -0.3102239966 -0.07369016111
-1.431869507 -0.3135072887 -0.02488533594
-1.407833934 -0.3110784888 0.02446647733
-1.406327605 -0.3102304935 0.07327146828
-1.418720961 -0.3127051294 0.123387143
-1.388723612 -0.3055847585 0.1694549322
-1.386295915 -0.3045432568 0.2181211859
-1.395607233 -0.3063334823 0.2694851458
-1.395546436 -0.3058095872 0.3198769987
-1.384276509 -0.3028336465 0.3680927455
-1.409185767 -0.3064795136 -0.3748220503
-1.405652761 -0.3051970005 -0.322126478
-1.428968072 -0.3099984527 -0.2759726346
-1.420013905 -0.3075366616 -0.2234399468
-1.442221284 -0.3118192255 -0.176035881
-1.435598135 -0.3101249635 -0.1247816384
-1.439011931 -0.3103367388 -0.07494622469
-1.438819885 -0.3097701669 -0.02499005012
-1.416727543 -0.3078608215 0.02460609563
-1.415209293 -0.3070136309 0.07369016111
-1.443169951 -0.3128156662 0.1254788935
-1.395602345 -0.3019951284 0.1701861471
-1.391212106 -0.3005365133 0.2187469155
-1.415858388 -0.3056024313 0.2733013034
-1.396605372 -0.3009363115 0.3198769987
-1.398545623 -0.3008436263 0.3717162013
-1.414025187 -0.3023665547 -0.3758573234
-1.418144226 -0.3027297556 -0.3248258829
-1.43388164 -0.305827558 -0.276735872
-1.448127508 -0.308337599 -0.2278201133
-1.451067924 -0.3084338903 -0.1770108342
-1.444467664 -0.3067678213 -0.1254788935
-1.440086365 -0.3053117394 -0.07494622469
-1.445761442 -0.3059876263 -0.02509476431
-1.445171475 -0.3087625802 0.02509476431
-1.431898952 -0.3054046631 0.07452753931
-1.452047706 -0.3094368279 0.1261761338
-1.416064382 -0.3012523353 0.17262353
-1.390320539 -0.2952683568 0.2184340507
-1.436121583 -0.3047334254 0.2771174908
-1.416711569 -0.3000980616 0.3243759871
-1.409037471 -0.2979582846 0.374304384
-1.416962624 -0.2978264987 -0.3763749301
-1.43635726 -0.301379174 -0.3288750052
-1.438783526 -0.3016257584 -0.2774991095
-1.460796237 -0.3057085872 -0.2296973467
-1.465737581 -0.3062087297 -0.1787169874
-1.449430227 -0.3025379777 -0.1258275062
-1.464606404 -0.305172205 -0.07620228827
-1.454652071 -0.3025679886 -0.0252343826
-1.450154543 -0.3045383692 0.02516457438
-1.452504039 -0.3045020998 0.07557425648
-1.439468503 -0.3015074432 0.1249559522
-1.4365381 -0.3003699481 0.175060913
-1.404878616 -0.293238759 0.2206241339
