# .PCD v0.7 - Point Cloud Data file format
VERSION 0.7
FIELDS x y z
SIZE 4 4 4
TYPE F F F
COUNT 1 1 1
WIDTH 1280
HEIGHT 1
VIEWPOINT 0 0 0 1 0 0 0
POINTS 1280
DATA ascii
0.4574467242 5.505213261 -0.8682629466
0.461262852 5.527757645 -0.6759439707
0.3908504546 4.6740942 -0.4066433012
0.4642850757 5.52904129 -0.2885816097
0.467953831 5.549469471 -0.09651000798
0.4572967589 5.550357819 0.09651000798
0.4583536386 5.539557457 0.2891049683
0.4601932764 5.550004482 0.4835146666
0.4583213925 5.504098892 0.6730191112
0.459012121 5.489224911 0.8657599688
0.4608000517 5.499017239 1.064395547
0.4603333771 5.470500469 1.257473111
0.460898757 5.454464436 1.455132723
0.3938036859 4.593515873 -1.223748565
0.4257061183 4.945385933 -1.135999441
0.474740684 5.503743649 -1.065540314
0.4770004749 5.507519245 -0.8688886166
0.4809009731 5.530069828 -0.6764314771
0.4030118287 4.62506485 -0.40245983
0.484105885 5.53335619 -0.288895607
0.4860962331 5.533858299 -0.09626568109
0.4763275087 5.544743061 0.09644020349
0.4776889682 5.537923336 0.2891049683
0.478535682 5.536454201 0.4824687839
0.477876246 5.506421089 0.6735065579
0.4767973721 5.471846104 0.8632570505
0.4805035889 5.503243446 1.065540314
0.4790820479 5.464978218 1.2565732
0.479598254 5.448973656 1.454097509
0.4112084806 4.607506275 -1.227889657
0.4864448309 5.429111004 -1.248475075
0.4920172393 5.48054266 -1.061342478
0.4951599836 5.494015694 -0.8670114279
0.4998426437 5.524403095 -0.6759439707
0.4196947217 4.629582405 -0.4029827714
0.5043218136 5.541577339 -0.2894189656
0.5054115057 5.532127857 -0.09626568109
0.4953220189 5.539063454 0.09637039155
0.4973729849 5.540200233 0.2893142998
0.4971434772 5.52681303 0.4817715585
0.4981643856 5.516581535 0.6749690175
0.4958962202 5.470148087 0.8632570505
0.4984688461 5.487845421 1.062869072
0.4988647699 5.471035004 1.258372784
0.4972058833 5.431875706 1.449956298
0.2581216991 2.782477379 -0.7371687293
0.5082853436 5.458425045 -1.255673409
0.5113261342 5.480747223 -1.061724186
0.5139677525 5.488320351 -0.8663856983
0.5194964409 5.526577473 -0.6764314771
0.519356966 5.514763832 -0.4809000194
0.5221602917 5.52387619 -0.2885816097
0.5239413381 5.532411575 -0.09630057961
0.5135449767 5.525352955 0.09616096318
0.5161141753 5.542498112 0.2895236611
0.516063273 5.521076202 0.4814229608
0.5166748762 5.506903648 0.6739940047
0.5144044161 5.472406864 0.8638827205
0.5165116787 5.47434473 1.0605793
0.5183281302 5.473140717 1.259272695
0.5155797601 5.434043884 1.450991631
0.2622787654 2.723870516 -0.7216395736
0.5239470601 5.431492805 -1.249824643
0.5302666426 5.476974487 -1.061342478
0.5321663618 5.486586094 -0.8663856983
0.5370498896 5.516921043 -0.6754564643
0.5393776298 5.520849228 -0.4815972447
0.5398905277 5.516151428 -0.2882675827
0.5442261696 5.540500164 -0.09647510946
0.5310971737 5.515658379 0.09602134675
0.5343040228 5.528734684 0.288895607
0.535718441 5.523207188 0.4817715585
0.5343592167 5.499232769 0.6732628345
0.535230577 5.48827219 0.8666985631
0.5352366567 5.478464127 1.061724186
0.5357156992 5.463634014 1.257473111
0.5349248052 5.436056137 1.452026963
0.4682097435 4.699144363 -1.253771544
0.5476449132 5.467371941 -1.059816003
0.5517061949 5.488626003 -0.8670114279
0.5555061698 5.50711298 -0.6744815111
0.5592491627 5.524879456 -0.4821201861
0.5593451858 5.516219616 -0.2883722484
0.5619448423 5.522650719 -0.0961958617
0.5515376925 5.525710106 0.09623077512
0.5528048873 5.518886566 0.288476944
0.5548229814 5.529330254 0.4824687839
0.55275774 5.489432812 0.6722878814
0.5525938272 5.468682766 0.8638827205
0.5545559525 5.478515148 1.062105775
0.5532048941 5.446220398 1.253873825
0.5538983941 5.434155464 1.452026963
0.5586454868 5.396688938 -1.242626309
0.5660563111 5.449706554 -1.056763172
0.5718181133 5.48656702 -0.8670114279
0.5743154287 5.501190662 -0.6739940047
0.5772819519 5.511004925 -0.4810743034
0.5797669291 5.51611948 -0.288476944
0.5793309808 5.502758026 -0.09588173032
0.5716463327 5.531707287 0.09637039155
0.5714442134 5.510963917 0.2881629169
0.5738496184 5.515369892 0.4814229608
0.5727354288 5.495368481 0.6732628345
0.5704484582 5.454932213 0.8620054722
0.5748356581 5.478398323 1.062487364
0.5735694766 5.448032856 1.254773617
0.5724573731 5.428346634 1.450991631
0.5018240213 4.695673943 -1.253771544
0.5748046637 5.352047443 -1.038063884
0.5901212692 5.476681232 -0.8657599688
0.5953266621 5.506943703 -0.6749690175
0.595658958 5.501032829 -0.4803770781
0.5988013148 5.512076378 -0.2883722484
0.6005829573 5.510536671 -0.09605624527
0.590638876 5.517644405 0.09616096318
0.5924962163 5.516775131 0.2885816097
0.5926709771 5.509370804 0.4810743034
0.5928771496 5.49323225 0.6732628345
0.5904367566 5.452804565 0.8620054722
0.5928983688 5.466599464 1.0605793
0.59258461 5.445997238 1.254773617
0.5915096402 5.418530464 1.448921084
0.5050653219 4.574841976 -1.221677899
0.5963908434 5.384805202 -1.240826607
0.5936960578 5.351960182 -1.038445473
0.6070515513 5.454955578 -0.8626312613
0.6149877906 5.508777618 -0.6754564643
0.6150803566 5.500899792 -0.480551362
0.6175946593 5.505982876 -0.2881629169
0.6200371385 5.510394096 -0.09609115869
0.6081387401 5.499649048 0.09588173032
0.6119661927 5.516658783 0.2886862755
0.6110200882 5.499347687 0.4803770781
0.6118247509 5.489155769 0.6730191112
0.6099075079 5.454637051 0.8626312613
0.6113175154 5.458643913 1.059434414
0.6120275855 5.447768211 1.255673409
0.6104217172 5.416432858 1.448921084
0.5302177072 4.65366745 -1.243418813
0.6161712408 5.383013725 -1.044932961
0.6260880828 5.452803612 -0.8626312613
0.6323439479 5.498819828 -0.6744815111
0.6338205338 5.49476099 -0.4802027345
0.6358935833 5.495857239 -0.2877442241
0.6389962435 5.514266968 -0.0961958617
0.6266510487 5.491531849 0.09577701241
0.6295778751 5.508646011 0.2883722484
0.6306679845 5.501140118 0.4807256758
0.6291689873 5.471210003 0.6710692048
0.6277678609 5.450621605 0.8623183966
0.6299188137 5.452575684 1.058671236
0.6296432614 5.441837311 1.254773617
0.6279333234 5.410540104 1.447885752
0.6125349402 5.20643568 -1.200335503
0.6275874972 5.326347351 -1.034247637
0.6453248262 5.460505962 -0.8641956449
0.6496434808 5.488807201 -0.6735065579
0.6529794335 5.500543118 -0.4809000194
0.6543500423 5.49570179 -0.2878488898
0.6558597088 5.500204086 -0.09598644078
0.6460235715 5.499353886 0.09595153481
0.6471405625 5.50057745 0.2880582511
0.6493702531 5.502976418 0.4810743034
0.6473101974 5.4690938 0.6710692048
0.6456030607 5.446548462 0.8620054722
0.6486935616 5.456305504 1.059816003
0.6467629075 5.431979179 1.252974033
0.6472478509 5.419937611 1.450991631
0.6340122223 5.239199162 -1.208433628
0.6537442803 5.386491299 -1.046459436
0.663430512 5.458335876 -0.8641956449
0.6687978506 5.486505985 -0.6735065579
0.6712076068 5.490319252 -0.4802027345
0.6747437716 5.503295898 -0.2883722484
0.6743226647 5.491927147 -0.09588173032
0.6659373045 5.511078358 0.0961958617
0.6658581495 5.494319439 0.2878488898
0.6671365499 5.496836662 0.4807256758
0.6659214497 5.470858097 0.6715566516
0.6634157896 5.434457779 0.8604412079
0.6689274311 5.463751316 1.061724186
0.6657189727 5.429688454 1.252974033
0.6652188301 5.409976006 1.448921084
0.5747707486 4.62112236 -1.236171842
0.6790882945 5.428863525 -1.055236578
0.6834306717 5.455867767 -0.8641956449
0.6898935437 5.491896152 -0.6744815111
0.6903313994 5.479914665 -0.4795055091
0.6939073205 5.492860317 -0.2879535556
0.6941974759 5.48743391 -0.0958468169
0.6846504211 5.496694565 0.09598644078
0.6864878535 5.49580574 0.2880582511
0.6857966781 5.482492924 0.4796798229
0.6867112517 5.474289417 0.6722878814
0.6833284497 5.43198967 0.8604412079
0.6867384911 5.443732738 1.058289647
0.6861025095 5.431078911 1.253873825
0.6835874915 5.396001816 1.445815325
0.5877777934 4.588324547 -1.227889657
0.6642068028 5.17062664 -1.193586826
0.6970314384 5.418672085 -1.053710103
0.7029188275 5.449408054 -0.8635698557
0.710016489 5.489331245 -0.6744815111
0.7084308863 5.469568729 -0.478808254
0.7133354545 5.492385387 -0.2880582511
0.7163700461 5.500716686 -0.09612605721
0.7037732005 5.486214161 0.0958468169
0.7068799734 5.495233536 0.2881629169
0.7058852315 5.479942322 0.4796798229
0.7065154314 5.469767094 0.672044158
0.7037419677 5.433367252 0.8610669374
0.7054828405 5.439355373 1.057908058
0.7070105076 5.436257362 1.255673409
0.7038587332 5.39729166 1.446850657
0.6042960286 4.590076447 -1.22892499
0.7123447657 5.396250248 -1.246675372
0.7164579034 5.420097828 -1.0544734
0.7203779817 5.435171127 -0.861692667
0.7286518216 5.482882977 -0.6739940047
0.7285690308 5.474961758 -0.4795055091
0.7306554914 5.47600317 -0.2873255312
0.73662889 5.506110668 -0.09626568109
0.7223954797 5.479759216 0.09577701241
0.7260590792 5.492732048 0.2881629169
0.7260566354 5.485345364 0.4803770781
0.7240386605 5.455460548 0.6705816984
0.7234842181 5.436751366 0.8620054722
0.7247262001 5.43880558 1.058289647
0.7249488235 5.426030159 1.253873825
0.7226958871 5.394801617 1.446850657
0.6213468909 4.59559679 -1.230995536
0.7180893421 5.297177315 -1.224180222
0.7343132496 5.409783363 -1.052946925
0.7409456968 5.444367409 -0.8635698557
0.7467116714 5.472438812 -0.6730191112
0.7487560511 5.48028183 -0.4802027345
0.7508490086 5.481335163 -0.2877442241
0.7544853687 5.493600368 -0.09609115869
0.742593646 5.485130787 0.09591662884
0.7441495061 5.482248306 0.2877442241
0.7462718487 5.490674496 0.4810743034
0.7433416843 5.45486784 0.6708254814
0.7421916127 5.432235241 0.861692667
0.7442378402 5.440133572 1.059052825
0.7417677641 5.408020973 1.250274658
0.7420480251 5.396073341 1.447885752
0.6357927918 4.58191824 -1.227889657
0.7473151088 5.371844292 -1.242176294
0.7515687346 5.395519733 -1.050657272
0.7591248155 5.43587923 -0.8626312613
0.765260458 5.465867519 -0.6725316644
0.7678800821 5.477634907 -0.4802027345
0.7694233656 5.47472477 -0.2875348926
0.7719792724 5.47905302 -0.09588173032
0.761737287 5.482504845 0.09591662884
0.7632830739 5.479617119 0.2877442241
0.7637834549 5.476196289 0.4800284207
0.7634792328 5.460103512 0.6718004346
0.7600510716 5.421786785 0.8604412079
0.764313221 5.445278645 1.0605793
0.7622690201 5.416977406 1.252974033
0.7603411078 5.389624596 1.446850657
0.6490620375 4.560545444 -1.222713232
0.7701920271 5.39814043 -1.248924851
0.7703993917 5.392863274 -1.050657272
0.7783763409 5.4351511 -0.8629441261
0.7854599357 5.471023083 -0.6735065579
0.7861469984 5.469005108 -0.4796798229
0.7896647453 5.479913712 -0.2879535556
0.7910023928 5.482400417 -0.09598644078
0.7811484337 5.48179245 0.09595153481
0.7820156217 5.48100996 0.2879535556
0.7823263407 5.469552994 0.4796798229
0.7833806276 5.463299751 0.6725316644
0.7780251503 5.41923666 0.8604412079
0.7816396356 5.430918217 1.058289647
0.7811745405 5.414283752 1.252974033
0.7771036029 5.379425526 1.444779992
0.6683229208 4.58119154 -1.22892499
0.7897869945 5.394026279 -1.05142045
0.7949619889 5.422767639 -0.8613798022
0.8053313494 5.480172157 -0.6749690175
0.8063955307 5.474112034 -0.4803770781
0.8084167838 5.481216431 -0.2881629169
0.8115984797 5.489495754 -0.09616096318
0.7981692553 5.471256733 0.09581191838
0.8017226458 5.482199669 0.2881629169
0.8014153242 5.466788292 0.4796798229
0.800630033 5.454779625 0.6718004346
0.7975136042 5.420396805 0.8610669374
0.7987880111 5.422469616 1.057144761
0.8002622724 5.419374466 1.254773617
0.7958754897 5.376680851 1.444779992
0.6817988157 4.567485809 -1.225819111
0.7749058008 5.178845406 -1.198985696
0.8082505465 5.395261288 -1.052183747
0.8135943413 5.41800642 -0.8610669374
0.8232753277 5.469475269 -0.6739940047
0.8251365423 5.475347996 -0.4807256758
0.8251597881 5.462561607 -0.2873255312
0.8309928179 5.494683266 -0.09630057961
0.8184463978 5.476347923 0.09595153481
0.8193030953 5.475560665 0.2879535556
0.8213140965 5.475922585 0.4807256758
0.8178912401 5.440173626 0.670337975
0.8166614771 5.425535679 0.8623183966
0.8180001974 5.421589375 1.05752635
0.8180103302 5.408840656 1.252974033
0.8148566484 5.381652355 1.446850657
0.7006582022 4.584174633 -1.230995536
0.7867708206 5.141573429 -1.19088757
0.8258895278 5.384644508 -1.050657272
0.8330546618 5.425041199 -0.8626312613
0.8395953774 5.454943657 -0.6725316644
0.8442428708 5.472434044 -0.4807256758
0.843878448 5.46374321 -0.2875348926
0.8477192521 5.475940704 -0.09602134675
0.8366010189 5.473603725 0.09595153481
0.8381103277 5.470693588 0.2878488898
0.8404225111 5.473022461 0.4807256758
0.8359285593 5.437431335 0.670337975
0.8352931142 5.42069912 0.8620054722
0.8371732831 5.426608562 1.059052825
0.8341569304 5.394543171 1.250274658
0.8348221183 5.38641119 1.448921084
0.7152608633 4.578008652 -1.229960203
0.8047124147 5.138795853 -1.19088757
0.8428303599 5.376057148 -1.049512386
0.8532117605 5.429905891 -0.8638827205
0.8586304188 5.451980114 -0.6725316644
0.8627203107 5.465517998 -0.4803770781
0.8635676503 5.464710236 -0.2877442241
0.8662044406 5.468997002 -0.09595153481
0.8569374681 5.478553772 0.09609115869
0.8559656143 5.459841251 0.2874302268
0.8585659266 5.470205307 0.4807256758
0.8564475179 5.444284916 0.6715566516
0.8514398932 5.400189877 0.8591897488
0.8561120033 5.423653126 1.059052825
0.853587687 5.395448208 1.251174331
0.8524077535 5.375832558 1.446850657
0.7302030325 4.563910484 -1.226854324
0.8476113677 5.291815758 -1.227329612
0.8622165918 5.370994091 -1.049130797
0.8718539476 5.418941021 -0.8626312613
0.8789201975 5.45678854 -0.6735065579
0.8798869252 5.450671673 -0.4793311954
0.8842303157 5.465451717 -0.2879535556
0.8852884173 5.465940475 -0.09595153481
0.8760573864 5.475529194 0.09609115869
0.8765987754 5.466680527 0.2879535556
0.8760817647 5.451284409 0.4793311954
0.8770219088 5.451062202 0.6727753878
0.8709151149 5.401084423 0.8598154187
0.8753573298 5.416602612 1.058289647
0.8739817739 5.396131039 1.252074242
0.8699323535 5.365196228 1.444779992
0.7461307645 4.561333656 -1.226854324
0.8818172812 5.379058838 -1.248475075
0.8815968633 5.371825695 -1.049893975
0.8891602755 5.40611887 -0.8610669374
0.9002045989 5.461365223 -0.6744815111
0.9005096555 5.451341629 -0.4796798229
0.9033018351 5.462331772 -0.2879535556
0.9059714675 5.46660471 -0.09602134675
0.8928874731 5.452547073 0.09574211389
0.897277534 5.467372417 0.2881629169
0.895749867 5.452125549 0.4796798229
0.8960289955 5.441934586 0.672044158
0.8926336765 5.40955019 0.861692667
0.8936209083 5.409639359 1.05752635
0.8940870166 5.400737286 1.253873825
0.8902221322 5.365783691 1.445815325
0.7641183734 4.56619072 -1.22892499
0.8931819201 5.331742764 -1.238127232
0.9025787115 5.376302719 -1.05142045
0.9102809429 5.410615444 -0.8623183966
0.9186048508 5.454273701 -0.6739940047
0.9208580852 5.456023693 -0.4803770781
0.9213190675 5.447167873 -0.2873255312
0.9260483384 5.469324112 -0.09612605721
0.9138966203 5.461230278 0.09595153481
0.915694952 5.460268021 0.2879535556
0.9170491099 5.456665039 0.4803770781
0.9120542407 5.421155453 0.6698504686
0.9121693969 5.410297394 0.8623183966
0.9140952229 5.410200119 1.058289647
0.9132238626 5.39358139 1.252974033
0.9089481831 5.362643242 1.445815325
0.7797580957 4.571384907 -1.230995536
0.9180825949 5.371010303 -1.24802506
0.9181388021 5.365700722 -1.049893975
0.9302779436 5.425251007 -0.8651341796
0.9353410602 5.44337225 -0.6730191112
0.9382685423 5.449013233 -0.4800284207
0.9384288788 5.444246292 -0.2873255312
0.9428176284 5.458341599 -0.09598644078
0.9326738119 5.462112427 0.09602134675
0.9331220388 5.453264236 0.2877442241
0.9355316162 5.461612225 0.4810743034
0.9303611517 5.420057774 0.6700942516
0.9294347167 5.403348923 0.861692667
0.9310863018 5.407301903 1.058289647
0.9281771183 5.379163742 1.250274658
0.9280443788 5.367213249 1.447885752
0.795843184 4.564689636 -1.229960203
0.9381669164 5.375451565 -1.249824643
0.9354302883 5.348762512 -1.047222614
0.9508396387 5.42569685 -0.8657599688
0.9536492229 5.436164379 -0.6725316644
0.9586647153 5.453553677 -0.4807256758
0.9590684772 5.444705009 -0.2875348926
0.9611719251 5.451077938 -0.09591662884
0.9531071186 5.466702938 0.09616096318
0.9521532655 5.449973583 0.2877442241
0.9541702271 5.450296402 0.4803770781
0.9503045082 5.422643185 0.6708254814
0.9455584884 5.384507179 0.8591897488
0.9515781403 5.407720566 1.059052825
0.9478853345 5.375725746 1.250274658
0.9460986853 5.360137463 1.446850657
0.8097425699 4.550471783 -1.226854324
0.9561511874 5.362385273 -1.247575164
0.966989696 5.406788826 -0.8632570505
0.9735713601 5.432631969 -0.6725316644
0.9741761684 5.430562973 -0.4789825678
0.9808964133 5.457049847 -0.2883722484
0.9794844985 5.443753242 -0.0958468169
0.9713852406 5.45333004 0.09598644078
0.9715209007 5.448583126 0.2878488898
0.9710884094 5.435163975 0.4793311954
0.9722707272 5.430847645 0.6722878814
0.9657433629 5.388950825 0.8604412079
0.9697562456 5.400500774 1.058289647
0.9673333168 5.376219749 1.251174331
0.963434875 5.349196434 1.444779992
0.8283836842 4.562824249 -1.230995536
0.9739270806 5.359185219 -1.247575164
0.8960789442 4.921035767 -0.9640299082
0.8974208832 4.923543453 -0.7859784365
0.9091954827 4.97827816 -0.6162279844
0.9968270063 5.441979885 -0.2877442241
0.9999262691 5.448168755 -0.09598644078
0.9866076112 5.434338093 0.09570720047
0.9912504554 5.449088573 0.2880582511
0.9914800525 5.439582348 0.4800284207
0.9899199605 5.425640583 0.672044158
0.984544754 5.385547638 0.8604412079
0.9862475395 5.389530182 1.056763172
0.9858580828 5.37681675 1.252074242
0.9828007817 5.349600792 1.445815325
0.8435069323 4.560052395 -1.230995536
0.986592412 5.323178291 -1.239926934
0.9148962498 4.931550026 -0.9667012095
0.9149640799 4.922322273 -0.7862912416
1.015082359 5.434540272 -0.2875348926
1.020042896 5.450541973 -0.09609115869
1.006297946 5.434793472 0.09577701241
1.009532928 5.44166851 0.2878488898
1.009514451 5.436264515 0.4800284207
1.00667572 5.410442352 0.6705816984
1.004787326 5.389845371 0.861692667
1.005055904 5.386054039 1.056763172
1.00533843 5.377173901 1.252974033
1.002178669 5.349935532 1.446850657
0.8601365685 4.560876369 -1.232030749
0.9935885668 5.258427143 -1.225530028
0.9302819967 4.918680668 -0.9647930861
0.9321395755 4.919098854 -0.7862912416
0.9405959845 4.954257488 -0.6140343547
0.943374753 4.964179039 -0.4383679926
1.033300519 5.427039146 -0.2873255312
1.037559986 5.439091206 -0.09595153481
1.026748061 5.439107418 0.09591662884
1.027038574 5.430261612 0.2874302268
1.029227018 5.43662262 0.4803770781
1.025551796 5.406896114 0.6705816984
1.023594022 5.386305332 0.861692667
1.026048183 5.394086361 1.059052825
1.021914601 5.362145424 1.250274658
1.022298098 5.353994846 1.448921084
0.8767822385 4.561640263 -1.233065963
1.02999568 5.34869194 -1.247575164
0.9467039108 4.911547661 -0.9640299082
0.9515534639 4.927452087 -0.7881684899
0.9578803778 4.950944424 -0.6140343547
0.9599410295 4.956943512 -0.4380193949
1.049191236 5.407714844 -0.2864881754
1.049874187 5.406175137 -0.09542796761
1.045724034 5.435491085 0.09591662884
1.04579699 5.430747509 0.2876395583
1.046684742 5.425172329 0.4796798229
1.046304345 5.413028717 0.6718004346
1.03844738 5.367366791 0.8591897488
1.045619369 5.394325733 1.059816003
1.040624619 5.35854578 1.250274658
1.038571358 5.342990398 1.446850657
0.8889864087 4.539593697 -1.227889657
1.048100591 5.347159386 -1.24802506
0.9623283744 4.90050745 -0.9625034332
0.9671252966 4.92039299 -0.7875427008
0.9762120247 4.957479 -0.6152530313
0.9749256968 4.94183445 -0.4369735122
1.064798117 5.392449379 -0.2858601213
1.065247655 5.384822369 -0.09511382133
1.055289984 5.388819695 0.09514871985
1.057827711 5.391785622 0.2857554555
1.057163477 5.378475666 0.4758449793
1.055819988 5.366677761 0.6664381623
1.048010111 5.317194462 0.8516808152
1.055143595 5.348453522 1.05142045
1.060654521 5.36653614 1.252974033
1.055713534 5.3317523 1.444779992
0.9062998295 4.547988892 -1.230995536
1.06599772 5.339645863 -1.247125268
0.9801115394 4.904990196 -0.9640299082
0.9831328392 4.911176205 -0.7866041064
0.9950734973 4.961826324 -0.6162279844
0.9936597347 4.950294971 -0.4380193949
1.08282876 5.384783268 -0.2856507897
1.085616231 5.388912201 -0.09525343776
1.071748614 5.373336792 0.09493929893
1.077812433 5.393936634 0.2860694826
1.074994802 5.374939919 0.4758449793
1.073763013 5.35906744 0.6659506559
1.068120718 5.321250439 0.8529323339
1.07071197 5.329339504 1.0483675
1.0801512 5.366621494 1.253873825
1.07431972 5.328033924 1.444779992
0.9229391813 4.548583508 -1.232030749
0.9984027147 4.907310486 -0.9651747346
1.000268936 4.907714844 -0.7866041064
1.011594534 4.954432487 -0.6157405376
1.012528062 4.954604626 -0.4387166202
1.100017667 5.373143196 -0.2852320969
1.104821086 5.387049198 -0.09528834373
1.092487335 5.379362106 0.09511382133
1.095042944 5.382312775 0.2856507897
1.094544172 5.375059605 0.4761935771
1.092861414 5.357232094 0.6661944389
1.089060783 5.329102039 0.8548095226
1.089307189 5.325570107 1.0483675
1.097311735 5.355182648 1.252074242
1.095243692 5.335605621 1.447885752
0.9395916462 4.549118519 -1.233065963
1.082717419 5.232841492 -1.223730445
1.015525341 4.903795719 -0.9651747346
1.018197775 4.908061028 -0.7872298956
1.027266026 4.943097115 -0.6147655845
1.03108561 4.952810764 -0.4388909042
1.117950916 5.365361214 -0.2850227654
1.122802854 5.379244328 -0.09521853179
1.111257076 5.375515461 0.09511382133
1.111392856 5.366723061 0.2850227654
1.114918947 5.379009724 0.476890862
1.109535933 5.343666077 0.6649757028
1.106048465 5.317531586 0.8535580635
1.110689998 5.335189819 1.051038861
1.115203857 5.347503662 1.251174331
1.115440845 5.339314461 1.449956298
0.9570552707 4.549424648 -1.234101295
1.08852911 5.169915676 -1.209783316
1.031872272 4.892356396 -0.9636482
1.039445519 4.919757843 -0.7897328138
1.043691874 4.93559742 -0.6142780781
1.047543526 4.945282936 -0.4385423064
1.140094519 5.372950077 -0.2856507897
1.141156554 5.373336315 -0.09518363327
1.130427361 5.373560429 0.09514871985
1.131768227 5.37062788 0.2854414582
1.134625316 5.374887466 0.476890862
1.129824877 5.347528934 0.6659506559
1.124193311 5.311706543 0.8532451987
1.129831314 5.329162121 1.050657272
1.134794712 5.343380451 1.251174331
1.1316607 5.324050903 1.446850657
0.971311748 4.538499832 -1.232030749
1.108288884 5.169701576 -1.210683227
1.05017817 4.894483566 -0.9647930861
1.053708076 4.902580738 -0.7875427008
1.063029408 4.937560558 -0.6150093079
1.062702298 4.931857586 -0.4376707375
1.161372423 5.380650997 -0.2862788141
1.159485221 5.36736536 -0.09514871985
1.150116205 5.369380951 0.09514871985
1.152184367 5.374455929 0.2858601213
1.150871754 5.3592062 0.4758449793
1.150250673 5.347233772 0.6664381623
1.142729163 5.307749748 0.8532451987
1.148839355 5.327105045 1.051038861
1.155087113 5.347006321 1.252974033
1.149420619 5.316291809 1.445815325
0.987971127 4.538856983 -1.233065963
1.127499104 5.175518513 -1.212932825
1.068095207 4.894624233 -0.9655563235
1.068694472 4.893270016 -0.7866041064
1.081941605 4.945643425 -0.6164717078
1.080763102 4.932010651 -0.4380193949
1.186053634 5.407984734 -0.2879535556
1.189368248 5.414066315 -0.09605624527
1.169615626 5.373353004 0.09528834373
1.17774415 5.401624203 0.2875348926
1.178923488 5.397979736 0.4796798229
1.176879883 5.384114742 0.6715566516
1.169276118 5.34039259 0.8591897488
1.165239096 5.317512512 1.049893975
1.174482226 5.350759983 1.254773617
1.167972326 5.312246799 1.445815325
1.004686952 4.543100834 -1.235136509
1.138813853 5.141109467 -1.205734372
1.086021543 4.898721695 -0.9670827985
1.086624026 4.893366814 -0.7872298956
1.097044826 4.93214798 -0.6152530313
1.099275947 4.938123703 -0.4388909042
1.202317119 5.392114639 -0.2873255312
1.209568739 5.415736198 -0.09616096318
1.19527781 5.400476933 0.0958468169
1.200916409 5.416978359 0.2885816097
1.198542476 5.401821136 0.4803770781
1.193945527 5.372222424 0.6705816984
1.19134295 5.351703644 0.861692667
1.184222102 5.315329075 1.050275683
1.192302704 5.342823982 1.253873825
1.187352777 5.311908245 1.446850657
1.017993689 4.52825737 -1.232030749
1.163175464 5.16561985 -1.21248281
1.100090027 4.881494999 -0.9644114971
1.105874419 4.899178028 -0.7887941599
1.113377929 4.924416065 -0.6147655845
1.118706465 4.943972588 -0.4397625029
1.222013712 5.39178133 -0.2875348926
1.227581978 5.407581329 -0.09609115869
1.215879083 5.404075623 0.09598644078
1.21630156 5.397167683 0.2877442241
1.220022559 5.409265518 0.4814229608
1.213124633 5.369959831 0.6708254814
1.20914638 5.343659401 0.8610669374
1.204065919 5.316907883 1.05142045
1.208360195 5.327226162 1.251174331
1.207598448 5.315267086 1.448921084
1.034655809 4.528443336 -1.233065963
1.195544481 5.224215984 -1.227329612
1.116247535 4.873797417 -0.9636482
1.123851418 4.899139404 -0.7894199491
1.130561948 4.920499325 -0.6147655845
1.131937861 4.922562122 -0.4381936789
1.24127686 5.389428616 -0.2876395583
1.243749857 5.391572952 -0.09588173032
1.236965537 5.409544468 0.09616096318
1.237810493 5.404569626 0.2883722484
1.236227632 5.393321037 0.4803770781
1.233640075 5.373431206 0.6718004346
1.226905227 5.335555553 0.8604412079
1.224821091 5.322238922 1.053328514
1.226947188 5.322976112 1.251174331
1.226146221 5.311018944 1.448921084
1.050458074 4.524803638 -1.233065963
1.233635545 5.305425644 -1.247575164
1.134144783 4.873695374 -0.9644114971
1.139601946 4.889414787 -0.7884813547
1.148629904 4.920390129 -0.6152530313
1.149115205 4.918580532 -0.4381936789
1.261898398 5.392843246 -0.2880582511
1.265301466 5.398880005 -0.09609115869
1.254932165 5.401299477 0.09609115869
1.25666976 5.400215626 0.2883722484
1.254138708 5.385093212 0.4800284207
1.253292561 5.372957706 0.6722878814
1.246422648 5.335087776 0.8610669374
1.241158128 5.308371544 1.05142045
1.2481879 5.330045223 1.253873825
1.242027164 5.295422554 1.445815325
1.067132115 4.524869919 -1.234101295
1.257076383 5.321948528 -1.252524137
1.149794221 4.863975525 -0.9632666111
1.154842973 4.877717495 -0.7872298956
1.167631626 4.92407608 -0.6162279844
1.167198658 4.9184165 -0.4385423064
1.280716777 5.388404846 -0.2880582511
1.283212066 5.390539646 -0.09602134675
1.270564437 5.383261681 0.0958468169
1.279187083 5.411346436 0.2892096341
1.272012711 5.376804829 0.4796798229
1.2724967 5.370482445 0.6725316644
1.26549542 5.332625866 0.8613798022
1.258318186 5.298276901 1.050275683
1.268590808 5.333238602 1.255673409
1.261400819 5.294812679 1.446850657
1.082021475 4.517359734 -1.233065963
1.269732594 5.292894363 -1.246675372
1.169516921 4.871386051 -0.9655563235
1.17278266 4.877498627 -0.7878555655
1.182955027 4.912250996 -0.6152530313
1.184356689 4.91431284 -0.4385423064
1.297176242 5.374193668 -0.2875348926
1.306251049 5.403520584 -0.09633549303
1.29074502 5.384627819 0.09595153481
1.29527235 5.395195007 0.2885816097
1.29263413 5.3800807 0.4803770781
1.287521362 5.350567341 0.6705816984
1.286412477 5.337778568 0.8629441261
1.278187275 5.299577713 1.05142045
1.285365701 5.321201801 1.253873825
1.281694055 5.297888279 1.448921084
1.100521922 4.52481842 -1.236171842
1.290969133 5.299789906 -1.249374747
1.183723092 4.855829716 -0.9632666111
1.189802408 4.873374939 -0.7878555655
1.198679328 4.902307034 -0.6145218015
1.200084209 4.904342651 -0.4380193949
1.316401958 5.371572495 -0.2876395583
1.322256207 5.3913908 -0.0961958617
1.30953455 5.380089283 0.09595153481
1.308900952 5.373405457 0.2876395583
1.313296556 5.383277893 0.4810743034
1.308545232 5.35568285 0.6718004346
1.30316925 5.329645157 0.8623183966
1.297144413 5.296990871 1.051802039
1.302077055 5.309111595 1.252074242
1.300177813 5.29736042 1.449956298
1.116308808 4.520949841 -1.236171842
1.308538318 5.295479298 -1.249374747
1.200664997 4.851668358 -0.9632666111
1.20880723 4.880906582 -0.7897328138
1.215406299 4.900231838 -0.6147655845
1.217195272 4.900124073 -0.4380193949
1.336133838 5.374931812 -0.2880582511
1.337684751 5.373158932 -0.09595153481
1.330243349 5.387365341 0.09616096318
1.328607559 5.372682095 0.2878488898
1.331123114 5.374792576 0.4807256758
1.325819373 5.349387169 0.6715566516
1.320814848 5.321228981 0.861692667
1.316121578 5.29837656 1.052946925
1.321558714 5.312328815 1.253873825
1.317723513 5.289041996 1.448921084
1.129418612 4.509726524 -1.234101295
1.328436017 5.296550274 -1.250724435
1.217704296 4.851468563 -0.9640299082
1.22535491 4.874742508 -0.7894199491
1.233474374 4.899809361 -0.6152530313
1.230518937 4.884468079 -0.4369735122
1.356843472 5.377980709 -0.288476944
1.356476068 5.372571468 -0.09602134675
1.349042177 5.382688999 0.09616096318
1.347875834 5.37405777 0.2881629169
1.346026063 5.358755112 0.4796798229
1.347391248 5.356276989 0.6730191112
1.338452339 5.316819668 0.861692667
1.332689881 5.28613472 1.05142045
1.3420012 5.315241337 1.255673409
1.333363771 5.277150154 1.446850657
1.143249154 4.498267174 -1.232030749
1.345030904 5.288339138 -1.249824643
1.233179212 4.841480255 -0.9628850222
1.237121105 4.853424549 -0.7866041064
1.251190305 4.901461601 -0.615984261
1.25101459 4.8936553 -0.4381936789
1.374671578 5.373451233 -0.288476944
1.378200769 5.379426003 -0.09623077512
1.364913106 5.370434284 0.09602134675
1.367610693 5.373191833 0.2883722484
1.366690636 5.361746788 0.4803770781
1.365635514 5.353703499 0.6732628345
1.357491255 5.314029694 0.8620054722
1.34972477 5.279784679 1.051038861
1.360585451 5.314538002 1.2565732
1.352737188 5.276206017 1.447885752
1.161839604 4.505473614 -1.235136509
1.253018022 4.84855175 -0.9651747346
1.255395293 4.850770473 -0.7869169712
1.267153382 4.889156818 -0.6150093079
1.267590165 4.887330055 -0.4380193949
1.391343236 5.356778622 -0.2878488898
1.400423884 5.384015083 -0.09640529752
1.384588957 5.365395069 0.09602134675
1.387296796 5.368142605 0.2883722484
1.387395144 5.364658833 0.4810743034
1.382761478 5.339053154 0.672044158
1.378944039 5.31666708 0.8632570505
1.37054801 5.280502796 1.052183747
1.379075885 5.305742741 1.255673409
1.374011755 5.278691292 1.449956298
1.184892535 4.529425144 -1.242901206
1.316169262 5.024086952 -1.189087868
1.2654531 4.827056408 -0.9617401958
1.274327755 4.854001522 -0.7881684899
1.283201575 4.88086462 -0.6145218015
1.285655141 4.88672924 -0.4383679926
1.407487869 5.342232227 -0.2873255312
1.413088918 5.355891705 -0.09598644078
1.406346679 5.372136593 0.09623077512
1.403493166 5.353608131 0.2878488898
1.406111717 5.359783649 0.4810743034
1.399878025 5.328433514 0.6713129282
1.396487951 5.308001041 0.8626312613
1.390473127 5.281382084 1.053328514
1.395599723 5.293359756 1.253873825
1.394403577 5.281333923 1.452026963
1.195740581 4.506589413 -1.237724781
1.401257634 5.273719311 -1.249824643
1.281284928 4.818815231 -0.9609768987
1.293298006 4.857158184 -0.7894199491
1.300743818 4.878273487 -0.6147655845
1.300138235 4.87258625 -0.4374964535
1.427675486 5.343075275 -0.2876395583
1.428670764 5.339336395 -0.09577701241
1.419446707 5.345933914 0.0958468169
1.420631289 5.342885971 0.2875348926
1.423789024 5.350991249 0.4807256758
1.419998765 5.329269886 0.672044158
1.414499998 5.301184654 0.8623183966
1.409402966 5.278393745 1.053710103
1.414069891 5.288455486 1.253873825
1.411829829 5.272702217 1.450991631
1.208453655 4.491194248 -1.234618902
1.420670748 5.272559166 -1.250724435
1.29809916 4.814312935 -0.9609768987
1.307669044 4.84307909 -0.7878555655
1.317765594 4.873703003 -0.6147655845
1.314535975 4.858402252 -0.4366248548
1.453109145 5.363119602 -0.2890002728
1.450966597 5.347826481 -0.09602134675
1.440700054 5.350601196 0.09602134675
1.443433762 5.353321075 0.2883722484
1.442460299 5.345988274 0.4807256758
1.440147638 5.330029964 0.6727753878
1.431447029 5.290494919 0.8613798022
1.427307725 5.271546841 1.053328514
1.435070038 5.292891502 1.256123304
1.428203225 5.260284424 1.448921084
1.227173328 4.498131275 -1.237724781
1.438554764 5.265688419 -1.250274658
1.319039583 4.824902534 -0.9640299082
1.320916891 4.825147629 -0.7856655121
1.335291386 4.870988846 -0.6150093079
1.332015395 4.855705261 -0.4367991984
1.468114138 5.344534397 -0.2882675827
1.471217632 5.34851265 -0.09612605721
1.4567312 5.335894585 0.0958468169
1.462113023 5.348249435 0.2883722484
1.461108804 5.340921879 0.4807256758
1.457172155 5.319225788 0.672044158
1.454087615 5.300705433 0.8638827205
1.445181847 5.264638901 1.052946925
1.455088019 5.293487072 1.257473111
1.446552753 5.255268097 1.448921084
1.242868543 4.49382019 -1.237724781
1.452761889 5.245611191 -1.246675372
1.335348129 4.818377018 -0.9636482
1.338276744 4.822412014 -0.7859784365
1.352287531 4.866297722 -0.6150093079
1.355363369 4.874060154 -0.4388909042
1.484619498 5.331680775 -0.2878488898
1.494173884 5.358754635 -0.09640529752
1.475349665 5.330777168 0.0958468169
1.480771899 5.343113422 0.2883722484
1.48080945 5.339628696 0.4810743034
1.473605156 5.306457043 0.6710692048
1.472583055 5.295597076 0.8638827205
1.464075327 5.261453629 1.053328514
1.473558307 5.288374901 1.257473111
1.468004704 5.261350632 1.452026963
1.263763189 4.508055687 -1.242901206
1.468431711 5.231126308 -1.244425893
1.350567818 4.808015823 -0.9625034332
1.355103135 4.817710876 -0.7859784365
1.366267204 4.854142666 -0.6140343547
1.369663119 4.859712124 -0.4380193949
1.503220439 5.326466084 -0.2878488898
1.507587194 5.338375092 -0.09612605721
1.497188091 5.337147236 0.09605624527
1.497401476 5.334328175 0.2881629169
1.501594782 5.34209919 0.4817715585
1.493196011 5.305101871 0.6715566516
1.491203427 5.294488907 0.8645085096
1.484032273 5.261979103 1.0544734
1.488966227 5.275958538 1.255673409
1.487546682 5.263889313 1.454097509
1.274483442 4.488972187 -1.238759995
1.491634011 5.246847153 -1.249374747
1.362205863 4.788404465 -0.9594504237
1.375402451 4.828388691 -0.7884813547
1.381267428 4.845767498 -0.6135468483
1.391240716 4.874301434 -0.4397625029
1.524169803 5.33297348 -0.288476944
1.523083925 5.325655937 -0.09598644078
1.51815629 5.343695164 0.09626568109
1.516176343 5.333175182 0.2883722484
1.520391345 5.340923309 0.4821201861
1.512956023 5.307757854 0.6725316644
1.507667542 5.28571558 0.8638827205
1.503628969 5.26458025 1.055999875
1.507526159 5.274738789 1.2565732
1.502867222 5.251498699 1.452026963
1.286160946 4.473581791 -1.235654235
1.510641098 5.247489929 -1.250724435
1.379709005 4.789520264 -0.9605953097
1.387025714 4.808617592 -0.7859784365
1.399274468 4.844730854 -0.6140343547
1.410161853 4.87923193 -0.440634042
1.542955518 5.331727505 -0.2886862755
1.545005202 5.331830502 -0.0961958617
1.534764051 5.334786892 0.0961958617
1.533679008 5.324011326 0.2881629169
1.532577276 5.316707611 0.4803770781
1.534403682 5.316061497 0.6742377877
1.525013447 5.27662468 0.8632570505
1.519443989 5.253906727 1.054854989
1.527012348 5.273189068 1.257473111
1.520112038 5.242510319 1.450991631
1.302846193 4.472774982 -1.236689448
1.533858895 5.259022713 -1.254773617
1.398615837 4.792213917 -0.9621217847
1.401587367 4.796161652 -0.7847268581
1.418408394 4.847437859 -0.6150093079
1.480373263 5.055929661 -0.4571936131
1.562682509 5.330142021 -0.288895607
1.565859199 5.334080219 -0.09633549303
1.551139593 5.321717262 0.09605624527
1.55784595 5.337799549 0.2892096341
1.553362131 5.318974972 0.4810743034
1.551835418 5.306862831 0.6737502813
1.54564476 5.278851986 0.8645085096
1.536117196 5.242918968 1.053710103
1.547605634 5.275305748 1.259272695
1.540581703 5.244585514 1.453062177
1.322826266 4.48302269 -1.24083066
1.545582294 5.231209278 -1.249374747
1.416449904 4.791068077 -0.9628850222
1.418319583 4.791240215 -0.7847268581
1.430242181 4.825327873 -0.6128156185
1.548777699 5.218554974 -0.4725330472
1.576731443 5.309337139 -0.2880582511
1.585037947 5.330498695 -0.09637039155
1.569705367 5.316271305 0.09605624527
1.575337768 5.32849741 0.2890002728
1.574178934 5.321162701 0.4817715585
1.566402674 5.288090229 0.672044158
1.565746069 5.279106617 0.865447104
1.55608356 5.243171692 1.054854989
1.566009283 5.269871712 1.259272695
1.558880806 5.23917532 1.453062177
1.340356708 4.481845379 -1.241865873
1.563275814 5.2239151 -1.248924851
1.431184053 4.776440144 -0.9609768987
1.435869694 4.786010265 -0.7847268581
1.444224596 4.810799599 -0.6115969419
1.581321716 5.260818481 -0.476890862
1.599057317 5.313085079 -0.2885816097
1.604787469 5.328763485 -0.09644020349
1.593411326 5.328001976 0.09637039155
1.590489388 5.311486721 0.2883722484
1.594817281 5.319173813 0.4821201861
1.587132573 5.290195942 0.6730191112
1.584733605 5.275500298 0.8657599688
1.576988101 5.243072987 1.055999875
1.581941009 5.252901077 1.2565732
1.579387903 5.241101742 1.455132723
1.355992198 4.47713995 -1.241865873
1.586369514 5.231204987 -1.252074242
1.444997072 4.762022972 -0.9590688348
1.453716993 4.784748554 -0.7853526473
1.464734793 4.81496954 -0.6128156185
1.606059194 5.276232243 -0.478808254
1.618757248 5.311292648 -0.288790971
1.622213364 5.319303513 -0.09637039155
1.617567301 5.337436199 0.09664962441
1.614817619 5.325015068 0.2894189656
1.615689278 5.321200371 0.4828174114
1.607090354 5.286242485 0.6732628345
1.600838184 5.262377262 0.8645085096
1.598139405 5.246927261 1.057908058
1.603679538 5.258530617 1.259272695
1.596544266 5.231861115 1.454097509
1.364814043 4.450216293 -1.235654235
1.60313797 5.224051952 -1.251624346
1.462762952 4.760703087 -0.9598320127
1.468416095 4.776124954 -0.7847268581
1.480692863 4.81008625 -0.6128156185
1.62622869 5.276305676 -0.4793311954
1.638714552 5.313529968 -0.2892096341
1.641952634 5.317429543 -0.09644020349
1.634084344 5.328219891 0.09657981992
1.63691473 5.330801487 0.2900469899
1.629571199 5.300292969 0.4814229608
1.627531171 5.290370464 0.6744815111
1.619780421 5.258644104 0.8648213148
1.613796592 5.235969543 1.056763172
1.622259259 5.256906986 1.260172367
1.613655567 5.222565174 1.453062177
1.381855369 4.453045845 -1.237724781
1.622516274 5.222146988 -1.252524137
1.479709148 4.759575844 -0.9605953097
1.47920692 4.752109051 -0.7815982103
1.499837995 4.812468529 -0.6137905717
1.647602797 5.280107021 -0.4802027345
1.658443928 5.311589718 -0.2894189656
1.662292719 5.317390919 -0.09654491395
1.652674675 5.322482586 0.09657981992
1.656697392 5.328869343 0.2902563512
1.6495049 5.30246973 0.4821201861
1.647167802 5.288448334 0.6749690175
1.638713598 5.254844189 0.8651341796
1.627969146 5.217186451 1.054091811
1.642922997 5.258653164 1.26197207
1.633030772 5.22058773 1.454097509
1.403959394 4.466381073 -1.242901206
1.643660069 5.225746632 -1.254773617
1.495963454 4.750375271 -0.9598320127
1.497209549 4.748538971 -0.7819111347
1.513043165 4.795845985 -0.6123281717
1.671426415 5.29142189 -0.4817715585
1.675490737 5.297858715 -0.2890002728
1.685671806 5.326808453 -0.09682415426
1.668843746 5.309051037 0.09644020349
1.676489234 5.326864719 0.2904657125
1.671322227 5.303989887 0.4828174114
1.662037611 5.271306515 0.6735065579
1.660018682 5.258511543 0.8666985631
1.651814818 5.226159573 1.057144761
1.662187219 5.252595901 1.26197207
1.653578162 5.222222328 1.456168056
1.417199612 4.454089165 -1.24083066
1.658069015 5.204832554 -1.251174331
1.510748863 4.73951292 -0.9586872458
1.514973879 4.747048855 -0.7825368047
1.527590752 4.78081274 -0.6111094952
1.690489769 5.287454128 -0.4819458425
1.695192814 5.295782089 -0.2892096341
1.703962445 5.316785812 -0.09675434232
1.690719128 5.310520172 0.09657981992
1.688115478 5.295946598 0.2891049683
1.692249537 5.305715561 0.4835146666
1.682553291 5.26896143 0.6739940047
1.679881454 5.254273891 0.8670114279
1.670644522 5.222231865 1.05752635
1.676941872 5.235627651 1.259272695
1.673886061 5.219806194 1.457203388
1.428002477 4.434403419 -1.236689448
1.6822083 5.217559814 -1.255673409
1.52366817 4.722999573 -0.9563975334
1.532143235 4.743610382 -0.7828496695
1.542436361 4.769785404 -0.6103782654
1.712617755 5.292894363 -0.4829917252
1.716129184 5.297432899 -0.2896283269
1.721278667 5.307001114 -0.09668453783
1.714151263 5.319813251 0.09685906023
1.707819104 5.293822289 0.2893142998
1.710758567 5.299776554 0.4835146666
1.70459938 5.274389267 0.6754564643
1.696389079 5.242739201 0.8660727739
1.693097711 5.229442596 1.060197592
1.697612405 5.237156868 1.261072278
1.694480658 5.221281528 1.459273934
1.443469763 4.429392815 -1.236689448
1.626668334 4.985635281 -1.200785279
1.54014194 4.717652798 -0.9563975334
1.548693419 4.738233089 -0.7828496695
1.559478045 4.768418312 -0.6108657718
1.726124644 5.271735668 -0.4815972447
1.738344431 5.302796841 -0.2902563512
1.738866806 5.301264286 -0.09668453783
1.731472015 5.309994221 0.09678925574
1.729080677 5.299522877 0.2899423242
1.726774573 5.286196709 0.4828174114
1.725464702 5.275955677 0.6764314771
1.714995384 5.240839005 0.8666985631
1.707059264 5.210442066 1.05752635
1.717399597 5.238904953 1.262871861
1.709375143 5.208292484 1.457203388
1.45754683 4.422746658 -1.236171842
1.644412637 4.983915806 -1.20168519
1.715185881 5.195368767 -1.055236578
1.560679436 4.72181797 -0.7809724808
1.57902348 4.774528503 -0.6123281717
1.748608232 5.281113148 -0.4829917252
1.755918622 5.297003746 -0.2902563512
1.759585857 5.304958344 -0.09685906023
1.746565104 5.296627045 0.09664962441
1.748521328 5.299449921 0.2902563512
1.746793389 5.288009167 0.4835146666
1.741705656 5.266434193 0.6759439707
1.7329849 5.236999035 0.8670114279
1.723712444 5.202888489 1.057144761
1.737214804 5.240580559 1.264671445
1.726638436 5.202594757 1.457203388
1.474647284 4.425220013 -1.238242388
1.676964879 5.026498318 -1.213382602
1.752918482 5.251107216 -1.067830086
1.750393152 5.237454891 -0.8679500222
1.761339545 5.264087677 -0.6764314771
1.771168113 5.290401936 -0.4843862355
1.769032955 5.277895451 -0.2895236611
1.780633926 5.306367874 -0.09699867666
1.764753699 5.292703152 0.09668453783
1.772067308 5.308470249 0.2910937071
1.766845822 5.289746284 0.4842118919
1.75664103 5.253099918 0.6749690175
1.755016327 5.242157459 0.8688886166
1.742826104 5.202729225 1.058289647
1.755498528 5.234483719 1.264671445
1.747249246 5.20386076 1.459273934
1.508600593 4.474964142 -1.253771544
1.719429016 5.094470024 -1.231378675
1.768726349 5.23751545 -1.066303492
1.775625587 5.251897335 -0.871391654
1.782248497 5.265428543 -0.6774064302
1.790264845 5.286073685 -0.4845605493
1.794498801 5.292494774 -0.2906750441
1.803646803 5.313374996 -0.09724301845
1.787051678 5.297879696 0.0968939662
1.783558846 5.281437397 0.2899423242
1.787849903 5.291097164 0.4849091768
1.774968386 5.246935368 0.6749690175
1.773305655 5.235998631 0.8688886166
1.76538837 5.209629059 1.060960889
1.771254301 5.220942974 1.262871861
1.766644955 5.201388836 1.460309267
1.505505085 4.414817333 -1.238242388
1.75357306 5.136386395 -1.243076205
1.7736696 5.192295551 -1.058289647
1.793948531 5.245666981 -0.871391654
1.803831339 5.268565655 -0.6786250472
1.804832816 5.268482208 -0.4835146666
1.811017394 5.280531406 -0.290361017
1.815038562 5.286242485 -0.09685906023
1.806178451 5.293502331 0.09692887217
1.805856347 5.286520004 0.2905703783
1.806307197 5.284824848 0.4849091768
1.797127843 5.251977444 0.6764314771
1.790292978 5.226038933 0.8682629466
1.784198046 5.205292225 1.061342478
1.79199934 5.222100735 1.264671445
1.78604722 5.198843956 1.461344361
1.508309484 4.373009205 -1.227889657
1.798204899 5.207599163 -1.26197207
1.805248141 5.225039959 -1.066303492
1.810955882 5.235639095 -0.8707658648
1.824810624 5.269739628 -0.6796000004
1.825820327 5.269680977 -0.4842118919
1.835985422 5.293046474 -0.2914077342
1.83413744 5.281763554 -0.0968939662
1.825951219 5.290945053 0.09699867666
1.82756114 5.28962183 0.2910937071
1.820839167 5.267188072 0.4838632941
1.819346309 5.256926537 0.677893877
1.808523178 5.219758034 0.8682629466
1.803001523 5.200887203 1.061724186
1.812132716 5.221336842 1.266021132
1.802914381 5.188928604 1.460309267
1.519746423 4.356773853 -1.224783778
1.816370726 5.201291084 -1.26197207
1.824122429 5.220560551 -1.0666852
1.827914953 5.225556374 -0.8701400757
1.847129941 5.274580002 -0.6810624599
1.845523 5.267035961 -0.4845605493
1.848499417 5.26964426 -0.2904657125
1.860514998 5.297968864 -0.09731282294
1.844407916 5.2845397 0.09699867666
1.85128355 5.298295021 0.2919311225
1.840528131 5.26456213 0.4842118919
1.837686777 5.250543594 0.677893877
1.830653071 5.224597931 0.8701400757
1.819197774 5.189003468 1.0605793
1.832930446 5.222334385 1.267820835
1.822295904 5.186249256 1.461344361
1.543943167 4.376947403 -1.232030749
1.827376366 5.174705982 -1.257023096
1.865224361 5.26431942 -0.4849091768
1.866884112 5.263159275 -0.2904657125
1.882341981 5.300864697 -0.09748735279
1.863510132 5.279954433 0.09703358263
1.865775943 5.280501366 0.2913030684
1.864207625 5.273132801 0.4856064022
1.854677677 5.240354538 0.6774064302
1.850195169 5.221901417 0.8707658648
1.839266777 5.188173294 1.061724186
1.851799369 5.217741966 1.268270731
1.842976689 5.187137604 1.463414907
1.566999316 4.393366814 -1.238242388
1.583882093 4.430922508 -0.9064055681
1.605573177 4.489131927 -0.7484340668
1.634979129 4.566322803 -0.5903916955
1.889888525 5.27244997 -0.4863036573
1.89088285 5.269441128 -0.2911984026
1.893402219 5.273558617 -0.09710339457
1.885288596 5.28283453 0.09720810503
1.878822803 5.258909225 0.2904657125
1.8839432 5.270345688 0.4859549999
1.871622443 5.230110168 0.6769189239
1.868413091 5.215411186 0.8707658648
1.860257149 5.186941624 1.062869072
1.866051078 5.200240612 1.265571237
1.863683343 5.187945366 1.465485573
1.578502774 4.374873161 -1.234618902
1.620069742 4.485179424 -1.091009259
1.670634031 4.612559319 -0.5972163677
1.68847549 4.656742096 -0.4296524227
1.912908316 5.269985199 -0.2916170955
1.918177962 5.281620502 -0.09738263488
1.905997992 5.279650688 0.09727791697
1.903514504 5.267014503 0.2913030684
1.903248668 5.263404846 0.4859549999
1.894832015 5.234415054 0.6783813238
1.886168718 5.20481348 0.8701400757
1.882604837 5.189315796 1.064777136
1.887756824 5.200694084 1.26737082
1.882687092 5.181079865 1.465485573
1.595188379 4.370873451 -1.235136509
1.647228599 4.506139278 -0.9243415594
1.654731631 4.521761894 -0.7559429407
1.678533316 4.584331036 -0.5942915082
1.704721451 4.650819302 -0.4296524227
1.934045792 5.270775318 -0.2920357883
1.931090355 5.259874344 -0.09710339457
1.92533505 5.272629738 0.09727791697
1.923945904 5.265965462 0.2916170955
1.92115736 5.252652168 0.4856064022
1.916733265 5.234891415 0.679356277
1.905685902 5.201907635 0.8707658648
1.900030375 5.180870056 1.064395547
1.908585906 5.201390743 1.269170523
1.896763086 5.16359663 1.462379694
1.608336329 4.361934662 -1.234101295
1.639036298 4.438035488 -0.9113665819
1.669031382 4.514397621 -0.7556300759
1.688215971 4.563846111 -0.5923416018
1.718750238 4.641404629 -0.4293038249
1.951515079 5.264331818 -0.2920357883
1.954779744 5.270316601 -0.0974175334
1.937273264 5.251206875 0.09699867666
1.946235538 5.272673607 0.2923497856
1.939257264 5.248120785 0.4857807159
1.934081197 5.228506565 0.679356277
1.925669432 5.202968597 0.872017324
1.915835023 5.170859337 1.06363225
1.928534627 5.20234108 1.270970106
1.916563153 5.164523125 1.46445024
1.628188133 4.371059418 -1.238242388
1.663353324 4.458327293 -0.9167092443
1.683989406 4.508839607 -0.7556300759
1.705527902 4.561643124 -0.5928290486
1.737733841 4.642840862 -0.4300010502
1.967559457 5.254090786 -0.291826427
1.978779197 5.278440952 -0.09769678116
1.960262179 5.259744644 0.09727791697
1.966724634 5.27146101 0.2926638126
1.960132718 5.250994205 0.4866522849
1.947241187 5.210906982 0.677893877
1.946584344 5.203617096 0.8732687831
1.935037732 5.169992924 1.064777136
1.947367549 5.197401524 1.271420002
1.937294126 5.165035725 1.466520786
1.646920562 4.372293949 -1.240312934
1.669979692 4.426484585 -0.9113665819
1.700507045 4.502635479 -0.7556300759
1.720036626 4.551949024 -0.5923416018
1.753931046 4.636746407 -0.4300010502
1.989631653 5.25431633 -0.2922451198
1.995776892 5.26776123 -0.09762696922
1.981428385 5.260355473 0.0974175334
1.977363467 5.244006634 0.2915124297
1.983585954 5.254959106 0.4876981676
1.968225598 5.21150589 0.6788688302
1.964737892 5.196790218 0.8732687831
1.958836913 5.175719261 1.067448378
1.964331508 5.184762955 1.270070314
1.960788727 5.172694206 1.470661998
1.661486745 4.364712715 -1.239795327
1.682624578 4.413290501 -0.9098401666
1.716212869 4.49667263 -0.7556300759
1.738126636 4.549322128 -0.5928290486
1.777218819 4.649207115 -0.4317441583
2.010103226 5.252934933 -0.2925591469
2.018646002 5.269747734 -0.09780148417
2.006390572 5.268007278 0.09769678116
2.001549959 5.249787807 0.2922451198
2.000498295 5.244279861 0.48734954
1.988728523 5.207966328 0.679356277
