# .PCD v0.7 - Point Cloud Data file format
VERSION 0.7
FIELDS x y z
SIZE 4 4 4
TYPE F F F
COUNT 1 1 1
WIDTH 1294
HEIGHT 1
VIEWPOINT 0 0 0 1 0 0 0
POINTS 1294
DATA ascii
1.817630053 5.216593742 0.8682629466
1.814660788 5.205147743 1.063250661
1.81931591 5.212646961 1.264671445
1.811967611 5.185774326 1.460309267
1.533742309 4.372344494 -1.229960203
1.822865009 5.190757275 -1.260172367
1.854356647 5.265729904 -0.6803312302
1.854050279 5.261928082 -0.4843862355
1.863675237 5.283360481 -0.2914077342
1.870421767 5.296600342 -0.09734772146
1.855616927 5.286972046 0.09710339457
1.855892897 5.281866074 0.2911984026
1.84971559 5.261341095 0.4842118919
1.846844792 5.247329235 0.677893877
1.838455558 5.21766901 0.8695144057
1.828248501 5.185821533 1.0605793
1.841393352 5.217289925 1.26737082
1.831346869 5.183060169 1.461344361
1.552871346 4.377887726 -1.233065963
1.83445096 5.165998936 -1.255673409
1.8737427 5.259178162 -0.4847348332
1.884789109 5.284347534 -0.291826427
1.885538101 5.280622482 -0.09717320651
1.870715499 5.271040916 0.09692887217
1.876994848 5.282883167 0.2916170955
1.869403601 5.258607388 0.4845605493
1.865817189 5.242720604 0.67813766
1.857982159 5.214941978 0.8701400757
1.848318458 5.184955597 1.061724186
1.862212658 5.21817255 1.269170523
1.852028966 5.183912277 1.463414907
1.573359966 4.386988163 -1.237207055
1.606105804 4.470925331 -0.9151827693
1.629450917 4.53093338 -0.7559429407
1.688670874 4.690468788 -0.6069658995
1.895769477 5.257069588 -0.2906750441
1.905997992 5.279650688 -0.09727791697
1.89180398 5.272007942 0.0970684886
1.893397212 5.270659924 0.2913030684
1.890442491 5.259550095 0.4852577746
1.88074708 5.226835728 0.6769189239
1.881531596 5.223291874 0.8726431131
1.867738605 5.182165146 1.062487364
1.880417585 5.211640358 1.269170523
1.871422052 5.181051254 1.46445024
1.593274593 4.394182205 -1.24083066
1.630529046 4.487151146 -0.9197622538
1.667013764 4.58008337 -0.593316555
1.707383394 4.685908318 -0.4326156974
1.918450832 5.259467125 -0.2911984026
1.931270599 5.291750908 -0.09762696922
1.914288521 5.276650429 0.09727791697
1.911785126 5.264018059 0.2913030684
1.914235473 5.267899513 0.4866522849
1.900336981 5.223970413 0.6774064302
1.897045493 5.209269524 0.871391654
1.891425729 5.188197136 1.065158725
1.895928144 5.197720528 1.26737082
1.892147779 5.181745052 1.466520786
1.60737288 4.382872105 -1.23927772
1.619356155 4.410777569 -1.07481277
1.63477242 4.447975636 -0.9128930569
1.661831975 4.51915741 -0.7559429407
1.678302288 4.55904007 -0.5913665891
1.712144494 4.645968437 -0.4294781089
1.941861272 5.263642788 -0.291826427
1.943727016 5.265877724 -0.09727791697
1.937747359 5.280863285 0.09748735279
1.92899859 5.251351833 0.2909890711
1.932154536 5.257108212 0.4863036573
1.923582673 5.228148937 0.6788688302
1.913398266 5.194865227 0.8701400757
1.914502621 5.1922822 1.067448378
1.916314006 5.194394112 1.268270731
1.911126018 5.1747756 1.466520786
1.616709232 4.358838558 -1.234101295
1.650290012 4.442241669 -0.9128930569
1.678383231 4.513036251 -0.7559429407
1.696384907 4.55657959 -0.5918540955
1.722789168 4.62502718 -0.4280836284
1.961615205 5.260576725 -0.2920357883
1.969087958 5.277795792 -0.09762696922
1.95708847 5.273725986 0.09748735279
1.954271078 5.263309479 0.2920357883
1.950020313 5.246256828 0.4859549999
1.946886659 5.232225418 0.6803312302
1.932895184 5.191858292 0.8707658648
1.928503156 5.174529076 1.065158725
1.94010663 5.200116158 1.271420002
1.926476598 5.160832882 1.46445024
1.637338638 4.367640018 -1.238242388
1.661644697 4.42542696 -0.9106033444
1.693338871 4.507446289 -0.7559429407
1.711486936 4.550928593 -0.5918540955
1.744539976 4.633901596 -0.4294781089
1.979050517 5.254042625 -0.2920357883
1.98961699 5.276503086 -0.09773167968
1.968951941 5.252226353 0.09720810503
1.977545023 5.269544601 0.2927684784
1.97252667 5.250607967 0.4870008826
1.962831259 5.222023964 0.6798437834
1.955181599 5.196172237 0.8726431131
1.944270015 5.164430618 1.064395547
1.960775495 5.202772617 1.2736696
1.94720602 5.161307335 1.466520786
1.653180718 4.365800381 -1.23927772
1.679094672 4.42723465 -0.9121297598
1.709063768 4.501507282 -0.7559429407
1.728774071 4.548637867 -0.5923416018
1.75989604 4.628091335 -0.4294781089
1.995958805 5.243368149 -0.291826427
2.005678892 5.266138554 -0.09766186774
1.991525888 5.256540775 0.0974175334
1.991465449 5.253621578 0.2922451198
1.991342783 5.247763157 0.48734954
1.979634047 5.211430073 0.679356277
1.975210667 5.197045803 0.8738945723
1.967168689 5.17045784 1.067066789
1.977538705 5.19225359 1.27276969
1.967061639 5.162043095 1.468591332
1.668411255 4.360002518 -1.23927772
1.701565623 4.439678669 -0.9159459472
1.723980904 4.495815754 -0.7559429407
1.742424607 4.539173126 -0.5918540955
1.781756401 4.636798382 -0.4308725893
2.014767885 5.240449905 -0.2920357883
2.03123045 5.277768612 -0.09801091999
2.011803865 5.257379055 0.09755715728
2.007649899 5.241042137 0.2919311225
2.013927937 5.251942635 0.4883953929
1.998328686 5.208543301 0.6798437834
1.995463371 5.195652008 0.8748331666
1.986417651 5.169403553 1.068211675
1.9947474 5.185667038 1.27276969
1.989235044 5.165961742 1.471697211
1.67798686 4.341831684 -1.235654235
1.713445425 4.426687717 -0.9144195318
1.739662766 4.489770889 -0.7559429407
1.764000535 4.547869682 -0.5938040018
1.788472295 4.608576298 -0.4287808836
2.035939932 5.240832329 -0.2924544513
2.042202473 5.254228592 -0.09769678116
2.03158474 5.254055023 0.09762696922
2.027900219 5.241806507 0.2923497856
2.031332016 5.245235443 0.4883953929
2.019369125 5.208939075 0.6808187366
2.009823322 5.181639671 0.8735817075
2.00729394 5.16975832 1.06973815
2.012835503 5.178672314 1.27276969
2.003555775 5.152134418 1.469626665
1.691725969 4.332348824 -1.234618902
1.727455974 4.417023182 -0.913656354
1.754543185 4.483976841 -0.7559429407
1.781969547 4.549388409 -0.5947790146
1.807458758 4.609724522 -0.4294781089
2.06060338 5.252644062 -0.2935011685
2.06052947 5.247068405 -0.09769678116
2.048998117 5.247288704 0.09762696922
2.049094915 5.242136478 0.2927684784
2.046726227 5.230690479 0.4876981676
2.040972471 5.213304996 0.6822811961
2.029341221 5.178269863 0.8742073774
2.022991896 5.159418106 1.068974853
2.032844543 5.179225445 1.274569273
2.020113945 5.141513348 1.468591332
1.709625602 4.335701466 -1.237207055
1.742092967 4.411271095 -0.913656354
1.770185471 4.477824211 -0.7559429407
1.800759792 4.550523758 -0.5957539678
1.822070122 4.599682331 -0.4291294813
2.075983763 5.23799181 -0.2930825055
2.085468531 5.2565732 -0.09801091999
2.064365387 5.232664108 0.09748735279
2.071781635 5.246098042 0.2933965027
2.064059258 5.223875046 0.4876981676
2.057696581 5.202457428 0.6817936897
2.051041842 5.180337906 0.8757717609
2.041711569 5.15415144 1.069356561
2.053785563 5.1793437 1.276368856
2.040901184 5.14161253 1.470661998
1.729795694 4.340173721 -1.240312934
1.769893527 4.434030533 -0.9197622538
1.786584735 4.471306801 -0.7559429407
1.813686728 4.536837101 -0.5947790146
1.84255743 4.604392529 -0.430175364
2.0929389 5.224785805 -0.2927684784
2.105293751 5.252972603 -0.09808073193
2.087059259 5.236572266 0.09769678116
2.087862492 5.233268261 0.2930825055
2.087626934 5.227375984 0.4887439907
2.071425915 5.18418169 0.6803312302
2.072045088 5.180483341 0.8770232201
2.064238548 5.155745506 1.071264625
2.071304083 5.168164253 1.275469184
2.063149214 5.145215988 1.473767638
1.740607381 4.323356628 -1.237207055
1.778019667 4.40961647 -0.9159459472
1.802180767 4.465043545 -0.7559429407
1.821380377 4.508071899 -0.5918540955
2.109503508 5.218585968 -0.4887439907
2.113412857 5.223002434 -0.2930825055
2.123781204 5.243368626 -0.09804582596
2.107733727 5.232596874 0.09776658565
2.10478735 5.220024109 0.2927684784
2.113316536 5.238533497 0.4904871285
2.09338522 5.183918476 0.6813062429
2.093238592 5.178348541 0.877961874
2.089582682 5.166709423 1.075080752
2.08494544 5.150063992 1.27276969
2.087799311 5.151942253 1.47790885
1.755689383 4.317254066 -1.237207055
1.797993898 4.416862965 -1.091009259
1.783035159 4.37792778 -0.9106033444
1.817756891 4.458724976 -0.7559429407
1.861104012 4.560502052 -0.5996537805
2.128461599 5.213035107 -0.4889183342
2.134650469 5.222990036 -0.2935011685
2.141314983 5.234071732 -0.09801091999
2.132014275 5.240026474 0.09804582596
2.126010656 5.220043659 0.2931871712
2.130082369 5.227436066 0.4901385307
2.115967274 5.187607288 0.6827686429
2.106076241 5.15820837 0.8757717609
2.109091282 5.163018227 1.075844049
2.108809233 5.157185078 1.276368856
2.099912167 5.130321503 1.473767638
1.766343832 4.300377846 -1.234101295
1.796811461 4.368046284 -0.9098401666
1.825789809 4.434086323 -0.7528142333
2.150094748 5.216524124 -0.6876434684
2.150444746 5.214782238 -0.4897898734
2.158205271 5.228429317 -0.2942338884
2.158661604 5.226941586 -0.09801091999
2.147253275 5.225152969 0.09790620208
2.14786768 5.224048138 0.2938151956
2.143768311 5.208913803 0.489092648
2.136329889 5.185696125 0.6834998727
2.126932621 5.160328388 0.8773360848
2.12859726 5.159255028 1.076607347
2.129775286 5.156997204 1.278168559
2.118390322 5.126900196 1.474802971
1.784306407 4.301323414 -1.236171842
2.052119255 4.944486141 -1.225979805
2.172720909 5.222194672 -0.6893495917
2.173226833 5.218280792 -0.4908357561
2.173996449 5.217556 -0.2940245569
2.184587717 5.237831593 -0.09835996479
2.165336609 5.21985054 0.0979411155
2.169916153 5.225742817 0.2943385541
2.166527271 5.212436676 0.4901385307
2.155800104 5.184082508 0.6842310429
2.147211313 5.158342838 0.8782746792
2.144183874 5.148543358 1.075844049
2.149863243 5.157101154 1.279968143
2.140738726 5.130170822 1.47790885
1.800051451 4.298946381 -1.237207055
2.060325861 4.915726185 -1.220581055
2.167388201 5.168635368 -1.081186652
2.170151234 5.170163631 -0.8814033866
2.190937996 5.214577675 -0.6893495917
2.184478521 5.194133282 -0.489266932
2.191422701 5.208094597 -0.2939198911
2.197426081 5.217273712 -0.09811563045
2.18276763 5.210417271 0.09790620208
2.187373161 5.216293812 0.2942338884
2.189192295 5.218085766 0.4913586974
2.173884153 5.176525116 0.6842310429
2.16979599 5.161742687 0.8801519275
2.166710615 5.151885509 1.078133702
2.166338205 5.145973682 1.279068351
2.161635399 5.129787922 1.479979396
1.815794826 4.292320728 -1.237207055
2.04101491 4.822361946 -1.198985696
2.180955648 5.148003578 -1.078515291
2.189085007 5.162175179 -0.8814033866
2.202920437 5.192280293 -0.6873996854
2.213498354 5.212151527 -0.491707325
2.21127677 5.201865673 -0.2940245569
2.221103907 5.222451687 -0.09835996479
2.202501535 5.206448555 0.09797601402
2.201673031 5.199431419 0.2937105298
2.207529306 5.208190918 0.4911843836
2.190389395 5.165251255 0.6837435961
2.187802076 5.154136658 0.8801519275
2.194022417 5.163785934 1.082331538
2.183660746 5.134412289 1.278168559
2.181037903 5.125767708 1.481014729
1.83076787 4.285955429 -1.237207055
2.040287971 4.771845341 -1.188188076
2.198913574 5.140358925 -1.078515291
2.213313103 5.169029713 -0.8839063644
2.224283695 5.189644337 -0.6881309152
2.22539854 5.189743519 -0.4903128147
2.234146833 5.205127716 -0.2946525812
2.23865056 5.21060276 -0.0982901603
2.226283312 5.209374428 0.09818544239
2.223858595 5.198671818 0.2941292226
2.225692034 5.200455189 0.4911843836
2.214779615 5.169960976 0.685449779
2.203562975 5.138821602 0.8789004683
2.213583469 5.159704208 1.083094835
2.204644442 5.133921146 1.279968143
2.199811459 5.117738724 1.481014729
1.838831186 4.2635746 -1.232548475
2.050754547 4.750380516 -1.184588909
2.221513033 5.143465996 -1.080805063
2.232127905 5.163084507 -0.8842192292
2.247114658 5.192780018 -0.6895933151
2.240335703 5.174629688 -0.4896155894
2.255477905 5.204628468 -0.295071274
2.257619858 5.204590797 -0.09832505882
2.244455099 5.201570988 0.09818544239
2.245158434 5.198212147 0.2945478857
2.24225235 5.188995838 0.4908357561
2.236751556 5.171308041 0.6866684556
2.222273827 5.132910728 0.8792133331
2.233140469 5.155549049 1.083858013
2.227204323 5.136921406 1.282667637
2.219199181 5.113573551 1.482049942
1.859102607 4.269527912 -1.236171842
2.055643797 4.716397285 -1.177840352
2.243378401 5.144677639 -1.082713127
2.246975183 5.148020267 -0.8829677701
2.269201994 5.193998814 -0.6908119917
2.263969183 5.179557323 -0.4908357561
2.272832632 5.19489336 -0.2949666083
2.278877497 5.206234932 -0.09849958867
2.261801004 5.191870689 0.09815053642
2.26717329 5.201723099 0.2951759398
2.260353088 5.181136608 0.4908357561
2.257968426 5.170745373 0.6876434684
2.243235826 5.134564877 0.8807777166
2.249551058 5.144124508 1.083094835
2.249809265 5.139827251 1.285366893
2.237695456 5.109724998 1.483085275
1.872438908 4.259475708 -1.235136509
2.064995289 4.69528389 -1.174241066
2.262903929 5.14040947 -1.083476424
2.271995306 5.158619404 -0.8860964775
2.287215948 5.188261509 -0.6910557747
2.282838821 5.173446178 -0.49101004
2.286015272 5.178191185 -0.2944432199
2.293802261 5.190932274 -0.09835996479
2.279809237 5.186172962 0.09818544239
2.285315752 5.193778038 0.2951759398
2.284848213 5.187801838 0.4922302365
2.268698215 5.148697376 0.6856935024
2.270709991 5.1483922 0.884532094
2.272144318 5.149209976 1.085766077
2.266840219 5.132338524 1.285366893
2.260206461 5.112483978 1.486191034
1.897518635 4.277966499 -1.24238348
2.079001427 4.682703495 -1.172891378
2.272763968 5.116729259 -1.080041766
2.283569574 5.136216164 -0.8835934401
2.300468683 5.169364452 -0.6895933151
2.301604271 5.169487476 -0.4913586974
2.304888487 5.172005177 -0.2945478857
2.317519426 5.197907448 -0.0986392051
2.304388762 5.192804813 0.0984646827
2.300096512 5.180693626 0.2948619127
2.306895256 5.191120625 0.4932760894
2.28988266 5.148001671 0.6866684556
2.287771702 5.140833378 0.884532094
2.292500019 5.146627903 1.086910963
2.281568766 5.117274761 1.283567309
2.280294418 5.112017632 1.48826158
2.059278727 4.599268913 -1.338664174
2.106467247 4.702460766 -1.179639935
2.285793066 5.098015785 -1.077752113
2.308673143 5.146639347 -0.8867221475
2.315970898 5.1580863 -0.6891058087
2.318817377 5.159605026 -0.4911843836
2.32694006 5.175262928 -0.2951759398
2.320876122 5.156963348 -0.09801091999
2.324863672 5.192436218 0.09860429913
2.326333523 5.190860271 0.2959086299
2.325000286 5.183037281 0.4932760894
2.313445091 5.154868126 0.6886184216
2.300844908 5.122005463 0.8826549053
2.315189123 5.151531696 1.089582324
2.301722527 5.116789818 1.285366893
2.296537399 5.100504398 1.487226248
2.078496695 4.601216793 -1.341252446
2.130094051 4.711061001 -1.183689117
2.297832727 5.079674721 -1.075462461
2.321734428 5.127752781 -0.8848450184
2.337241173 5.157202244 -0.6900808215
2.334267855 5.148258686 -0.4908357561
2.348293781 5.174383163 -0.2955946028
2.31316185 5.094614983 -0.09696377069
2.343799591 5.186110973 0.0986392051
2.335304499 5.1649189 0.2948619127
2.338890553 5.168036938 0.4925788641
2.336341143 5.157610416 0.6900808215
2.318634272 5.116145611 0.8829677701
2.330725431 5.138054848 1.088437438
2.322790861 5.115822315 1.287166595
2.313440084 5.092859745 1.487226248
2.083322048 4.569325924 -1.334005356
2.13438344 4.679148674 -1.177390456
2.31717968 5.075194836 -1.076225638
2.326416254 5.093072891 -0.8801519275
2.34937644 5.138591766 -0.6886184216
2.348080397 5.131019592 -0.4899641871
2.347979069 5.128432751 -0.2933965027
2.284281015 4.984706402 -0.09500910342
2.35434413 5.163755417 0.09835996479
2.362442017 5.17672205 0.2960133255
2.358571053 5.16346693 0.4929274917
2.351779938 5.146223545 0.6895933151
2.337299347 5.109817505 0.8832806349
2.348567009 5.132082939 1.088819027
2.344613552 5.118721485 1.28986609
2.334425449 5.091777325 1.489296913
2.099260569 4.56202507 -1.334005356
2.148257017 4.664214611 -1.175590873
2.148371696 4.662322044 -0.9895982742
2.180429459 4.72755003 -0.8178910613
2.200959444 4.767680645 -0.6396269202
2.239833355 4.849664211 -0.4636431932
2.249431133 4.865982533 -0.2787424326
2.218561649 4.794816971 -0.09151862562
2.379112005 5.167804718 0.09860429913
2.383070469 5.171657085 0.296222657
2.383254528 5.169676781 0.4943219721
2.370625019 5.137569904 0.6895933151
2.354357004 5.097630024 0.8826549053
2.369830608 5.128787518 1.089963913
2.363360167 5.110093117 1.28986609
2.357939959 5.093706608 1.492402673
2.107036829 4.537147999 -1.32882905
2.139062405 4.601904869 -1.161643863
2.172084808 4.670814991 -0.9930328727
2.172745705 4.667973995 -0.8088178039
2.199142218 4.720383644 -0.634264648
2.225603819 4.774999142 -0.4571936131
2.216580629 4.751314163 -0.2725668252
2.198905945 4.709131718 -0.09001772106
2.405558586 5.177605629 0.09895334393
2.400267601 5.161495209 0.2961179912
2.406324863 5.172166348 0.4953678548
2.391897202 5.136460781 0.6905682683
2.372970104 5.091171265 0.8829677701
2.393527985 5.132938385 1.092635155
2.381182194 5.10181284 1.28986609
2.377342701 5.088944435 1.493438005
2.118761539 4.521019459 -1.326240897
2.343802214 4.996666431 -1.264221549
2.228409529 4.748514652 -1.011350632
2.314162016 4.926766872 -0.8554352522
2.394659042 5.093527317 -0.6859372258
2.316035986 4.924055099 -0.4723587334
2.289299965 4.862810612 -0.2794751525
2.21703434 4.7050457 -0.09008752555
2.425316334 5.17279768 0.09902315587
2.423359871 5.163934231 0.2967460155
2.426059246 5.167341709 0.4957164824
2.414877176 5.138860703 0.6920307279
2.386524439 5.073918343 0.8814033866
2.417281151 5.136987686 1.095306516
2.403959751 5.104046822 1.292565346
2.396736145 5.084111691 1.494473338
2.125446081 4.494384766 -1.320546865
2.3779006 5.023683548 -1.273219585
2.229847908 4.708767891 -1.004481435
2.364338636 4.988276005 -0.8676371574
2.417530775 5.095898151 -0.6873996854
2.326372385 4.901542664 -0.4709642231
2.319973707 4.883653641 -0.281149894
2.237739086 4.706306934 -0.0902620554
2.443359613 5.164299488 0.09902315587
2.446501017 5.166274071 0.2973740697
2.44237709 5.155239582 0.4953678548
2.443008184 5.15192318 0.6949555874
2.407606125 5.072697639 0.8826549053
2.430988789 5.119650364 1.093398452
2.425104141 5.102666378 1.294365048
2.412809849 5.072224617 1.493438005
2.339152098 4.897535324 -1.243076205
2.255583048 4.720440865 -1.008679152
2.389408588 4.996030807 -0.8704530001
2.440445662 5.098171711 -0.6888620853
2.348632336 4.904172897 -0.4720101058
2.340459108 4.882730484 -0.2815685868
2.257614851 4.705678463 -0.09040167183
2.457924366 5.148521423 0.09888353944
2.471409798 5.172118664 0.2982114255
2.462074995 5.150278568 0.4957164824
2.459264517 5.139781952 0.694468081
2.429565668 5.073169708 0.8842192292
2.447149515 5.107591629 1.092635155
2.444587469 5.097683907 1.29526484
2.433843136 5.070738316 1.495508552
2.193644285 4.556024551 -1.343322992
2.350310326 4.87705183 -1.239926934
2.273748875 4.716077328 -1.009442449
2.40253973 4.978764534 -0.8688886166
2.454774618 5.082471371 -0.6878871918
2.371805906 4.908501625 -0.4732302725
2.354881287 4.86913681 -0.2812545896
2.280993938 4.712170124 -0.09068090469
2.482824802 5.154322147 0.0991627723
2.487710238 5.159863472 0.2980020642
2.488695383 5.159597874 0.4974596202
2.472008944 5.120441914 0.693005681
2.452417612 5.075329304 0.8860964775
2.470086813 5.109625816 1.094924927
2.46236825 5.089118958 1.29526484
2.456582069 5.07264328 1.498614311
2.212911844 4.555289268 -1.345393538
2.369025469 4.872322559 -1.240826607
2.291916132 4.711642265 -1.010205746
2.432876348 4.996988297 -0.8735817075
2.4777174 5.084579468 -0.6893495917
2.393289804 4.909147739 -0.4741018713
2.377993345 4.873452187 -0.2819872797
2.295674801 4.700584888 -0.0906111002
2.506045341 5.156415939 0.09937220812
2.502213001 5.143963337 0.2975833714
2.510176659 5.158045769 0.4981568158
2.491607666 5.115350723 0.6934931874
2.470117807 5.066738129 0.8860964775
2.491351604 5.108029842 1.096451402
2.480116367 5.080492973 1.29526484
2.47597146 5.067508698 1.499649644
2.251753569 4.594374657 -1.359369636
2.38773632 4.86752224 -1.241726518
2.30142808 4.689513206 -1.007152796
2.460756302 5.009741306 -0.8773360848
2.493697882 5.072336674 -0.6888620853
2.41041255 4.900763035 -0.4741018713
2.402048588 4.87945652 -0.2828246355
2.310300112 4.688955307 -0.09054128826
2.527549505 5.154819012 0.09951182455
2.521912575 5.138784409 0.2977927327
2.529043198 5.151041031 0.4983311594
2.519953012 5.128001213 0.6964179873
2.485174656 5.0527668 0.8851578236
2.516100168 5.113395214 1.099504352
2.503002882 5.08229351 1.297964215
2.493644238 5.058835506 1.499649644
2.266066074 4.583023071 -1.358334541
2.409033537 4.867890835 -1.243975878
2.326495647 4.699045181 -1.010968924
2.471210957 4.986961842 -0.8748331666
2.516682148 5.074271202 -0.6903245449
2.426618338 4.890534878 -0.4739275575
2.42173028 4.876408577 -0.2831386626
2.33377552 4.695187569 -0.09082052857
2.545529127 5.145964146 0.09951182455
2.546925545 5.144268513 0.2986300886
2.542588234 5.133254528 0.4974596202
2.543129206 5.129844189 0.6978804469
2.506308079 5.051139355 0.8864092827
2.53044343 5.097547054 1.097977877
2.524195433 5.080506802 1.299763799
2.513006926 5.05355978 1.500684857
2.288947582 4.588915348 -1.362475514
2.34113121 4.687382698 -1.010205746
2.482422113 4.965936184 -0.8726431131
2.539707661 5.076107502 -0.6917870045
2.448134899 4.890942097 -0.4747990966
2.437841892 4.866140366 -0.2830339968
2.350151777 4.687011719 -0.09082052857
2.561689615 5.133469582 0.09944202006
2.566653252 5.13891983 0.2988394499
2.564052105 5.131477356 0.4981568158
2.559246063 5.117384911 0.6973930001
2.528346777 5.051191807 0.8879736662
2.546465158 5.0851717 1.09721458
2.547154665 5.082117081 1.302463293
2.532363176 5.048211098 1.50172019
2.311031103 4.59297657 -1.366099
2.496424198 4.957125187 -1.271420002
2.365427971 4.694961548 -1.013640285
2.494401455 4.946659565 -0.8707658648
2.555623293 5.063665867 -0.6912994981
2.450823307 4.853910923 -0.4720101058
2.453913689 4.855818272 -0.2829293311
2.373717546 4.69305563 -0.09109976888
2.584989309 5.135212898 0.09965144843
2.588169336 5.13706398 0.2992581427
2.588227272 5.134949207 0.4993770421
2.575304031 5.104875565 0.6969054937
2.551304579 5.05291605 0.8898509145
2.569510221 5.086766243 1.099504352
2.564877987 5.073195457 1.302463293
2.553459406 5.046234608 1.503790736
2.338417292 4.607275963 -1.372828245
2.515479326 4.951855183 -1.272319794
2.382693052 4.688426018 -1.014021873
2.52598381 4.966092587 -0.8757717609
2.575083494 5.058253288 -0.6917870045
2.474080086 4.857754707 -0.4732302725
2.478103876 4.861458302 -0.2837666869
2.391903877 4.688303471 -0.09116958082
2.603802919 5.127941608 0.0996863544
2.601562262 5.119095325 0.2987347841
2.612455606 5.138315678 0.5005972385
2.598510981 5.106469631 0.6983679533
2.570718765 5.04750061 0.8904765844
2.594382286 5.091759205 1.102557302
2.580799341 5.060739994 1.301563382
2.578086138 5.051056385 1.507931948
2.35096097 4.592207909 -1.370757818
2.536304951 4.949980736 -1.274119377
2.406205177 4.694057941 -1.017074823
2.549616575 4.969547272 -0.877961874
2.596352816 5.056296825 -0.6927619576
2.487381458 4.841999531 -0.4725330472
2.590038061 5.03750658 -0.2946525812
2.40469265 4.675011635 -0.09106486291
2.629892588 5.134839058 0.1000004932
2.62216568 5.11755085 0.299153477
2.630377054 5.129164696 0.5005972385
2.619035721 5.102668285 0.6990991235
2.585639477 5.035432816 0.8898509145
2.621110439 5.100135326 1.106373429
2.602015972 5.058631897 1.303363085
2.589514732 5.03217411 1.504826069
2.361659527 4.573674202 -1.367651939
2.542869091 4.922497749 -1.269170523
2.417167187 4.67516613 -1.014785051
2.566083431 4.961064339 -0.877961874
2.616755247 5.054711342 -0.6937369108
2.502433777 4.829749584 -0.4721844196
2.626948833 5.067900658 -0.2969553471
2.424679279 4.673689365 -0.09120447934
2.645069599 5.122536659 0.09993068129
2.645513773 5.119012833 0.2997815013
2.64460516 5.112872124 0.4998999536
2.645066977 5.111584187 0.7015365362
2.605018854 5.029883862 0.8904765844
2.634397507 5.084442139 1.104846954
2.622366428 5.056894302 1.305162668
2.608845472 5.026533127 1.505861282
2.381274939 4.574384689 -1.370240211
2.579842091 4.951613903 -1.279068351
2.438103199 4.677569866 -1.017074823
2.581554651 4.948575974 -0.8773360848
2.639897585 5.05610323 -0.6951993108
2.528506517 4.838643074 -0.4739275575
2.644624472 5.058699131 -0.2969553471
2.440979958 4.665196896 -0.09120447934
2.661086321 5.109725952 0.09986086935
2.667060375 5.116830826 0.3002001941
2.667071819 5.114675045 0.5009458661
2.660139561 5.097040176 0.7008053064
2.628044367 5.031267166 0.8923538327
2.652130842 5.075214863 1.104846954
2.64541769 5.058072567 1.307862163
2.629960537 5.024241447 1.507931948
2.404312134 4.577599049 -1.373863578
2.607083082 4.96155405 -1.284017324
2.457057714 4.672078133 -1.01783812
2.603353977 4.946074009 -0.8785876036
2.655679703 5.043344975 -0.6947118044
2.550026894 4.838599205 -0.4747990966
2.661283016 5.045440197 -0.2967460155
2.46938324 4.679638863 -0.09165824205
2.686346769 5.114568233 0.1001401171
2.684901714 5.107491493 0.3002001941
2.691365004 5.115445137 0.5019916892
2.67698741 5.085968971 0.700561583
2.648354292 5.027305603 0.8932924271
2.672544718 5.068933964 1.105610251
2.667580128 5.055234909 1.309661746
2.654696465 5.028698444 1.512072921
2.42118144 4.570884705 -1.374381185
2.626162291 4.953687668 -1.28446722
2.473352432 4.663472176 -1.01783812
2.617825985 4.93172121 -0.8776490092
2.676008224 5.037084579 -0.6951993108
2.608040571 4.907081127 -0.4824687839
2.677001476 5.03259325 -0.2965366542
2.482881784 4.665696144 -0.09155353159
2.710691452 5.115290165 0.1003495455
2.700844049 5.094558716 0.2999908328
2.714807034 5.116580009 0.5030375719
2.699337959 5.083133698 0.7015365362
2.67051959 5.026753426 0.894856751
2.699440718 5.076908588 1.109426379
2.685206652 5.045894146 1.309661746
2.67949748 5.033041954 1.516214013
2.438029051 4.564110756 -1.374898791
2.649005651 4.956981659 -1.287616491
2.487762928 4.651348114 -1.017074823
2.690824032 5.024682045 -0.6947118044
2.667508841 4.976970196 -0.4903128147
2.707834005 5.050090313 -0.2981067598
2.497262716 4.653475761 -0.0914837122
2.733291149 5.116855621 0.1005589664
2.722378969 5.092144489 0.3004095256
2.730772257 5.10355854 0.5026890039
2.71992588 5.0811553 0.7025114894
2.687118292 5.015658855 0.8945438862
2.723679781 5.081772327 1.112479329
2.703768492 5.040395737 1.310561538
2.693393707 5.016850471 1.514143467
2.458647251 4.566205978 -1.37800467
2.667218447 4.949419022 -1.288066387
2.507831335 4.651714325 -1.018983006
2.717778444 5.032725811 -0.6971492171
2.683052778 4.966343403 -0.4901385307
2.728294611 5.045879364 -0.2984207869
2.519341946 4.657480717 -0.09172805399
2.749240398 5.10376215 0.1004891619
2.747779131 5.098911285 0.301351577
2.746734142 5.092721462 0.5025146604
2.745188236 5.085606098 0.7044613957
2.704673767 5.008458614 0.894856751
2.739533901 5.068779945 1.111716151
2.726910353 5.041210175 1.313260913
2.708175659 5.00449419 1.513108253
2.599937677 4.788488865 -1.448403478
2.687334061 4.947399139 -1.28986609
2.525930166 4.646380901 -1.019746184
2.644021273 4.861584187 -0.8698272705
2.736352205 5.027172565 -0.6976367235
2.697511911 4.951699257 -0.4896155894
2.745013714 5.036803246 -0.2984207869
2.545158625 4.666213989 -0.09207710624
2.766151428 5.094616413 0.1004891619
2.773188829 5.103329182 0.3021889627
2.769255161 5.091853142 0.5033861995
2.760141611 5.072986603 0.703973949
2.728754282 5.01113081 0.897046864
2.752572298 5.052770615 1.110189557
2.747343302 5.038984299 1.315060496
2.729330778 5.001792431 1.5151788
2.614873886 4.778146267 -1.447885752
2.705524445 4.939696789 -1.290315866
2.554530621 4.662083626 -1.025088787
2.653375626 4.838469982 -0.8673243523
2.755792856 5.021070957 -0.6981242299
2.730126619 4.970193863 -0.4924045801
2.760656118 5.02368927 -0.2982114255
2.562394142 4.659054279 -0.09211200476
2.78775835 5.091946602 0.1006287783
2.792904139 5.097121239 0.3023982942
2.79378581 5.096619129 0.5047807097
2.777831793 5.06332159 0.703973949
2.753834486 5.015427589 0.8995497823
2.777753592 5.056898117 1.113242626
2.768670082 5.036195278 1.31686008
2.757950068 5.012545109 1.521390438
1.371173739 2.480805397 -0.5427235961
1.361133814 2.460614443 -0.4386937916
2.771381855 5.007946491 -0.6976367235
2.757111549 4.978063583 -0.4941476882
2.785827398 5.025765419 -0.2989441156
2.58348918 4.658825397 -0.09228652716
2.809382439 5.089186192 0.1007683948
2.804883242 5.076852322 0.3017702699
2.814376593 5.089831829 0.5051293373
2.798370838 5.058805943 0.7047051191
2.772283077 5.007512093 0.8998626471
2.803882837 5.06042099 1.116295457
2.783328533 5.019197464 1.315060496
2.777303696 5.006266594 1.522425771
1.342115641 2.411306381 -0.727851212
1.342008114 2.40913415 -0.6267102361
1.354976296 2.431416035 -0.5328015089
1.366828561 2.45067215 -0.4377551973
2.793587208 5.004689217 -0.6986116767
2.769509792 4.957487583 -0.4931018054
2.809198856 5.026472092 -0.2995721698
2.59664607 4.642342567 -0.09214691073
2.835798025 5.092833042 0.1010476425
2.833195925 5.083983898 0.302816987
2.836005926 5.086938381 0.5058265924
2.824632406 5.062382221 0.7066550255
2.787727118 4.992143631 0.8989240527
2.829188585 5.064314365 1.119348526
2.806539059 5.019655704 1.317759871
2.79940629 5.00279808 1.524496198
1.357090116 2.41632843 -0.6298595667
1.370613337 2.438413143 -0.5354728103
1.370958447 2.437037945 -0.4361908436
2.817856312 5.007016182 -0.7003178
2.792663097 4.958206654 -0.4941476882
2.83937335 5.03701973 -0.3008282185
2.620690107 4.647186756 -0.09242615104
2.856496334 5.088133335 0.101152353
2.85679388 5.084510803 0.3034450114
2.855609179 5.078245163 0.5060008764
2.854937792 5.074983597 0.7098236084
2.810952425 4.992710114 0.900801301
2.847732544 5.053910255 1.119348526
2.832575083 5.02291584 1.321359158
2.813056707 4.986264706 1.522425771
1.358917117 2.401878119 -0.727851212
1.371276975 2.421751261 -0.6325589418
1.3815943 2.438979387 -0.5366176963
1.384878516 2.442788601 -0.4380680621
2.841195822 5.007507801 -0.7017802596
2.811058044 4.952383041 -0.4944962859
2.852116108 5.020628929 -0.3004095256
2.643815279 4.650178432 -0.09267048538
2.869311094 5.069431782 0.1009778306
2.878463745 5.081458092 0.3038637042
2.87046814 5.065281868 0.5056522489
2.857947111 5.039085865 0.7061675787
2.835187674 4.994893074 0.9029913545
2.862536192 5.041025162 1.118585229
2.853069067 5.020271301 1.323158741
2.836176872 4.986489773 1.52553153
1.367292404 2.397120237 -0.727851212
1.37199378 2.403410196 -0.6289597154
1.396914244 2.446076155 -0.5392889977
1.394377708 2.439654112 -0.4383809268
2.859640121 4.999284744 -0.702023983
2.835256338 4.95464468 -0.4957164824
2.863665104 5.000245571 -0.2997815013
2.661027193 4.642655373 -0.0927053839
2.872124672 5.033332348 0.1004542559
2.874392748 5.03322506 0.3015609384
2.873305321 5.029282093 0.5030375719
2.863694429 5.00840044 0.7032427192
2.850645065 4.981536388 0.9023656249
2.884018183 5.037816525 1.120111704
2.870577097 5.010280609 1.323158741
2.859327793 4.986616135 1.528637409
1.387208223 2.412428856 -0.7340628505
1.390093327 2.41549778 -0.6334587336
1.404465199 2.439483166 -0.5389074087
1.40978694 2.446753979 -0.4405709803
2.878066778 4.990991592 -0.702267766
2.857508421 4.95334816 -0.4965880215
2.891089678 5.00751543 -0.3008282185
2.685219526 4.647190571 -0.09298462421
2.891672373 5.026741982 0.1005240604
2.883973598 5.009312153 0.3007235527
2.900788307 5.036486149 0.5047807097
2.884134769 5.00353241 0.703973949
2.882819176 4.997223377 0.9070586562
2.907473087 5.037922382 1.122401357
2.888045073 5.00023222 1.323158741
2.88445282 4.989984512 1.532778502
1.3956213 2.407571554 -0.7340628505
1.403406739 2.419058323 -0.6357082725
1.418885589 2.444753647 -0.5411971211
1.426257133 2.455482721 -0.4430739582
2.897464991 4.984347343 -0.7027552128
2.914578199 5.007750511 -0.3014562428
2.693373919 4.623965263 -0.0927053839
2.912209749 5.021807671 0.1006287783
2.913473606 5.019943237 0.3019796014
2.916349649 5.022884846 0.5044320822
2.902581215 4.995149612 0.7042176127
2.887336731 4.964930058 0.9029913545
2.927016497 5.031135559 1.123164654
2.909404993 4.996856213 1.324958324
2.903797865 4.983224392 1.533813834
1.405964732 2.406022549 -0.7350981832
1.41774559 2.424237728 -0.6384077072
1.426417708 2.438092232 -0.5408155322
1.435818553 2.452193737 -0.4433868229
2.919865608 4.982766151 -0.703973949
2.778161764 4.739051342 -0.476890862
2.938106298 5.007881165 -0.3020842671
2.71557045 4.624883652 -0.09291481972
2.933759451 5.018516064 0.1007683948
2.935009718 5.016640186 0.3023982942
2.931853533 5.009234428 0.5040834546
2.927019835 4.996979713 0.7059237957
2.908647776 4.961637497 0.9042428732
2.943564177 5.01919651 1.122782946
2.932749748 4.996753216 1.3276577
2.919219017 4.969725609 1.532778502
1.417296886 2.406093359 -0.7366511226
1.429167628 2.424310684 -0.6397573948
1.448882461 2.456773043 -0.5461581349
1.447381258 2.452270508 -0.4443254471
2.943299532 4.982797623 -0.7054363489
2.779481649 4.703595638 -0.4742761552
2.95252037 4.992436886 -0.3017702699
2.737809896 4.625700951 -0.09312424809
2.94922781 5.004799366 0.1006985903
2.960621119 5.02012682 0.3032356799
2.953369617 5.005834103 0.5047807097
2.943436861 4.985022068 0.7056800723
2.931977749 4.961658478 0.9061200023
2.963065863 5.012269974 1.123546243
2.956126213 4.996549129 1.330357194
2.942455769 4.969478607 1.53588438
1.433576822 2.414420366 -0.7407921553
1.436626315 2.417631388 -0.6393074989
1.466477752 2.466889143 -0.5495927334
1.458963037 2.45229578 -0.4452640414
2.957773209 4.969600201 -0.7049488425
2.792825699 4.688728809 -0.4737532139
2.972996235 4.987247467 -0.3020842671
2.761329412 4.630335331 -0.09340348095
2.972806454 5.00479126 0.1009080261
2.981334686 5.017148495 0.3036543727
2.985081911 5.019469738 0.5072211027
2.96487999 4.981541157 0.7066550255
2.957509518 4.967184544 0.9089358449
2.986572742 5.012016296 1.125836015
2.976671934 4.993413448 1.332156777
2.964856863 4.969648361 1.53899014
1.449510455 2.422915459 -0.7449332476
1.451642752 2.424558163 -0.6424568295
1.474650979 2.462012053 -0.5495927334
1.477242947 2.464387655 -0.4483927488
2.970154524 4.952954292 -0.703973949
2.81553483 4.691401005 -0.4749733806
2.993630886 4.984210491 -0.3025029898
2.772548199 4.61429739 -0.09326386452
3.023276567 5.051528454 0.1020598784
3.016422272 5.038079262 0.3055384457
3.028337717 5.053977966 0.5117532015
3.010990858 5.021051884 0.7137234807
3.000387907 5.001391411 0.9170704484
3.010252237 5.013866425 1.128507257
2.991206646 4.980174541 1.331256986
2.987290859 4.969724178 1.542096019
1.462523103 2.426368237 -0.7475214601
1.463701844 2.426405191 -0.644256413
1.478749156 2.450385094 -0.5480661988
1.490513682 2.467929363 -0.4499570727
2.996668339 4.957845211 -0.7061675787
2.832924366 4.68324995 -0.4751477242
3.016348124 4.984507084 -0.3031309843
2.788637161 4.60459137 -0.09326386452
3.046205997 5.051750183 0.1022692993
3.042244673 5.041200638 0.3063758314
3.047139168 5.047319889 0.5121017694
3.032756567 5.019535542 0.7149421573
3.01885128 4.992577076 0.9173833132
3.031941891 5.012256145 1.13041532
3.008573771 4.969702244 1.331256986
3.006623507 4.96257019 1.543131232
1.46638906 2.412737608 -0.7449332476
1.479248881 2.432937145 -0.6474057436
1.492823601 2.453334093 -0.5499743223
1.501603484 2.465824604 -0.4505828023
3.021184683 4.959222317 -0.7078737617
2.845106602 4.666526794 -0.474450469
3.038757086 4.980239391 -0.3035497069
2.813029289 4.608483315 -0.09354309738
3.06070447 5.035960197 0.1021645889
3.061900377 5.03396225 0.3065851629
3.055259228 5.019097805 0.5103586912
3.052325487 5.012308598 0.7154296041
3.030091047 4.971889019 0.9155060649
3.047226667 4.996080875 1.129270554
3.032859087 4.968622208 1.333956361
3.017885923 4.942152977 1.540025353
1.477830052 2.412545919 -0.746486187
1.489174128 2.429160833 -0.6478556395
1.513694167 2.468191862 -0.5545537472
1.511234283 2.462251663 -0.4508956671
3.049731731 4.965029716 -0.7103111148
2.866595745 4.665054321 -0.4753220379
3.05821681 4.973003387 -0.3037590384
2.834093094 4.604955196 -0.09368272871
3.072876453 5.014475822 0.1019551679
3.08241725 5.02611208 0.3067945242
3.079013824 5.018591404 0.5114045143
3.071713924 5.002779961 0.7156733871
3.055534363 4.972529888 0.9176962376
3.065674543 4.987086296 1.129652143
3.058354855 4.971283436 1.337555647
3.046109438 4.947508335 1.545201778
1.494361877 2.420522928 -0.7506272793
1.495596528 2.420631886 -0.6469558477
1.527462602 2.471242666 -0.5564618707
1.528133988 2.47040081 -0.4533986151
3.060771465 4.944228649 -0.7088487148
2.889155388 4.665183544 -0.4763679206
3.074501753 4.960602283 -0.3036543727
2.856475353 4.605229378 -0.09389214963
3.102967262 5.024137497 0.1023740172
3.107295036 5.027213573 0.3075272143
3.105940104 5.023066521 0.5129733682
3.092293024 4.99709034 0.7164045572
3.088472605 4.987025738 0.9223892093
3.088235617 4.984698772 1.131560206
3.083903074 4.973827362 1.341154814
3.067434072 4.943411827 1.547272444
1.503822088 2.416932344 -0.7511449456
1.508157849 2.422013044 -0.6487554312
1.535040736 2.464229584 -0.5560802221
1.544064045 2.476785183 -0.4555887282
3.080114603 4.936882496 -0.7093361616
2.911752939 4.665210247 -0.4774137735
3.099206448 4.961696625 -0.3043870628
2.876772404 4.602013588 -0.09403177351
3.128941059 5.026856422 0.102653265
3.121654987 5.011250973 0.3072131872
3.135047674 5.030793667 0.51489079
3.113918304 4.993003845 0.71737957
3.106909037 4.977889061 0.9227020741
3.11601305 4.990541935 1.135376334
3.099182367 4.959726334 1.340255022
3.094913006 4.949055195 1.55244875
1.513276458 2.413304567 -0.7516625524
1.529031515 2.436542511 -0.6541542411
1.545721531 2.46218133 -0.5568434596
1.565309048 2.491453409 -0.4593431354
3.103669405 4.936182499 -0.7107985616
2.9269557 4.653333187 -0.4772394598
3.120764256 4.957608223 -0.3048057556
2.88855648 4.585175037 -0.09389214963
3.159221888 5.036230087 0.1030721143
3.149749279 5.017238617 0.3082599342
3.155769587 5.024880409 0.5154137015
3.137667418 4.9921875 0.71884197
3.127418041 4.972032547 0.9236406684
3.139689207 4.989603519 1.137666106
3.120626211 4.955476284 1.342054605
3.112171173 4.938220501 1.55244875
1.523753524 2.411274672 -0.7526978254
1.541694522 2.437778234 -0.6559538841
1.556406736 2.460088491 -0.5576066971
1.576110244 2.489311695 -0.4599688649
3.121942997 4.926996231 -0.7110423446
2.942115784 4.641404629 -0.477065146
2.910975933 4.58519268 -0.094101578
3.174644232 5.021792412 0.1030023098
3.173651695 5.016339302 0.3088879585
3.170092583 5.008784294 0.51489079
3.165697813 4.997973919 0.7212793827
3.147928715 4.966089725 0.9245793223
3.154985666 4.975297451 1.136902928
3.144171953 4.954424381 1.3447541
3.131459713 4.930588722 1.553483963
1.541501284 2.420606375 -0.7573565841
1.554383278 2.438955545 -0.6577534676
1.575537205 2.471195936 -0.5614228845
1.58266449 2.480464697 -0.4593431354
3.153012037 4.937818527 -0.7142109871
2.960445881 4.634463787 -0.4774137735
3.161753416 4.945797443 -0.30543378
2.939892292 4.595219135 -0.09452044219
3.190006495 5.007306099 0.1029324979
3.204023838 5.025442123 0.310144037
3.192915916 5.006086349 0.5157623291
3.189529419 4.996934414 0.7227417827
3.172689676 4.966723442 0.9267693758
3.172330379 4.964256287 1.136902928
3.16984725 4.956552029 1.348353267
3.150735855 4.922881603 1.554519296
1.559332252 2.42984271 -0.7620153427
1.561834931 2.431874752 -0.6573035717
1.592644095 2.478894711 -0.5644758344
1.599860787 2.488217115 -0.4618461132
3.154333591 4.903961658 -0.7107985616
2.981995821 4.632478714 -0.4782853127
3.166017771 4.914583206 -0.3041777015
2.961615562 4.595529556 -0.09472987056
3.210703611 5.001190662 0.1030372083
3.21419692 5.004705906 0.3095159829
3.222219229 5.013347149 0.5176797509
3.209101915 4.989109039 0.7232292891
3.198761702 4.971126556 0.9295852184
3.204521656 4.976259708 1.142245531
3.197874308 4.964033604 1.353302121
3.184837818 4.940009594 1.563319087
1.570528388 2.429525375 -0.7635682225
1.579416871 2.441408157 -0.661352694
1.600856185 2.473599195 -0.5644758344
1.613471866 2.491188288 -0.4634104371
3.129561901 4.830167294 -0.7015365362
3.012515783 4.645968914 -0.4807256758
3.14641881 4.848768711 -0.3007235527
2.974659681 4.582328796 -0.09466005862
3.245731831 5.019061565 0.1036305949
3.240538359 5.009112358 0.3104580343
3.230162859 4.989255428 0.5162852407
3.216994762 4.965111256 0.7212793827
3.203409672 4.942258358 0.9261437058
3.208186626 4.945840359 1.137666106
3.193101168 4.920708179 1.344304085
3.186473131 4.906737328 1.556072235
1.584900856 2.434017658 -0.7666741014
1.601335764 2.457381725 -0.6672013998
1.609049678 2.468277454 -0.5644758344
1.632517934 2.502367973 -0.4665391445
3.118186474 4.775997639 -0.6951993108
3.049422503 4.667115211 -0.4840376079
3.160296679 4.834964275 -0.3005142212
2.992827892 4.575263977 -0.09472987056
3.239438772 4.973082542 0.1028975919
3.234009027 4.960960388 0.3081552684
3.226013184 4.946806908 0.5129733682
3.219336987 4.932805538 0.7181107998
3.197958469 4.896314144 0.9195733666
3.204165459 4.903947353 1.13041532
3.186796904 4.87364912 1.334406376
3.172903776 4.848706722 1.541060686
1.606531501 2.447572947 -0.7728857398
1.627017379 2.477840662 -0.6743998528
1.624553919 2.472208023 -0.5667654872
1.646019697 2.50296998 -0.4677906036
3.110835552 4.728599548 -0.6898370385
3.073363543 4.668091297 -0.4852577746
3.145031929 4.773313999 -0.2973740697
3.010979891 4.568128586 -0.09479967505
3.228247643 4.918280125 0.1019900665
3.229374647 4.916255474 0.3060618043
3.206912518 4.878343105 0.5070467591
3.199450016 4.86514616 0.7098236084
3.187882662 4.843868256 0.9117516875
3.191880465 4.846263885 1.119730115
3.176753283 4.819633007 1.322708845
3.154715061 4.784379959 1.523978591
1.624656081 2.456452608 -0.7775444984
1.635013223 2.470235348 -0.6739499569
1.641844153 2.479618073 -0.5698184371
1.658020735 2.502148628 -0.468729198
3.104011059 4.680769444 -0.6844748259
3.085235119 4.65069294 -0.4845605493
3.124113798 4.705732822 -0.2938151956
3.036557198 4.57038641 -0.09507891536
3.201013565 4.838037491 0.1005589664
3.209880829 4.847767353 0.3025029898
3.199714899 4.830577374 0.5032119155
3.195323229 4.820296764 0.7049488425
3.187049627 4.804168701 0.9064329267
3.171868801 4.779474258 1.106755137
3.179543495 4.787410259 1.31686008
3.15084362 4.740606308 1.51362586
1.638578176 2.458803892 -0.7801327109
1.628487945 2.441815853 -0.6676513553
1.659206986 2.486936569 -0.572871387
1.675519347 2.509489059 -0.4712321758
3.078421593 4.607185364 -0.6752127409
3.088162661 4.620018482 -0.4824687839
3.093879461 4.625076294 -0.2894189656
3.065840244 4.57970047 -0.0954977721
3.207897902 4.811861038 0.1002448276
3.221242189 4.828225136 0.3019796014
3.216556311 4.819379807 0.5032119155
3.202207565 4.794255733 0.7027552128
3.196115017 4.781519413 0.9042428732
3.190714359 4.77163744 1.107518315
3.185396433 4.76008749 1.312361121
3.173823118 4.739209175 1.516731739
1.651459217 2.4594841 -0.7822031975
1.630480766 2.426411152 -0.6649519205
1.672259688 2.487646341 -0.574397862
1.689782739 2.511819601 -0.4727964997
3.063442945 4.550305367 -0.6683880687
3.088690519 4.586074352 -0.4800284207
3.089911461 4.584437847 -0.2875348926
3.097464085 4.592179775 -0.09598644078
3.229133844 4.807274342 0.100384444
3.223592281 4.79540205 0.3006188869
3.234470367 4.809776306 0.5033861995
3.223357916 4.789635658 0.7037302256
3.211683512 4.768693924 0.9039299488
3.215031147 4.771867752 1.110189557
3.195456982 4.739244461 1.309661746
3.195746422 4.73611021 1.519319892
1.641631126 2.426503658 -0.7734034061
1.636755109 2.417477846 -0.6640521288
1.685336351 2.488296509 -0.5759243369
1.707406402 2.518987656 -0.4752994478
3.049221039 4.495227337 -0.6618071198
3.044269323 4.486237526 -0.4706156254
3.062136412 4.509183884 -0.2834526896
3.24947691 4.781462669 -0.1002099216
3.255983353 4.810877323 0.1006985903
3.247030735 4.794043064 0.3012469113
3.255711079 4.805053234 0.5040834546
3.241170406 4.779998779 0.703973949
3.219437838 4.744377136 0.9014270306
3.247105122 4.78335762 1.115532279
3.220742464 4.74095583 1.313260913
3.21660471 4.73131609 1.521390438
1.631175399 2.393906832 -0.7646034956
1.642566562 2.408817053 -0.6631523371
1.696897149 2.487560034 -0.5770692229
1.717978358 2.516574144 -0.4759251773
3.21876502 4.7096982 -0.4953678548
3.239437342 4.736396313 -0.2985254526
3.293550968 4.811915398 -0.101082541
3.274172783 4.803356647 0.1007683948
3.271913767 4.796449184 0.3020842671
3.267136812 4.78764677 0.5033861995
3.265958786 4.782339096 0.7059237957
3.250756264 4.756507874 0.9058071971
3.262948513 4.772564411 1.115532279
3.245249033 4.743116856 1.31686008
3.227912188 4.71424675 1.519319892
1.640615702 2.389790535 -0.7651211619
1.64765501 2.398249865 -0.6618025899
1.720026731 2.502654791 -0.5820302367
1.728990793 2.513817549 -0.4765509069
3.296969652 4.789959431 -0.7088487148
3.296200752 4.787047863 -0.5047807097
3.304682732 4.795776844 -0.3030263186
3.31373477 4.805327415 -0.101187259
3.286388397 4.785307407 0.1006287783
3.295425177 4.794874191 0.3027123213
3.292855501 4.789349556 0.5047807097
3.282633543 4.770908833 0.7059237957
3.272940636 4.753267288 0.9073715806
3.279589415 4.761144161 1.115532279
3.270632744 4.744596004 1.320459366
3.250931263 4.712490559 1.522425771
1.647848248 2.382460594 -0.7646034956
1.656017065 2.392483234 -0.6618025899
1.732104421 2.501477957 -0.5831750631
1.744506478 2.517508268 -0.4784281552
3.318195581 4.784945488 -0.7098236084
3.315163136 4.778786182 -0.5051293373
3.322538137 4.785854816 -0.3031309843
3.341896772 4.810154438 -0.1015363038
3.309900522 4.78367281 0.1008382067
3.316689253 4.789910316 0.3031309843
3.318631411 4.790928364 0.50617522
3.294742346 4.752896309 0.7049488425
3.291765451 4.745059013 0.9079972506
3.29842639 4.752893925 1.116295457
3.284952641 4.729948521 1.319559574
3.278383732 4.716979504 1.527602077
1.656155109 2.376693487 -0.7646034956
1.667700768 2.391484737 -0.6631523371
1.745319486 2.501856804 -0.5847015977
1.769112587 2.534080744 -0.4828083217
3.332605839 4.770078659 -0.7093361616
3.3386693 4.776986122 -0.50617522
3.343804121 4.78077364 -0.3035497069
3.356374979 4.795182228 -0.1014664918
3.335727692 4.785212517 0.101117447
3.331104994 4.775026798 0.3029216528
3.342177153 4.789117336 0.5072211027
3.32949996 4.767405033 0.7088487148
3.323016882 4.754590511 0.9120645523
3.328497648 4.760658264 1.120875001
3.30590868 4.724842072 1.321359158
3.303694725 4.718166351 1.531743288
1.693301797 2.412006855 -0.7780621052
1.723089814 2.452619553 -0.6820482016
1.761944771 2.50699234 -0.5873728991
1.783630371 2.535968542 -0.4843726754
3.358375788 4.77140379 -0.711286068
3.359912872 4.771818161 -0.5068724155
3.367373466 4.778869152 -0.3041777015
3.371104717 4.782392025 -0.1014315933
3.363902569 4.789904118 0.1014664918
3.358401775 4.780297756 0.30396837
3.36116457 4.780682087 0.5075696707
3.347264528 4.757376194 0.7090924382
3.323985577 4.722544193 0.9079972506
3.348488331 4.753825188 1.122019768
3.329119205 4.722829342 1.324058533
3.326003551 4.716656685 1.534849048
1.742983341 2.464440823 -0.7972147465
1.763854861 2.49302578 -0.6950953603
1.776355624 2.508839369 -0.5892809629
1.7965976 2.536486864 -0.4856241345
3.376474857 4.763480663 -0.7117735744
3.371939421 4.753559589 -0.50617522
3.387824774 4.774192333 -0.3045964241
3.394726276 4.780376911 -0.1016410217
3.379766941 4.778723717 0.1014664918
3.377374411 4.771806717 0.3041777015
3.373226643 4.762415886 0.5068724155
3.369907618 4.755969524 0.7105548382
3.348449469 4.722190857 0.910187304
3.361961126 4.739492893 1.12125659
3.351531744 4.721296787 1.326757908
3.340209007 4.701869011 1.533813834
1.760112524 2.471235037 -0.8013558388
1.771414757 2.485267162 -0.6946454644
1.792644739 2.514124155 -0.5919523239
1.811177135 2.538240433 -0.4871884882
3.404619455 4.767819881 -0.7142109871
3.402411699 4.761213303 -0.5082669258
3.41143918 4.77208519 -0.3052244186
3.421862602 4.783136368 -0.1019551679
3.394108057 4.763638973 0.1013966873
3.405606747 4.776249409 0.3052244186
3.400569677 4.767424107 0.5086155534
3.388794184 4.747409344 0.7110423446
3.374097586 4.723333836 0.9126903415
3.381908178 4.732521534 1.122401357
3.377061605 4.722249508 1.330357194
3.3633461 4.699607372 1.536919594
1.799572945 2.50714159 -0.8153320551
1.809630752 2.520225286 -0.7063429356
1.836216211 2.555367231 -0.6034008861
1.825081706 2.53799963 -0.4884399474
3.423558474 4.759129524 -0.7146983743
3.421340227 4.752540588 -0.5086155534
3.42890811 4.759548664 -0.3052244186
3.447892666 4.78414011 -0.1022344008
3.420042753 4.764759541 0.1016759202
