# .PCD v0.7 - Point Cloud Data file format
VERSION 0.7
FIELDS x y z
SIZE 4 4 4
TYPE F F F
COUNT 1 1 1
WIDTH 1252
HEIGHT 1
VIEWPOINT 0 0 0 1 0 0 0
POINTS 1252
DATA ascii
4.140017986 -3.422486782 1.427697897
2.289917946 -1.897753119 -0.7853090763
2.593699217 -2.151037455 -0.7679795027
3.045783281 -2.526862621 -0.7610090971
3.107376099 -2.579793215 -0.6329854727
3.109218597 -2.583157063 -0.4911900163
3.049479485 -2.53442502 -0.3431939483
3.267794609 -2.717796087 -0.2205448598
4.085363865 -3.400174379 -0.09207710624
3.118947744 -2.585724115 0.07001725584
3.24498105 -2.692122459 0.2187654376
3.666047096 -3.04253006 0.4130928218
4.099235058 -3.404459238 0.649132669
4.108692646 -3.41473794 0.8394790292
4.098381996 -3.407378197 1.027760148
4.104851246 -3.415180683 1.222830534
4.122107506 -3.431973219 1.425627351
2.290695429 -1.911924362 -0.7878972888
2.586174965 -2.160078049 -0.7679795027
3.036944866 -2.537478924 -0.7610090971
3.092290401 -2.58555603 -0.6317340136
3.086481094 -2.582529545 -0.4889963865
3.032974958 -2.538660288 -0.3423223794
3.258287907 -2.729186535 -0.2205448598
4.050482273 -3.395145416 -0.09155353159
3.106832981 -2.594032526 0.06994745135
3.223303318 -2.693188429 0.2179280818
4.073622704 -3.407285213 0.6469390988
4.081599712 -3.416380167 0.8363503218
4.074420452 -3.411580324 1.024707198
4.082449436 -3.42072773 1.219681263
4.096779823 -3.435170174 1.420968652
2.278092146 -1.914936543 -0.785826683
2.590549707 -2.179127932 -0.7715787292
3.025063992 -2.545536041 -0.7602458
3.071157932 -2.586154938 -0.6292310357
3.068339586 -2.585612774 -0.4875339568
3.007338047 -2.535106182 -0.3404049575
3.253321409 -2.744406462 -0.2208588719
4.020269394 -3.393784523 -0.0911346674
3.088576317 -2.597139597 0.06973802298
3.342250824 -2.812443018 0.2267205119
4.022729874 -3.386253357 0.4563221037
4.054112911 -3.415089846 0.6457203627
4.046994686 -3.411508799 0.8316572309
4.059485435 -3.423250914 1.02394402
4.051122665 -3.418618917 1.213832498
4.064100266 -3.43200016 1.413721681
2.266970396 -1.919132233 -0.7842737436
2.582926989 -2.188157558 -0.7715787292
3.031137705 -2.56877327 -0.7640619874
3.039513826 -2.577694893 -0.6245380044
3.053693771 -2.59063673 -0.4865590036
2.990876436 -2.539141178 -0.3395333886
3.24676609 -2.758332491 -0.2210682333
3.999851227 -3.399328232 -0.09092524648
3.064231396 -2.59498167 0.06938897073
3.168322086 -2.684081793 0.2154159397
4.015444756 -3.404140234 0.4568450153
4.028543949 -3.417662144 0.6435266733
4.032647133 -3.422353983 0.8310315013
4.02656126 -3.419607878 1.018601298
4.030852795 -3.424463511 1.211133122
4.03356266 -3.429191113 1.406992435
2.270886183 -1.935411096 -0.7878972888
2.575656652 -2.196710587 -0.7715787292
3.010654688 -2.568616629 -0.7610090971
3.026442051 -2.583912134 -0.6235994101
3.031500578 -2.589146137 -0.484365344
2.97638154 -2.54386735 -0.3388361633
3.230012178 -2.762593269 -0.2205448598
3.976400852 -3.402172804 -0.09064600617
3.04039216 -2.592155218 0.06903992593
3.183718204 -2.715310574 0.2170906812
4.005649567 -3.418730259 0.4570193291
4.000584126 -3.41682148 0.6408455968
4.00475502 -3.421592951 0.8275899291
3.994308949 -3.415080309 1.013258696
4.012070179 -3.431478977 1.208883643
4.014831066 -3.436267614 1.404404283
2.276185036 -1.952994704 -0.7920383811
2.558008671 -2.196353197 -0.7684293985
3.007626295 -2.584228039 -0.7625355721
3.011864424 -2.588783264 -0.6223478913
3.005889654 -2.585473061 -0.4816842079
2.956913471 -2.545142651 -0.3376159668
3.209756374 -2.764726877 -0.2198121548
3.952381849 -3.405590296 -0.09036676586
3.022675276 -2.594408512 0.06883049756
3.110586882 -2.671750784 0.212694481
3.976156235 -3.416413307 0.4549275637
3.966653824 -3.410655975 0.6371895075
3.989792347 -3.432974577 0.8269641995
3.970462084 -3.418754578 1.010205746
3.985302925 -3.432744741 1.204384565
3.991105318 -3.44017005 1.400263071
2.264626741 -1.957533956 -0.7904854417
2.563205719 -2.217188358 -0.7724785209
2.992197037 -2.590094328 -0.7610090971
2.996382475 -2.594632864 -0.6210964322
2.984391689 -2.586072922 -0.4797343016
2.953585863 -2.561184883 -0.3383132219
3.187533617 -2.766000748 -0.2189747989
3.918731213 -3.401700735 -0.08987809718
3.01012063 -2.602853775 0.06876068562
3.164206505 -2.738022804 0.2170906812
3.956076145 -3.42444396 0.4540560246
3.945123911 -3.417373419 0.6357271075
3.947330475 -3.421697378 0.8207067847
3.940108061 -3.417846441 1.005626321
3.938841581 -3.417952538 1.194036841
3.96096611 -3.439575434 1.394051552
2.250152588 -1.959478021 -0.7878972888
2.558000803 -2.229128599 -0.7733783722
2.972778559 -2.591492891 -0.7583377957
2.98089838 -2.600403309 -0.6198449731
2.974893093 -2.596993923 -0.4797343016
2.940125942 -2.567547321 -0.3377902806
3.186882496 -2.784996033 -0.2196028382
3.891184807 -3.402877092 -0.08952904493
2.982466698 -2.598106861 0.06834182888
3.18576622 -2.777163029 0.2192888111
3.917970419 -3.416659594 0.4510927498
3.923597813 -3.423978806 0.634264648
3.921372175 -3.424448013 0.8178910613
3.934067726 -3.436745405 1.007152796
3.927754879 -3.433648825 1.194486737
3.927976608 -3.436262369 1.386804461
2.250561237 -1.973689079 -0.7904854417
2.54727459 -2.235473394 -0.7724785209
2.954862118 -2.594082832 -0.7560480833
2.943606615 -2.586021423 -0.613900423
2.961336851 -2.603430271 -0.4790030718
2.943114519 -2.588320494 -0.339184761
3.177141666 -2.796103239 -0.2196028382
3.867277145 -3.405866146 -0.08924981207
2.96135354 -2.597951889 0.06806258857
3.185058117 -2.796172619 0.2199168503
3.8910501 -3.417167902 0.4493496418
3.902675629 -3.429791212 0.6328021884
3.899010897 -3.428983212 0.8157008886
3.888144732 -3.420630932 0.9983754754
3.895267963 -3.429310799 1.188188076
3.90001297 -3.43590498 1.381110549
2.242209911 -1.980254173 -0.7899677753
2.536535263 -2.241770267 -0.7715787292
2.923726559 -2.584875822 -0.7503237724
2.918287754 -2.581882954 -0.6104589105
2.923992157 -2.588749647 -0.4743720591
2.922129631 -2.58801055 -0.3377902806
3.091132402 -2.739615202 -0.2142645568
3.854465723 -3.417345285 -0.0892149061
2.934283733 -2.592385292 0.06764373183
3.201209545 -2.829204082 0.2216962725
3.86689496 -3.422343254 0.6289023757
3.871349335 -3.427490234 0.812259376
3.861485958 -3.421163559 0.9945593476
3.873066664 -3.433836699 1.185038805
3.874144554 -3.436000586 1.375934124
2.238171101 -1.990636587 -0.7910030484
2.531999111 -2.252760172 -0.7724785209
2.918560266 -2.599428892 -0.6123360991
2.910945654 -2.594469309 -0.4736408293
2.904156208 -2.590237856 -0.3367443979
2.907665253 -2.594278574 -0.2020179331
2.920670033 -2.607713461 -0.06764373183
2.925671101 -2.602101326 0.06764373183
3.167443514 -2.819115162 0.2200215161
3.459434748 -3.081161022 0.4015882611
3.842185497 -3.423262596 0.626708746
3.851989985 -3.434410334 0.8106950521
3.838399172 -3.42349577 0.9915063977
3.84711957 -3.433685303 1.180539846
3.860686302 -3.4482162 1.375416517
2.240193129 -2.005779743 -0.7941089272
2.531377077 -2.268086672 -0.7747280002
2.884134769 -2.585061312 -0.7445995212
2.921233177 -2.620152473 -0.6148390174
2.894484997 -2.597984791 -0.4724221528
2.89406848 -2.598522902 -0.3365701139
2.892649174 -2.599072933 -0.2015992552
2.896679401 -2.604522467 -0.06729467958
2.907632589 -2.604293108 0.06743430346
3.175430775 -2.846151114 0.2212775648
3.822825432 -3.430024624 0.6254900694
3.822339773 -3.431998253 0.8069406152
3.823503971 -3.434249401 0.9907431006
3.822066307 -3.435369253 1.176490664
3.834263086 -3.448752165 1.370240211
2.227438927 -2.008412838 -0.7920383811
2.527785063 -2.280825377 -0.7760777473
2.873636246 -2.593797922 -0.7442178726
2.976569653 -2.688593388 -0.6286053061
2.929578304 -2.648006201 -0.4797343016
2.890891552 -2.613954306 -0.3372673392
2.886520863 -2.611834526 -0.2018086016
2.881641388 -2.609249353 -0.06715506315
2.882190466 -2.599693537 0.06705035269
3.201059818 -2.889336586 0.2237897068
3.80051899 -3.43403244 0.6237838864
3.795684338 -3.432071209 0.8038119078
3.805669308 -3.442306757 0.9892166853
3.792714119 -3.43299675 1.171091795
3.809314966 -3.450443029 1.365581393
2.210403204 -2.007084846 -0.7884148359
2.529904127 -2.298808813 -0.779227078
2.906694889 -2.642108202 -0.7552847862
2.967166424 -2.698967457 -0.6286053061
2.967293739 -2.700975895 -0.4875339568
2.945095539 -2.681710482 -0.3447627425
2.917246342 -2.658215284 -0.2046347409
2.887751579 -2.632261515 -0.0675041154
2.861256599 -2.598982573 0.06677111238
3.770889759 -3.431245565 0.6208590269
3.76967454 -3.431342125 0.8006832004
3.770407677 -3.434417248 0.9831107855
3.773506641 -3.439650774 1.168842316
3.785004616 -3.451341629 1.360922575
2.213363409 -2.02391386 -0.7920383811
2.509325504 -2.295348167 -0.7751779556
2.951036453 -2.701285362 -0.7694047093
2.971492529 -2.722871304 -0.4897276163
2.950401068 -2.705439806 -0.3465058506
3.102696419 -2.846087456 -0.2184514254
3.734446049 -3.427989483 -0.08778380603
2.857049704 -2.612504721 0.06687582284
3.744852304 -3.430322886 0.6184216142
3.754760981 -3.441810131 0.8000574708
3.743081093 -3.43230629 0.9789130092
3.752028704 -3.442922592 1.165693045
3.75728178 -3.450159788 1.355228662
2.209482431 -2.033859253 -0.7930736542
2.498431683 -2.301452398 -0.7742781639
2.944949627 -2.713716984 -0.7701678872
2.822384834 -2.602598429 -0.601385653
2.966346025 -2.737265348 -0.4904587865
2.953125715 -2.726020336 -0.3479003608
3.10447979 -2.867742538 -0.2192888111
3.709840059 -3.428140163 -0.08746965975
2.868507147 -2.641425848 0.06736449152
3.716805696 -3.428568363 0.6157405376
3.731713057 -3.443525553 0.7975545526
3.723865271 -3.438691378 0.9770048857
3.729968786 -3.446740389 1.162543654
3.735889435 -3.453420877 1.351605177
2.213703632 -2.052066088 -0.7972147465
2.499359369 -2.317675352 -0.7769775391
2.948411226 -2.735999346 -0.7736024857
2.964305162 -2.751711369 -0.633924067
2.964524746 -2.753842354 -0.4916774929
2.962562561 -2.753946781 -0.3501664102
3.105190992 -2.887542009 -0.2200215161
3.675892591 -3.420635223 -0.08694609255
2.868531227 -2.659080267 0.06757391989
3.699597359 -3.435471535 0.6147655845
3.70085907 -3.439050198 0.7934872508
3.705252171 -3.444338083 0.9750968218
3.695689201 -3.43785429 1.155345321
3.713914156 -3.457226753 1.347981691
2.202984333 -2.057913303 -0.7961794138
2.490035534 -2.327689648 -0.7769775391
2.937884092 -2.747300148 -0.7736024857
2.989294052 -2.797332048 -0.6417457461
2.959236622 -2.772112131 -0.3510379493
3.108146191 -2.913643122 -0.2210682333
3.646685362 -3.419677734 -0.08656213433
2.869522333 -2.681496382 0.0678531602
3.682878017 -3.447582006 0.6142780781
3.677533388 -3.443783283 0.7912971973
3.672772408 -3.441732407 0.970135808
3.669666052 -3.440024137 1.151296139
3.689340353 -3.460887671 1.343840599
2.193333387 -2.062560558 -0.7951441407
2.485141516 -2.338605165 -0.7778773904
2.928757668 -2.757027626 -0.7736024857
2.990065813 -2.816710711 -0.6439358592
2.80460763 -2.642928362 -0.4680348635
2.96307373 -2.79421258 -0.3526067436
3.114445448 -2.939012766 -0.2222196162
3.628054619 -3.424888134 -0.08638761938
2.866440535 -2.69647789 0.06799277663
3.65697813 -3.446161509 0.6118406653
3.648844719 -3.439699411 0.7875427008
3.648486614 -3.441768169 0.9667012095
3.661072731 -3.454849243 1.15219593
3.662393332 -3.458513021 1.338146567
2.189287424 -2.072478771 -0.7961794138
2.474543095 -2.344152927 -0.7769775391
2.930998802 -2.777527571 -0.776655376
2.987876177 -2.833407164 -0.6455001831
2.85872221 -2.712826014 -0.4787593484
2.946077824 -2.797678709 -0.3517351747
3.087306023 -2.932817459 -0.2209635675
3.608831167 -3.430643082 -0.08621308953
2.860387087 -2.708718538 0.06806258857
3.629688501 -3.443241596 0.6091595888
3.635382652 -3.451055288 0.7872298956
3.621392965 -3.438977003 0.9625034332
3.634864569 -3.454183578 1.147696853
3.633499384 -3.455300331 1.331934929
2.187269211 -2.085821867 -0.7982500196
2.479036093 -2.364882708 -0.7810266614
2.920798779 -2.788251638 -0.776655376
2.988898039 -2.855254889 -0.6480031013
2.972658634 -2.840734243 -0.4997208714
2.960773468 -2.831354141 -0.3546984792
3.069320679 -2.937208652 -0.220440194
3.585277796 -3.43215704 -0.08593385667
2.85380888 -2.721446753 0.06813240051
3.600422382 -3.439436197 0.6062346697
3.609035492 -3.450074434 0.7841011882
3.59741497 -3.44137001 0.9594504237
3.601064205 -3.447269201 1.140948415
3.6130445 -3.459945917 1.32882905
2.171614408 -2.085415363 -0.7951441407
2.464730978 -2.36855197 -0.779227078
2.925201893 -2.812035561 -0.7804715633
2.987454653 -2.873887777 -0.6498803496
2.962226629 -2.851610422 -0.4997208714
3.077745438 -2.965921879 -0.2218009382
3.562598228 -3.435557604 -0.08568952233
2.855351686 -2.742970943 0.06841164082
3.579209805 -3.444350243 0.6047722697
3.580713987 -3.448206186 0.7806595564
3.579724789 -3.448458195 0.9579240084
3.576382399 -3.447645903 1.136899233
3.591996431 -3.465117693 1.325723171
2.169876814 -2.098355055 -0.7972147465
2.464850664 -2.385271788 -0.7819264531
2.901262283 -2.808574438 -0.776655376
2.990173817 -2.896668673 -0.6526961923
2.973634481 -2.88265872 -0.5033769608
2.752135038 -2.668867826 -0.3316893876
3.063073635 -2.972474098 -0.2214869112
3.530500174 -3.428469181 -0.08520085365
2.857257128 -2.764044046 0.06869087368
3.561462879 -3.451297283 0.6037973166
3.553056955 -3.445557356 0.7772180438
3.563438416 -3.456831217 0.9567791224
3.555936575 -3.451964378 1.134199858
3.567408085 -3.465519905 1.321064591
2.162539005 -2.1059165 -0.7972147465
2.469070435 -2.406101704 -0.7859756351
2.911122322 -2.837871075 -0.7819980979
2.985700846 -2.912606001 -0.6539476514
2.977758646 -2.906887531 -0.5058143735
2.727122068 -2.663146257 -0.3297719359
3.064106703 -2.994315863 -0.2223242968
3.507073164 -3.429586887 -0.08492161334
2.847591639 -2.774000883 0.06869087368
3.111262083 -3.034034014 0.3764874041
3.540869713 -3.455389738 0.602334857
3.538180828 -3.455178499 0.7765922546
3.535902023 -3.454158306 0.952581346
3.535504103 -3.45618248 1.131500363
3.540098667 -3.463091373 1.31537044
2.160691738 -2.118862629 -0.7992852926
2.43979311 -2.394232035 -0.779227078
2.901198626 -2.848015547 -0.7819980979
2.98256135 -2.929931641 -0.6555120349
2.977503061 -2.927005529 -0.5075205564
2.766109467 -2.720146656 -0.335698545
3.486531734 -3.433388948 -0.08471218497
2.843601227 -2.789525509 0.06883049756
3.100652456 -3.044875622 0.3764874041
3.51038003 -3.449640751 0.5991662741
3.51764822 -3.45919776 0.7747151256
3.509827137 -3.452711821 0.9487651587
3.510919809 -3.456198692 1.127451301
3.525236368 -3.472716331 1.314335227
2.154657125 -2.127749443 -0.799802959
2.434192896 -2.405473471 -0.7801268697
2.894031763 -2.860885382 -0.7827612758
2.986359358 -2.954217434 -0.6586407423
2.968952656 -2.940074921 -0.3618452549
2.704066277 -2.679635525 -0.1973077059
3.472286701 -3.442116499 -0.08464238048
2.842382431 -2.807866573 0.06903992593
3.090004921 -3.055680513 0.3764874041
3.484207153 -3.447910309 0.5967288613
3.500542641 -3.465284824 0.7734636068
3.483806372 -3.45112586 0.9449490309
3.492518187 -3.460963964 1.125201821
3.499983788 -3.470784187 1.309158802
2.153069496 -2.140330553 -0.8018734455
2.440018415 -2.427275896 -0.7846258879
2.849738598 -2.835845947 -0.7732208967
2.987744093 -2.975255013 -0.6611436605
2.723162174 -2.712726116 -0.4668161571
2.985996246 -2.976630449 -0.365157187
3.446698427 -3.439487219 -0.08429332823
2.844399214 -2.828557491 0.06931915879
3.467128754 -3.453841686 0.5957539678
3.479237318 -3.467113256 0.7712734938
3.466781616 -3.457113981 0.9434224963
3.47136426 -3.462892294 1.122052431
3.485720158 -3.479641914 1.308123589
2.140497923 -2.141992807 -0.799802959
2.426447868 -2.429837704 -0.7828262448
2.83338356 -2.83833313 -0.7713127732
2.680706024 -2.687264442 -0.5945025682
3.256043434 -3.266288519 -0.5611430407
2.982618093 -2.994092703 -0.3660287261
3.023061037 -3.035750389 -0.2223242968
2.849136114 -2.852121115 0.06966821104
3.441639423 -3.451263189 0.593316555
3.451775551 -3.463845491 0.7678319812
3.449756384 -3.463027954 0.9418960214
3.451006413 -3.466701984 1.119353056
3.454478979 -3.472613811 1.300876617
2.12719059 -2.144337893 -0.7977323532
2.437161922 -2.457665205 -0.7891249061
2.840926409 -2.866827726 -0.776273787
2.693078041 -2.719529152 -0.5995084643
3.248812199 -3.281867027 -0.5618742704
2.921705723 -2.953493595 -0.3597535193
3.018934488 -3.053911686 -0.2228476554
2.711377382 -2.743749142 -0.06663149595
2.839162827 -2.862049341 0.06966821104
3.426777601 -3.460434914 0.5928290486
3.425768614 -3.461832285 0.7647032738
3.421855688 -3.460293055 0.937698245
3.427318811 -3.468238592 1.115753889
3.428759575 -3.470907688 1.295700312
2.125115395 -2.157254934 -0.799802959
2.425403595 -2.463804245 -0.7882251143
2.774443865 -2.819354534 -0.7606275082
2.705729723 -2.751448631 -0.6045143604
3.277110815 -3.334812403 -0.5689426661
2.991828442 -3.046633482 -0.3698635995
2.990067005 -3.045902491 -0.2214869112
2.685898781 -2.737965822 -0.06624753773
2.839879036 -2.883834839 0.06994745135
3.405721903 -3.464477777 0.5913665891
3.408904552 -3.470137596 0.7637646794
3.394624472 -3.456807852 0.9335004091
3.409732342 -3.474617243 1.113954306
3.410604715 -3.477934122 1.293629766
2.119895935 -2.167791843 -0.8008381724
2.153875113 -2.203307629 -0.7013939619
2.687265158 -2.750859499 -0.7392568588
3.337271214 -3.418634892 -0.7499984503
3.286246538 -3.367542267 -0.5725987554
2.99647665 -3.072748661 -0.3717809916
2.981670856 -3.059702158 -0.2216962725
3.362846613 -3.452058792 -0.08342070878
2.846572638 -2.910886765 0.07036630064
3.13390708 -3.206951618 0.2327914834
3.122510195 -3.197521687 0.3872947097
3.375581026 -3.45787859 0.5881980062
3.385735512 -3.470703602 0.7612617612
3.37096858 -3.457980156 0.9304474592
3.383375883 -3.473132849 1.109455228
3.39305234 -3.484282017 1.2915591
2.117699146 -2.180721998 -0.8029087186
2.05892849 -2.121683598 -0.6726002097
2.654407501 -2.736267805 -0.7327693701
3.323942661 -3.428844929 -0.7496855259
3.273090601 -3.377567291 -0.572355032
3.003751278 -3.10179615 -0.3740470409
2.977916956 -3.077267885 -0.2222196162
3.34799552 -3.460901976 -0.08335090429
2.838670254 -2.924169779 0.07043612003
3.111566067 -3.206404686 0.2319540977
3.111330032 -3.208401442 0.3872947097
3.357358932 -3.464525461 0.587223053
3.348859787 -3.456962585 0.7556300759
3.356146336 -3.466905117 0.9296842217
3.352867365 -3.464727402 1.103156567
3.37549758 -3.490549803 1.289488554
2.087655067 -2.164096355 -0.7941089272
2.037004232 -2.113066673 -0.6676513553
2.071786165 -2.149898291 -0.5721082091
3.272885561 -3.399843454 -0.5743049383
2.99897337 -3.117483377 -0.3747442961
2.971848488 -3.091445684 -0.2225336283
3.317102194 -3.451798916 -0.08286222816
2.662385702 -2.760835409 0.06624753773
3.120322466 -3.236836672 0.2334195226
3.08408618 -3.201482534 0.3852030039
3.340344667 -3.469919205 0.5862480998
3.331899166 -3.462355614 0.7543786168
3.339188099 -3.47235465 0.9281577468
3.335957527 -3.470207453 1.101356983
3.345167398 -3.482219696 1.282241702
2.040368319 -2.129163504 -0.7785797715
2.034029245 -2.124032259 -0.6690009832
2.041565657 -2.132647276 -0.5656206608
2.981736898 -3.120209217 -0.373872757
2.89537096 -3.031950712 -0.2175093889
3.299510717 -3.457570076 -0.08272261173
2.64214921 -2.758096695 0.06596829742
3.100718021 -3.239052296 0.2327914834
3.070697546 -3.20881319 0.3848543763
3.320587873 -3.472369194 0.5847856998
3.315698624 -3.469680071 0.7534400225
3.315449715 -3.470632076 0.9247231483
3.322478533 -3.480421543 1.100907087
3.319657087 -3.479897022 1.277065277
2.048904657 -2.153066158 -0.78479141
2.015859365 -2.119822264 -0.6654018164
2.042224884 -2.148298264 -0.5679103732
2.624489546 -2.764667988 -0.4629163444
3.286046267 -3.467614889 -0.08268770576
2.853029013 -2.999118567 0.07155307382
3.078383684 -3.238275528 0.2319540977
3.055360556 -3.215179682 0.384331435
3.297511339 -3.472423792 0.5828357935
3.298128128 -3.475501537 0.7521885633
3.289803028 -3.467941046 0.9209070206
3.295561552 -3.476440668 1.095958114
3.30483222 -3.488658667 1.276029944
2.057298899 -2.177054167 -0.7910030484
2.041452169 -2.162552118 -0.5698184371
2.681544542 -2.844590902 -0.4748595357
2.613693237 -2.774554014 -0.3297719359
2.574268341 -2.733658075 -0.1945862323
2.854901552 -3.022141457 0.07186721265
3.042383432 -3.222859144 0.2300700098
3.033179522 -3.21423316 0.3829369545
3.269026995 -3.466581821 0.579910934
3.280556679 -3.481242657 0.750936985
3.270946503 -3.472258329 0.9189989567
3.276727915 -3.480829 1.093708634
2.00965476 -2.142311335 -0.7754738927
2.009009361 -2.142372847 -0.6681011915
3.225046873 -3.443949223 -0.7406123281
3.225097418 -3.445208549 -0.5743049383
2.602421045 -2.783927917 -0.1975170523
2.595481396 -2.777475834 -0.06565415859
2.616832256 -2.793474436 0.3311664462
3.251479387 -3.472175837 0.5789359808
3.250838995 -3.473922253 0.7468698025
3.254175425 -3.479921579 0.9178540707
3.247981548 -3.475729227 1.088309765
3.267208815 -3.497528315 1.270853519
1.999530673 -2.146486282 -0.7744386792
2.014421463 -2.163985729 -0.6726002097
2.095471621 -2.251841068 -0.5896626115
3.203589201 -3.445060015 -0.7384222746
3.202989578 -3.446826935 -0.5725987554
3.212598801 -3.458378315 -0.409258008
2.916084051 -3.141376734 -0.2224289626
2.593355417 -2.78492856 0.06572397053
3.245488882 -3.491339684 0.5801546574
3.224639893 -3.471340656 0.7437410355
3.239336491 -3.488382578 0.9170908332
3.235829353 -3.487045527 1.088309765
2.0025208 -2.164798021 -0.7785797715
1.998918772 -2.162418127 -0.6699008346
2.092927933 -2.264909506 -0.5911890864
3.185553312 -3.45215106 -0.5716238022
2.652858496 -2.86884141 0.0675041154
2.57956624 -2.791535854 0.1969936937
2.560764074 -2.772160053 0.3264600337
2.511117935 -2.72317934 0.7117803693
3.211752653 -3.485421896 1.084260821
2.593024492 -2.815944433 1.014105082
1.968814135 -2.14332056 -0.7682270408
1.972909093 -2.149283886 -0.6636021733
2.047842979 -2.231698275 -0.5805037618
2.513789177 -2.746204615 -0.1929114759
2.517175674 -2.751832247 -0.06439758837
2.540036917 -2.766142607 0.06485135108
2.600904226 -2.835406542 0.3329095542
2.563767433 -2.796880722 0.4607226849
2.567873478 -2.803323984 0.5954411626
1.963924646 -2.153034687 -0.7692622542
1.965394616 -2.156157494 -0.6636021733
2.065164089 -2.266405344 -0.5877545476
1.963720679 -2.156588316 -0.4552758336
1.965662479 -2.160234928 -0.3534776568
2.467005491 -2.71215415 -0.3170472085
2.568670988 -2.825903654 -0.1979357302
2.94205451 -3.228744745 0.2267205119
2.530348778 -2.782767296 0.7228472829
2.5989182 -2.860182285 0.8822546601
1.958990932 -2.162740231 -0.7702975273
1.973549128 -2.180342197 -0.6690009832
2.061192036 -2.277967453 -0.588899374
1.888613343 -2.088703632 -0.4393195212
1.95012486 -2.158245564 -0.3520152271
3.119966507 -3.45778513 -0.0805934146
2.891111612 -3.192928791 0.074485071
2.936692953 -3.244406462 0.2271392196
2.923195839 -3.231761694 0.3775332868
3.149836779 -3.484770298 0.5716238022
3.143363476 -3.478828669 0.7359193563
3.131108522 -3.467699051 0.8999180794
3.111109495 -3.44796896 1.062215567
2.538011789 -2.81380558 1.003752351
1.946261883 -2.163820028 -0.7682270408
1.961096525 -2.181078196 -0.6672013998
2.079471111 -2.314355612 -0.5965317488
1.885636568 -2.099363804 -0.4402581453
3.106543541 -3.467165947 -0.08055850863
2.864460468 -3.184657335 0.07406622171
2.899982691 -3.226414442 0.2251504362
2.875950575 -3.201924801 0.3728268743
3.126327515 -3.481902599 0.5694301724
3.12856245 -3.486839533 0.7352935672
3.132700682 -3.492678404 0.9037342668
3.120469332 -3.48148489 1.0694139
2.030462742 -2.272544622 -0.8049793243
2.311687231 -2.589116573 -0.791374445
1.907065511 -2.136686325 -0.5484478474
1.873037219 -2.100036144 -0.4390066564
3.089105129 -3.472012997 -0.0804188922
2.862650871 -3.205076694 0.07431055605
2.919291258 -3.270789385 0.2275578976
2.879907608 -3.227797508 0.3747442961
3.103585958 -3.480941057 0.5674802661
3.10585928 -3.485940218 0.7327906489
3.117878675 -3.500659704 0.9029709697
3.114775419 -3.499634743 1.071663499
3.116588354 -3.504133463 1.244971752
2.027246952 -2.285752773 -0.8070498109
2.315563202 -2.611751795 -0.7958734632
1.951298118 -2.202440739 -0.5637125373
1.856161714 -2.096534252 -0.4368165731
3.067279339 -3.470588684 -0.2405371964
3.072994947 -3.47827816 -0.08031418175
2.862060547 -3.227018118 0.07458978891
2.903882027 -3.27647543 0.2272438705
2.86541605 -3.235348463 0.3743956983
3.079573154 -3.478377104 0.5652865767
3.083200693 -3.484924555 0.7302876711
3.079019308 -3.482647181 0.8953386545
3.099347353 -3.508106232 1.070763588
3.092827797 -3.501959085 1.240312934
2.024363279 -2.298614264 -0.8091204166
2.295675516 -2.608517885 -0.7922742367
1.931927323 -2.195972919 -0.5602779984
1.842310667 -2.095582724 -0.4352522194
3.035385132 -3.458756924 -0.2389671355
3.051603317 -3.478461742 -0.0800698474
2.866070271 -3.255497694 0.07500864565
2.891108036 -3.285092592 0.2271392196
3.058941126 -3.480693817 0.5638241768
3.069713593 -3.494181633 0.7299748063
3.062958002 -3.488947392 0.8941937685
3.071660995 -3.50132513 1.065364838
3.075489998 -3.506924391 1.238242388
2.013783455 -2.302758217 -0.808085084
1.786802411 -2.043925285 -0.616812408
1.904875636 -2.180525064 -0.5545537472
1.834051967 -2.100192308 -0.4349393547
2.964887142 -3.399911642 -0.3909552991
2.963527203 -3.399549484 -0.2341522276
2.868422747 -3.280036688 0.0753576979
2.913793802 -3.334265709 0.2298606634
2.924012423 -3.348317385 0.3852030039
3.047381878 -3.490818262 0.5638241768
3.04451251 -3.489989758 0.7268461585
3.046210051 -3.493166924 0.8926672935
3.039548635 -3.487985134 1.058166385
3.063229799 -3.517638445 1.238242388
2.020072222 -2.325466156 -0.8137791157
1.75538516 -2.022188902 -0.6082642078
1.81013751 -2.085998774 -0.5286037326
1.824121714 -2.103596687 -0.4343136251
1.847682714 -2.13227129 -0.3412907422
2.94707346 -3.402194738 -0.3900837004
2.945106506 -3.402323008 -0.2336288542
2.935669184 -3.393814087 -0.07762651145
2.883178473 -3.320226669 0.07605579495
2.894283295 -3.335366249 0.229232654
3.03127718 -3.496934652 0.563092947
3.019377708 -3.485665083 0.7237174511
3.026287317 -3.494874001 0.8903775811
3.026079893 -3.497100353 1.057716489
3.03956008 -3.515157461 1.23358357
1.68892169 -1.95801568 -0.6812637448
1.757222056 -2.038636684 -0.6114135981
1.795155764 -2.083380938 -0.5263140202
1.815478683 -2.108454466 -0.4340007603
1.84152317 -2.140212536 -0.3415344656
2.985850096 -3.471370697 -0.3968818486
2.952740669 -3.435302734 -0.2351989448
2.938137054 -3.420726776 -0.07801046222
2.879406691 -3.339357853 0.07626522332
2.908697605 -3.375710011 0.2313260883
2.901153803 -3.368142843 0.3852030039
3.013872147 -3.501476765 0.5621179938
2.998175383 -3.48570013 0.7215273976
3.005109549 -3.494995594 0.8877062798
3.008774281 -3.501729488 1.055916786
3.013428211 -3.509623766 1.227889657
1.74502635 -2.038836241 -0.609613955
1.771280169 -2.07024169 -0.5213530064
1.802972913 -2.108772993 -0.4327492714
2.97371459 -3.481772423 -0.3968818486
2.969256401 -3.479011059 -0.2375017256
2.961820364 -3.471524954 -0.07895288616
2.882038355 -3.366097212 0.07664917409
2.889378786 -3.378249407 0.3852030039
2.987444401 -3.495376587 0.5594369173
2.987882853 -3.497125149 0.7218402028
2.980144024 -3.490533352 0.8838900924
2.997797251 -3.513693333 1.056366801
2.994251728 -3.51077795 1.224783778
1.733206987 -2.038672924 -0.6078143716
1.762771726 -2.074915409 -0.5209713578
1.803642392 -2.123774767 -0.4346264899
2.952522039 -3.481494665 -0.3956616819
2.956411123 -3.487314224 -0.2373970449
2.962610245 -3.497100353 -0.07930193841
2.88381505 -3.390868425 0.07699821889
2.890826464 -3.40151763 0.2317447662
2.916260242 -3.433873653 0.3904323578
2.96298933 -3.490130901 0.556999445
2.969267845 -3.500001907 0.7202759385
2.963473082 -3.494407654 0.882363677
2.967230797 -3.501314878 1.049618244
2.979481936 -3.518260717 1.223748565
1.625036359 -1.923651457 -0.6631464362
1.724822998 -2.043221235 -0.6073644161
1.743219733 -2.065745592 -0.5171551704
1.869275093 -2.218263149 -0.3510402739
2.937784672 -3.488731146 -0.3953130543
2.931358576 -3.482333183 -0.2363503277
2.937512398 -3.492117643 -0.07895288616
2.89002347 -3.422303438 0.07748688757
2.915001154 -3.454326868 0.2346755713
2.94468236 -3.490735292 0.3958359957
2.944391489 -3.492863417 0.5557807684
2.945578575 -3.496748209 0.7174600959
2.948728085 -3.501726866 0.8816003799
2.942443371 -3.49674058 1.045119166
2.962208986 -3.52272439 1.221677899
1.606803536 -1.916271925 -0.6584877372
1.717680216 -2.049229622 -0.6073644161
1.72176981 -2.055565596 -0.5129573345
1.875533104 -2.241522074 -0.35372141
2.914087057 -3.48520875 -0.3937442899
2.91473341 -3.488455534 -0.2360363007
2.90607667 -3.479328871 -0.07842931896
2.893478394 -3.450758934 0.07790574431
2.900360346 -3.461419106 0.2344662398
2.931868553 -3.50150466 0.3958359957
2.927084684 -3.49703145 0.5548058152
2.919413805 -3.490341663 0.7140185237
2.933355331 -3.509498358 0.8808370829
2.927109003 -3.504509926 1.044219375
2.939989328 -3.521180153 1.217536926
1.65449214 -1.987193108 -0.6812637448
1.719605684 -2.067600965 -0.5144838691
1.609215736 -1.936246037 -0.3920763135
1.862231851 -2.242272377 -0.3527464271
2.892994642 -3.484628677 -0.3925240636
2.897437811 -3.492460012 -0.2356176227
2.890751839 -3.48687768 -0.07835950702
2.893603325 -3.476710558 0.07825479656
2.87232852 -3.453599215 0.2332101613
2.910711527 -3.500992775 0.3946157992
2.912978888 -3.506208897 0.5545620918
2.899030685 -3.491899014 0.712141335
2.912310839 -3.509140968 0.8781657815
2.911126375 -3.510206461 1.042869806
2.909806013 -3.511108398 1.210289955
1.622927666 -1.963177323 -0.6709110141
1.642157316 -1.987850904 -0.585319221
1.602447271 -1.941851258 -0.3920763135
1.836712241 -2.22731781 -0.3493341208
2.860536575 -3.470108032 -0.3897351027
2.871260405 -3.485595703 -0.2344662398
2.873479605 -3.49077177 -0.07821989059
2.883997679 -3.489873171 0.0783246085
2.862799406 -3.466685295 0.2334195226
2.895936251 -3.508058786 0.3942671716
2.888090134 -3.501042843 0.5521246791
2.888080359 -3.503521442 0.7124541402
2.883813381 -3.499589205 0.8732047677
2.896377802 -3.517337799 1.041969895
2.892621994 -3.515276432 1.20821929
1.640578747 -1.998695374 -0.6812637448
1.65621829 -2.019185543 -0.5929675698
1.604299426 -1.956584692 -0.4835728407
1.598163128 -1.950489044 -0.3927020431
1.625196934 -1.984895587 -0.3098484278
2.843357801 -3.473904848 -0.3890378475
2.846431494 -3.480136871 -0.2334195226
2.853684187 -3.491490602 -0.07801046222
2.865455627 -3.492188692 0.07815007865
2.835484505 -3.458123446 0.2321634442
2.879884243 -3.513523817 0.3937442899
2.868304968 -3.50188899 0.5506622791
2.873330355 -3.510524035 0.7118284106
2.867850065 -3.505075932 0.8720598817
2.870513916 -3.510831833 1.037021041
2.87911129 -3.523856401 1.207701683
1.546939015 -1.898086905 -0.6445114613
1.641776204 -2.015888214 -0.5902681351
1.580106854 -1.940857768 -0.4782301784
1.591344833 -1.95605576 -0.3927020431
1.588485122 -1.954630375 -0.2166437954
2.829229832 -3.483850479 -0.2330008447
2.837698698 -3.496772528 -0.07790574431
2.853248358 -3.502170086 0.07815007865
2.814569235 -3.45715785 0.2314307541
2.862571478 -3.517373562 0.3930470049
2.846043587 -3.499559164 0.5487123728
2.849847078 -3.506735802 0.7090126276
2.846932173 -3.504398584 0.8693885803
2.849643469 -3.510239124 1.033871651
2.861925125 -3.527884007 1.205631256
1.542734385 -1.906478524 -0.6455467343
1.654334784 -2.045851707 -0.597466588
1.568385482 -1.940254331 -0.4767037332
1.600643635 -1.98157537 -0.3967693448
1.588857293 -1.968389273 -0.3054611385
1.584154725 -1.963264346 -0.216992408
2.817051649 -3.493705034 -0.2330008447
2.809773684 -3.48592329 -0.0774519816
2.835975647 -3.505889893 0.07801046222
2.79681015 -3.458706856 0.2309073806
2.830240488 -3.502549171 0.3902580142
2.826327801 -3.50020504 0.5472499132
2.829517603 -3.505407333 0.7068225741
2.830984116 -3.509730339 0.8682436943
2.830035925 -3.511061668 1.031172276
2.838089705 -3.522311926 1.200454831
1.53123045 -1.905828357 -0.6434761882
1.651202202 -2.055884838 -0.5988163352
1.571433902 -1.957966089 -0.4797566831
1.594063759 -1.986872435 -0.3967693448
1.582274914 -1.975001931 -0.2176896632
2.800456524 -3.496791124 -0.232582137
2.795089006 -3.492587566 -0.07738216966
2.811809301 -3.499686003 0.07766140997
2.780968904 -3.463776588 0.2305933833
2.804282427 -3.495312929 0.3883405924
2.814705133 -3.509558439 0.5472499132
2.8086164 -3.504472256 0.7046324015
2.805827379 -3.502245426 0.864045918
2.813505173 -3.514341831 1.029372573
2.816122293 -3.520128965 1.19631362
1.527311802 -1.913915634 -0.6445114613
1.75700891 -2.203332186 -0.6406571865
1.566156268 -1.964701533 -0.480138272
1.823916674 -2.291335344 -0.35445261
1.581572771 -1.988309383 -0.2185612172
2.775802612 -3.490912199 -0.2315354198
2.782880545 -3.502322912 -0.07738216966
2.789599657 -3.496973515 0.07738216966
2.765126228 -3.468777657 0.2302793711
2.796401024 -3.509267569 0.3888635337
2.791308641 -3.505386353 0.5450562835
2.79390645 -3.511163712 0.7040067315
2.78380847 -3.499726772 0.8609930277
2.800008059 -3.522616148 1.028922796
2.800213337 -3.525399446 1.194760799
1.534680247 -1.93767345 -0.6507231593
1.58470571 -2.004426718 -0.3980208337
1.567213535 -1.984436274 -0.2175153494
2.75309062 -3.488520145 -0.2306980491
2.768161297 -3.508875847 -0.07731236517
2.772409916 -3.500419855 0.07724255323
2.744324207 -3.467445612 0.2295466363
2.77610445 -3.510116816 0.387817651
2.770437241 -3.50420785 0.5433501005
2.779184103 -3.517794847 0.7033809423
2.767313004 -3.505283356 0.8598482013
2.777422905 -3.520615339 1.02532351
2.780713081 -3.526051283 1.19165504
1.548207402 -1.968834519 -0.6595230103
1.522060752 -1.936975121 -0.5587750077
1.591115952 -2.027038574 -0.4014623761
1.557544112 -1.98569572 -0.3047299087
2.738433361 -3.494964838 -0.2304887027
2.742954493 -3.50325346 -0.07696332037
2.758325577 -3.508985281 0.07720764726
2.715558529 -3.457062483 0.2281859368
2.7576828 -3.511951208 0.3869461119
2.752673626 -3.508091688 0.5423751473
2.754083395 -3.512412548 0.7002522349
2.753848791 -3.513376713 0.8594664931
2.755503416 -3.518015623 1.021724343
2.764198542 -3.531655312 1.1901021
1.519926429 -1.946817636 -0.650205493
1.497309804 -1.919229269 -0.5520264506
1.903733611 -2.441055536 -0.5934787989
1.516451836 -1.947266817 -0.2979052365
1.563112736 -2.007906437 -0.2189098448
2.721311569 -3.49819684 -0.2300700098
2.718435764 -3.497018814 -0.07661426812
2.732526779 -3.501251936 0.07682370394
2.696105242 -3.457071066 0.2275578976
2.739281893 -3.513698816 0.386074543
2.737971544 -3.514546871 0.5418877006
2.732098341 -3.509534836 0.6977493167
2.731922388 -3.510572672 0.8564136028
2.737225056 -3.519920826 1.019474864
2.745926857 -3.533655405 1.187513828
1.513121724 -1.952111006 -0.650205493
1.574133873 -2.032289028 -0.5835196376
1.903614521 -2.458552361 -0.5961501002
1.605937362 -2.075593233 -0.4089712501
1.50721693 -1.949407578 -0.2974177599
2.709083796 -3.507674932 -0.2300700098
2.703768969 -3.503319979 -0.07654445618
2.715389252 -3.504445791 0.07668407261
2.682797909 -3.464881659 0.227453202
2.716024637 -3.509059191 0.3845057189
2.725686312 -3.524083138 0.5418877006
2.717415094 -3.515923977 0.6971235871
2.714850664 -3.513873339 0.8548871279
2.723730803 -3.527911663 1.019024849
2.7146945 -3.518746376 1.179231644
1.508654475 -1.960442781 -0.651240766
1.901003599 -2.472964525 -0.5980582237
1.596275806 -2.078053474 -0.4083455205
1.501612067 -1.956231594 -0.2976615131
1.592720866 -2.075674295 -0.2251850516
2.686659098 -3.506387711 -0.07640483975
2.690946817 -3.498053312 0.07633502781
2.665818214 -3.467891216 0.2270345241
2.696475267 -3.509039879 0.3834598958
2.701278448 -3.517831802 0.5394502878
2.700315475 -3.51911974 0.695872128
2.690619469 -3.507750988 0.8510709405
2.697173357 -3.518837929 1.013626099
2.702395439 -3.528200865 1.179231644
1.507321715 -1.973635793 -0.6538289785
1.708516479 -2.238692999 -0.6402073503
1.889545441 -2.476793766 -0.5972949862
1.583858132 -2.077606201 -0.4070940018
1.48962009 -1.955405712 -0.2966865301
1.576652884 -2.070402145 -0.2239648849
2.669560432 -3.509378672 -0.07626522332
2.675681353 -3.504714012 0.07626522332
2.644003153 -3.464474201 0.2261971533
2.68238759 -3.517314911 0.3832855523
2.676334858 -3.511919737 0.5370129347
2.682029724 -3.520667076 0.6943077445
2.675366402 -3.514464378 0.850307703
2.683077812 -3.527148724 1.013176084
2.680708408 -3.525310516 1.175090551
1.510928035 -1.992739677 -0.6584877372
1.869034767 -2.467724323 -0.5934787989
1.576959848 -2.08284688 -0.4070940018
1.507081389 -1.991995931 -0.301561296
1.573020577 -2.08066082 -0.2244877964
1.518573999 -2.009371996 -0.1297943145
1.514841437 -2.005888462 -0.04317545891
2.659211874 -3.507193565 0.07612560689
2.624656916 -3.464130878 0.225569129
2.668890953 -3.525068521 0.3831112683
2.662278414 -3.517609596 0.5365254283
2.655425787 -3.511101484 0.6905533671
2.663697243 -3.52331686 0.850307703
2.663144112 -3.52514267 1.010026813
2.675370216 -3.54389739 1.17819643
1.49733901 -1.988479733 -0.6553818583
1.735419512 -2.30632782 -0.65640378
1.863201618 -2.477046728 -0.5942420363
1.538820624 -2.047283411 -0.3989593983
1.546613455 -2.05914712 -0.3110671043
1.496728659 -1.99345541 -0.214377746
1.523536921 -2.030636549 -0.1308410317
1.522224784 -2.03036356 -0.04359431565
2.648155689 -3.518052101 0.07616050541
2.612548828 -3.473271847 0.225569129
2.645213127 -3.517974615 0.3813681304
2.645213604 -3.520533323 0.5355504751
2.637222767 -3.512450695 0.6889889836
2.647846699 -3.527882814 0.849162817
2.644976854 -3.526622057 1.007777333
2.644446373 -3.528480291 1.169914126
1.495015621 -1.999883413 -0.6574524045
1.856892943 -2.486681223 -0.5950052738
1.510400534 -2.024145126 -0.3933278024
1.548909426 -2.077264309 -0.3130170405
1.520719409 -2.040201426 -0.2189098448
1.516439557 -2.035942316 -0.1308410317
1.506770611 -2.024435997 -0.04334998131
2.625085831 -3.512857676 0.07584635913
2.593238831 -3.47276783 0.2249410897
2.622190237 -3.512817383 0.3797993362
2.630534649 -3.526562929 0.5350629687
2.62258482 -3.518467426 0.6883632541
2.627305269 -3.526084423 0.8464915156
2.631486416 -3.534270287 1.007327437
2.62634778 -3.529940367 1.167325974
1.718115449 -2.316821814 -0.6559538841
1.856385946 -2.504188061 -0.5976766348
1.541648865 -2.082658529 -0.3130170405
1.523895025 -2.060177565 -0.220478639
1.501011133 -2.029981852 -0.1301083267
2.583462715 -3.496451616 -0.07518316805
2.581100702 -3.481798649 0.2249410897
2.608726025 -3.520348549 0.3796250224
2.606395006 -3.519770384 0.5326256156
2.606762171 -3.522836924 0.6874246597
2.607975721 -3.525763035 0.8442018032
2.611025095 -3.532464266 1.004178047
2.610566616 -3.534424543 1.165773034
1.533363581 -2.082084894 -0.6812637448
1.847195029 -2.510975361 -0.5976766348
1.56139791 -2.124031305 -0.4108484685
1.534369588 -2.088027239 -0.3130170405
1.532024503 -2.086361647 -0.2227446884
1.50183177 -2.046741486 -0.1308410317
2.579521418 -3.516735315 -0.07542750239
2.555909872 -3.473092794 0.2237897068
2.595806122 -3.529886007 0.3796250224
2.584686756 -3.516051769 0.5306757092
2.59444952 -3.531914473 0.6874246597
2.5892272 -3.527385473 0.8422937393
2.591145277 -3.53258276 1.001478791
2.599355698 -3.545073748 1.16629076
1.526086211 -2.087424517 -0.6812637448
1.840734482 -2.520578623 -0.5984398127
1.57027626 -2.151808023 -0.4152286053
1.532554388 -2.101656437 -0.3142357171
1.531774044 -2.101356983 -0.2237905711
1.485270858 -2.039056301 -0.130003646
1.476894975 -2.029045343 -0.04310565069
1.496126294 -2.047194481 0.04355940968
2.538451433 -3.475985765 0.2233710289
2.578769445 -3.532489061 0.3789277971
2.571782589 -3.525501251 0.5306757092
2.567523479 -3.522244692 0.6836702228
2.572273731 -3.530055285 0.840767324
2.566180229 -3.524276972 0.9965298176
2.577251673 -3.542079926 1.162149549
1.828562379 -2.51957345 -0.8225790262
1.69335258 -2.334981918 -0.6559538841
1.805421829 -2.490429878 -0.5896626115
1.568549991 -2.165274858 -0.416792959
1.544996858 -2.134329319 -0.318379283
1.504573703 -2.079251051 -0.2208272815
1.482825398 -2.050702333 -0.1304223388
1.476829886 -2.043913364 -0.04331507534
1.474880099 -2.032980919 0.04314055294
2.516924381 -3.471888781 0.2225336283
2.561746597 -3.53501606 0.3782305717
2.55946064 -3.534456968 0.5306757092
2.5528965 -3.527984858 0.6830444336
2.554182529 -3.531058788 0.8388591409
2.550437689 -3.528474808 0.9951800108
2.560347557 -3.544790506 1.160079002
1.812981009 -2.516535997 -0.8194731474
1.80130446 -2.503090858 -0.5911890864
1.530997038 -2.129038811 -0.4086583555
1.528270125 -2.126812935 -0.3164293468
1.490332603 -2.074780941 -0.2197813988
1.480316401 -2.062356234 -0.1308410317
1.470043778 -2.048799515 -0.04331507534
1.491146803 -2.070571184 0.04383864626
2.508897781 -3.485078812 0.2228476554
2.538920164 -3.529380083 0.3766617477
2.542472601 -3.53692174 0.5297006965
2.535419941 -3.528410196 0.6814801693
2.53268075 -3.527195692 0.8358062506
2.534697056 -3.532606363 0.9938303232
2.541822672 -3.543842316 1.156973243
1.813175559 -2.535420418 -0.8236142993
1.507260323 -2.109983444 -0.4957846105
1.535407901 -2.150179863 -0.4117870331
1.522362113 -2.133485079 -0.3166731
1.47961092 -2.075103998 -0.2192584574
1.466513753 -2.057495356 -0.1302130073
1.471004128 -2.065319777 -0.04355940968
2.496717215 -3.493814945 0.2228476554
2.515006542 -3.522006512 0.3749186397
2.516890049 -3.525945425 0.5267758965
2.521941185 -3.53563118 0.6811673045
2.514131308 -3.525983572 0.8335165381
2.52183795 -3.539404869 0.9933804274
2.527196169 -3.54954648 1.155938029
1.806994677 -2.544569016 -0.8246495724
1.500255108 -2.114969969 -0.4957846105
1.548454881 -2.184534788 -0.4174186885
1.521789908 -2.148505688 -0.3181355596
1.472721577 -2.07999897 -0.2192584574
1.454708576 -2.056080103 -0.1297943145
1.470712185 -2.080239058 -0.04376883805
2.471795321 -3.484589577 0.2216962725
2.499855757 -3.52545166 0.3743956983
2.495385647 -3.521752357 0.5248259306
2.511867285 -3.547636747 0.6817929745
2.498405218 -3.529930353 0.8323716521
2.502716303 -3.538640022 0.9906810522
2.50810051 -3.548880339 1.15283215
1.800327539 -2.554019213 -0.8256848454
1.554460406 -2.209313631 -0.4211731255
1.507430553 -2.144061089 -0.3166731
1.478054047 -2.103057861 -0.2211758941
1.455557704 -2.072586536 -0.1305270046
1.470334053 -2.095181465 -0.04397827014
2.455017328 -3.486664057 0.2212775648
2.48638773 -3.532527208 0.3742213845
2.483077526 -3.530441046 0.5248259306
2.488109589 -3.540221691 0.6786643267
2.488325357 -3.541842699 0.83313483
2.482511044 -3.536190271 0.9875317216
2.494588137 -3.556031942 1.152314544
1.793616414 -2.563453674 -0.8267200589
1.652756333 -2.363890886 -0.6559538841
1.727257967 -2.471367359 -0.5778324604
1.543345928 -2.209867477 -0.4202345312
1.499937177 -2.149310112 -0.3166731
1.462724328 -2.096766233 -0.2199557126
1.448314071 -2.077654839 -0.1305270046
1.441294909 -2.069124699 -0.04331507534
2.439399481 -3.490302086 0.2209635675
2.467195272 -3.531384706 0.3731755018
2.470738649 -3.539087057 0.5248259306
2.467825413 -3.537544727 0.6764742136
2.472578049 -3.545676231 0.8319900632
2.470152378 -3.544834137 0.9875317216
2.471120834 -3.548864126 1.147138
1.780249596 -2.56335187 -0.8246495724
1.644494653 -2.369645834 -0.6559538841
1.730930209 -2.495125771 -0.5820302367
1.541249394 -2.223358631 -0.4217988551
1.501468539 -2.167587042 -0.3186230063
1.457664967 -2.105135441 -0.2203043401
1.447871447 -2.092552185 -0.1311550438
2.440519094 -3.529819727 -0.07420583814
2.420370102 -3.488949299 0.2203355283
2.440093756 -3.51869154 0.3709094524
2.458369732 -3.547690153 0.5248259306
2.449839592 -3.538017511 0.6749099493
2.446778297 -3.534914255 0.8274106383
2.450003862 -3.542215824 0.9843824506
2.451029062 -3.546343803 1.143514633
1.773483992 -2.572731972 -0.8256848454
1.636212945 -2.375371695 -0.6559538841
1.707735896 -2.480131388 -0.5770692229
1.524521351 -2.215705872 -0.419295907
1.524258733 -2.216980934 -0.3252039552
1.455950141 -2.118420601 -0.2211758941
1.433773994 -2.087715149 -0.1305270046
2.420878172 -3.526353359 -0.0739615038
2.409920216 -3.49860096 0.220440194
2.42666626 -3.525546074 0.3707351387
2.430221558 -3.53335166 0.5214136243
2.435855389 -3.542865992 0.6742841601
2.427753687 -3.533724308 0.8251209259
2.43872714 -3.552352905 0.9848322868
2.435976267 -3.549673557 1.141961694
1.764492512 -2.578906775 -0.8256848454
2.168758392 -3.1733284 -0.7388752699
1.524965644 -2.232166767 -0.4214859903
1.540402174 -2.25645256 -0.3303224742
1.448546767 -2.123489857 -0.2211758941
1.426843286 -2.092458248 -0.1305270046
2.408554077 -3.534782648 -0.0739615038
2.381911993 -3.483909607 0.2189747989
2.41996479 -3.542221069 0.3716067076
2.409535408 -3.52827692 0.5194637179
2.424586535 -3.552978754 0.6745970249
2.406064987 -3.527159214 0.8216863275
2.415957689 -3.544318199 0.9803332686
2.421395779 -3.554962158 1.14092648
1.758102059 -2.587939739 -0.8267200589
2.147199631 -3.164257765 -0.7350590825
1.547097325 -2.281620502 -0.4299334586
1.46904707 -2.168142796 -0.3164293468
1.444848776 -2.133230686 -0.2216988355
1.419530511 -2.097425938 -0.1305270046
2.384998083 -3.526603699 -0.073612459
2.364129066 -3.483939409 0.2184514254
2.400376081 -3.538684607 0.3703865409
2.394977331 -3.533379793 0.5189762115
2.401092052 -3.545065165 0.6714683175
2.399241924 -3.543664932 0.823594451
2.393743277 -3.538203478 0.9762842655
2.413299799 -3.569794416 1.142997026
1.753377676 -2.600468397 -0.8287906647
1.585533261 -2.35330677 -0.6451562047
2.129560947 -3.161962986 -0.7327693701
1.51596272 -2.25259161 -0.4233632088
1.471439719 -2.188082933 -0.3186230063
1.437393546 -2.13826108 -0.2216988355
1.424450755 -2.120605946 -0.1316784024
2.365987301 -3.524945021 -0.07340303063
2.34860611 -3.487200499 0.2181374133
2.380219936 -3.535472631 0.3691663444
2.382628679 -3.541718483 0.5189762115
2.383192778 -3.545228243 0.6699039936
2.379192591 -3.540611744 0.8209231496
2.381377935 -3.546537876 0.9762842655
2.385755062 -3.555737972 1.135750055
1.739992142 -2.600150347 -0.8267200589
1.571892977 -2.35072732 -0.6429067254
1.499312878 -2.244728327 -0.4208602607
1.462690949 -2.191554546 -0.318379283
1.431026816 -2.144922733 -0.2218731344
1.418147802 -2.127227068 -0.1317830831
2.349233627 -3.526525497 -0.07326340675
2.33308959 -3.490396023 0.2178233862
2.357902288 -3.528850079 0.3675975502
2.366944551 -3.545061111 0.5182450414
2.362032652 -3.540379286 0.6674010158
2.357015133 -3.534195185 0.8174885511
2.353853941 -3.532125235 0.9699855447
2.365833282 -3.552788258 1.13212657
1.739455581 -2.619082451 -0.8308612108
1.565832734 -2.359447241 -0.6438065171
1.635326266 -2.465095758 -0.5667654872
1.48928535 -2.246655226 -0.4202345312
1.459416986 -2.203267097 -0.3193542361
1.426830649 -2.15488863 -0.2223960757
1.411815882 -2.13383007 -0.1318877488
2.336909294 -3.534704447 -0.07326340675
2.318683624 -3.49519062 0.2176140547
2.346671104 -3.538719416 0.3677718341
2.347976446 -3.543372393 0.5167825818
2.350750446 -3.550250053 0.6677139401
2.346831322 -3.545675278 0.8182518482
2.35118556 -3.554949284 0.974034667
2.349156857 -3.554578066 1.130056024
1.706912875 -2.589653015 -0.8194731474
1.720515132 -2.612272978 -0.7121916413
1.620233893 -2.460950375 -0.5644758344
1.476005673 -2.243588686 -0.4186701775
1.446265101 -2.200054407 -0.3181355596
1.423676729 -2.166516542 -0.2230933309
1.404358745 -2.138745308 -0.1318877488
2.326750517 -3.546184063 -0.07333321124
2.30097723 -3.494921684 0.2170906812
2.333209038 -3.545225382 0.3675975502
2.324686289 -3.534961224 0.5143451691
2.337258577 -3.556783199 0.6674010158
2.329051018 -3.545640945 0.8163437247
2.333415508 -3.554988623 0.9717851281
2.334615946 -3.559525728 1.12902081
1.395409822 -2.133221865 -0.6714286804
1.582639337 -2.4222157 -0.5541720986
1.474644303 -2.258651495 -0.4205473661
1.438576698 -2.205089331 -0.3181355596
1.422635436 -2.181485891 -0.2241391838
1.40124619 -2.150327682 -0.1323064417
2.303446531 -3.537527084 -0.07298416644
2.281116486 -3.49122858 0.2163579911
2.314282894 -3.543339491 0.3665516675
2.314502478 -3.546379328 0.5148326755
2.310801268 -3.543409586 0.663333714
2.317732334 -3.555393934 0.8167253137
2.301846266 -3.533720732 0.9636869431
2.316907167 -3.559557915 1.126432538
1.38059175 -2.126737356 -0.6678052545
1.381963849 -2.130479097 -0.5763211846
1.380845904 -2.129569292 -0.4850992858
1.391562343 -2.147738218 -0.3986465633
1.435185909 -2.216762304 -0.3191104829
1.413929582 -2.184766054 -0.2239648849
1.396985412 -2.160237312 -0.1326204538
2.282402039 -3.532109499 -0.07270493358
