# .PCD v0.7 - Point Cloud Data file format
VERSION 0.7
FIELDS x y z
SIZE 4 4 4
TYPE F F F
COUNT 1 1 1
WIDTH 1247
HEIGHT 1
VIEWPOINT 0 0 0 1 0 0 0
POINTS 1247
DATA ascii
-1.663928628 1.84798038 0.1281195581
-1.695677996 1.883901834 0.2180382907
-1.71821785 1.910284996 0.3103359044
-1.589256048 1.768147707 0.3698626161
-1.731752157 1.927360892 0.495402962
-1.690071821 1.882293701 0.5740717053
-1.753964663 1.954824686 0.6921342015
-1.663963914 1.859082103 -0.6569347978
-1.583821774 1.770786762 -0.5385293961
-1.555614948 1.739860296 -0.4454110265
-1.687977314 1.889227152 -0.3945792615
-1.687407613 1.889915705 -0.3059485853
-1.650624156 1.849368334 -0.2131575644
-1.523589969 1.708237648 -0.1177570373
-1.705733418 1.913799882 -0.04404807836
-1.710737705 1.912012219 0.04408298433
-1.6175313 1.809109807 0.1249794066
-1.699713588 1.901693583 0.2194327861
-1.724763274 1.93107605 0.3127732873
-1.583074093 1.773684978 0.3698626161
-1.740698934 1.950973153 0.4999823868
-1.682194233 1.886727095 0.5736217499
-1.744560122 1.958050609 0.6910989285
-1.633080482 1.837443948 -0.6470996737
-1.575043201 1.773390055 -0.5376296043
-1.535194039 1.729130507 -0.4412132204
-1.693171859 1.908406138 -0.3973950744
-1.690018296 1.906192541 -0.307654798
-1.639871359 1.850931406 -0.2126346231
-1.509672165 1.704575062 -0.1171290129
-1.699042678 1.919742465 -0.04404807836
-1.717335343 1.932920694 0.04443203285
-1.627118707 1.832667708 0.1262354702
-1.693065524 1.907614708 0.2194327861
-1.721963525 1.94154036 0.3135044873
-1.565081477 1.765894651 0.3670467734
-1.741689444 1.965854049 0.5022720695
-1.670431256 1.886751056 0.5718221664
-1.731313705 1.956894398 0.688510716
-1.608441949 1.823135972 -0.6398527622
-1.567554235 1.777415633 -0.5371797085
-1.532740355 1.739164233 -0.4423580766
-1.687471151 1.916081548 -0.3977079391
-1.685977936 1.915059686 -0.3081422746
-1.620240211 1.841685534 -0.210891515
-1.495502472 1.701096416 -0.1165009812
-1.706851363 1.942184687 -0.04443203285
-1.70793128 1.93590498 0.04436222091
-1.61410737 1.830845237 0.1257120967
-1.68606174 1.91380775 0.2194327861
-1.717799664 1.950518847 0.3139919639
-1.55629766 1.768381357 0.3664210439
-1.739658833 1.978121758 0.5037985444
-1.675082326 1.906035542 0.5758712888
-1.739772916 1.980341434 0.6947223544
-1.610979199 1.838911176 -0.6434761882
-1.552044392 1.772885084 -0.5340303779
-1.522781372 1.740071893 -0.4412132204
-1.682072997 1.923447371 -0.3980208337
-1.693316102 1.937668443 -0.3108233809
-1.609869123 1.842828631 -0.2103685737
-1.481674552 1.697278738 -0.1158729419
-1.708923578 1.958975434 -0.04467636347
-1.704776525 1.94666481 0.0444669351
-1.607385993 1.836748958 0.1257120967
-1.692489505 1.934677243 0.2211758941
-1.714558721 1.961285472 0.3147231936
-1.55630374 1.781512022 0.3679853976
-1.735325813 1.987139583 0.5045617819
-1.677388191 1.922148466 0.5790206194
-1.722345352 1.975056767 0.6905812621
-1.602014422 1.841608167 -0.6424409747
-1.533060908 1.763584971 -0.5295313597
-1.510259271 1.737967253 -0.4393051267
-1.688300371 1.94422245 -0.4011495113
-1.686542511 1.943567038 -0.3108233809
-1.606037617 1.851446867 -0.2107172012
-1.488822937 1.717532158 -0.1169196591
-1.715167761 1.98004353 -0.04502541199
-1.704532504 1.960148335 0.0446414575
-1.589174509 1.828780651 0.1247700602
-1.702712178 1.960126638 0.2234419435
-1.702496886 1.961262107 0.3137482405
-1.55913651 1.797379136 0.3701755106
-1.734809756 2.000601292 0.5064698458
-1.665563583 1.922101021 0.5772209764
-1.717969894 1.983977914 0.6916165948
-1.593051076 1.844264865 -0.6414057016
-1.526895523 1.768925548 -0.5295313597
-1.488792658 1.725391746 -0.4347257316
-1.687953353 1.957584023 -0.402713865
-1.683634996 1.953954339 -0.3115545809
-1.539751887 1.787600756 -0.2026988715
-1.464577556 1.701526523 -0.115454264
-1.708592176 1.985720396 -0.04502541199
-1.712055087 1.982735634 0.04502541199
-1.579185963 1.829504609 0.124456048
-1.701064467 1.972093463 0.2241391838
-1.699528575 1.971703887 0.3144794703
-1.571219802 1.823490143 0.3745556474
-1.740625978 2.021522284 0.5102860332
-1.653759956 1.921994567 0.5754213929
-1.727758169 2.008703947 0.6983458996
-1.580314994 1.842482686 -0.6388174891
-1.5159477 1.768061161 -0.5277317166
-1.492980361 1.742504716 -0.4377786815
-1.691732883 1.975172877 -0.4052168131
-1.69134438 1.976116657 -0.3142357171
-1.523142815 1.780851245 -0.2013043761
-1.464118123 1.712446451 -0.1158729419
-1.702949882 1.993192434 -0.04506031796
-1.719791889 2.005098104 0.04540936649
-1.56499207 1.825906873 0.1238280237
-1.703243017 1.988611341 0.2253593504
-1.705891728 1.99240768 0.3169168532
-1.611077189 1.882998109 0.3858189285
-1.742845654 2.037726879 0.5129573345
-1.638514996 1.917098045 0.5722721219
-1.71571672 2.008846998 0.6962752938
-1.577955246 1.852124333 -0.640370369
-1.507239699 1.770374894 -0.5268319249
-1.474469781 1.732494831 -0.4339624941
-1.68738687 1.984075904 -0.4058425426
-1.692149758 1.99108398 -0.3156981766
-1.497878671 1.763116717 -0.1986896992
-1.458132029 1.717546344 -0.1158729419
-1.715386152 2.021998405 -0.04558388889
-1.710188627 2.00804472 0.04533955455
-1.562492609 1.835921288 0.1241420209
-1.694056511 1.991214156 0.2250107378
-1.711784959 2.013473749 0.3193542361
-1.62239933 1.909686923 0.390199095
-1.692512393 1.992920041 0.4999823868
-1.638117313 1.930235267 0.5745216012
-1.717441082 2.025136948 0.6998987198
-1.561498404 1.845822215 -0.6362292767
-1.496018887 1.769672275 -0.5250323415
-1.479817629 1.751127243 -0.4373970628
-1.680451274 1.989953637 -0.4058425426
-1.694151163 2.007597685 -0.3174043298
-1.493000269 1.769857168 -0.1988640279
-1.446979046 1.71651721 -0.115454264
-1.708318114 2.027973652 -0.04558388889
-1.707043052 2.018582582 0.04544426873
-1.553495884 1.83831358 0.1239326894
-1.684524536 1.994070768 0.2246621251
-1.658647537 1.964829683 0.3105796576
-1.623365998 1.924397469 0.3920763135
-1.656436443 1.964295983 0.4912051857
-1.630114079 1.934450984 0.5740717053
-1.699162841 2.017819881 0.6952400208
-1.550075293 1.845345378 -0.6341587305
-1.471039534 1.752494216 -0.518283844
-1.46359992 1.744250894 -0.4343441129
-1.686187387 2.010943651 -0.4089712501
-1.68075788 2.005892038 -0.3161856234
-1.482975602 1.770475507 -0.1983410865
-1.45379746 1.736873627 -0.1165009812
-1.716981888 2.052031755 -0.04600274563
-1.714131951 2.041374207 0.04582822323
-1.544823527 1.840395212 0.123723343
-1.687796593 2.012151241 0.2260566205
-1.624999166 1.938659668 0.3054611385
-1.657573342 1.978222609 0.4020881355
-1.633184195 1.950497985 0.4862441719
-1.60959506 1.923689485 0.5691227317
-1.7023772 2.035298586 0.6993811727
-1.546099424 1.853711486 -0.6351940036
-1.475202918 1.769337177 -0.5218830705
-1.453732491 1.744823694 -0.4331992269
-1.684565783 2.022596121 -0.4102227092
-1.684256315 2.023660421 -0.3181355596
-1.47296381 1.771045923 -0.1978181452
-1.414831758 1.701753855 -0.1137795076
-1.711086869 2.059550285 -0.04603765532
-1.717599273 2.059332848 0.04610746354
-1.525602102 1.830434561 0.1226766258
-1.675662637 2.011906385 0.2253593504
-1.685879469 2.024891853 0.318379283
-1.650658488 1.983996272 0.4020881355
-1.631729126 1.961940408 0.487770617
-1.595734119 1.920024037 0.5664233565
-1.70637095 2.054603338 0.7040398717
-1.5276196 1.843951583 -0.6300175786
-1.466532707 1.771473169 -0.5209832191
-1.439176202 1.739048004 -0.4305279255
-1.691343546 2.045208693 -0.4136642814
-1.689828038 2.044828892 -0.3205729425
-1.449317217 1.754416704 -0.1953777969
-1.406340361 1.70360148 -0.1135701686
-1.713156581 2.076009989 -0.04628198594
-1.720604539 2.077636719 0.04638670012
-1.518250346 1.833944678 0.1225719452
-1.663901925 2.011310816 0.2246621251
-1.733187556 2.096554041 0.3288600743
-1.644070625 1.989458799 0.4020881355
-1.621119738 1.963083267 0.4866257608
-1.587781429 1.924079776 0.5659734607
-1.697089076 2.057270765 0.7030045986
-1.51258266 1.838829517 -0.6263941526
-1.46560061 1.782348037 -0.5227828622
-1.425618887 1.734959483 -0.4282382131
-1.690820694 2.058438778 -0.4152286053
-1.700669646 2.071903229 -0.3239852488
-1.440657735 1.756383896 -0.1950291842
-1.403215528 1.711345077 -0.1137795076
-1.718573809 2.097445011 -0.04663103446
-1.720056534 2.091053009 0.04656122625
-1.502961159 1.828433275 0.1218392476
-1.651812196 2.010948896 0.2239648849
-1.736303568 2.114562988 0.3308099508
-1.652151823 2.013510942 0.4058425426
-1.609621167 1.962376356 0.4850992858
-1.583863258 1.93234849 0.5668732524
-1.667863846 2.036280394 0.6936870813
-1.505576015 1.842076182 -0.6258764863
-1.452286005 1.778141975 -0.5200834274
-1.431336641 1.753116369 -0.4316727817
-1.690229774 2.071687222 -0.416792959
-1.698807716 2.083685398 -0.3249602318
-1.439858556 1.767330408 -0.1957264096
-1.372308254 1.685015678 -0.1116860732
-1.721706271 2.115540504 -0.04691027477
-1.716908813 2.101390839 0.04666594043
-1.509521365 1.848877907 0.1228859723
-1.673202038 2.05008626 0.2277997285
-1.733046412 2.124923944 0.3315411508
-1.64546597 2.018978119 0.4058425426
-1.58946383 1.950960994 0.4809014797
-1.568834662 1.927011251 0.5637239218
-1.673294067 2.056785345 0.6988635063
-1.498813868 1.84758234 -0.6258764863
-1.432568908 1.76655066 -0.5151344538
-1.419956684 1.752249718 -0.430146277
-1.68884027 2.085544348 -0.4183573127
-1.69277215 2.091145754 -0.3252039552
-1.418644667 1.753757 -0.1936346889
-1.386211634 1.714886546 -0.1133608222
-1.72185266 2.130869627 -0.04711970314
-1.723420382 2.124454021 0.0470498912
-1.496769071 1.846378684 0.1223626062
-1.685742378 2.080976009 0.2305887192
-1.725617886 2.130960941 0.3315411508
-1.630952358 2.015496731 0.4039653242
-1.574896455 1.947613716 0.4786117971
-1.551962376 1.920622826 0.5601246953
-1.668531656 2.065619946 0.6998987198
-1.49114418 1.851298213 -0.6253588796
-1.429749727 1.77634418 -0.516484201
-1.415062666 1.758725047 -0.4305279255
-1.696404099 2.109900475 -0.4221117496
-1.693800211 2.108168364 -0.3269101381
-1.415009856 1.761804938 -0.1939833015
-1.367716193 1.704138398 -0.112314105
-1.718158364 2.141545773 -0.0472244136
-1.729418039 2.147889376 0.0474338457
-1.494072437 1.856259704 0.1226766258
-1.665981412 2.071321964 0.2288456112
-1.714065671 2.132628918 0.3308099508
-1.631330848 2.030416489 0.4058425426
-1.532444239 1.908702731 0.4675448835
-1.542810082 1.922988176 0.5592249036
-1.679441452 2.094036818 0.7076632977
-1.471400976 1.839895606 -0.6196648479
-1.422634006 1.779554009 -0.5160343051
-1.410140753 1.765187502 -0.4309095442
-1.70049119 2.129406929 -0.4249275625
-1.701658607 2.132392406 -0.3298349977
-1.396429062 1.751156449 -0.1922401935
-1.385711193 1.738338351 -0.1143028662
-1.715655923 2.153787136 -0.04736403748
-1.729779959 2.162982464 0.04764327407
-1.468880177 1.83806026 0.1211065501
-1.641334414 2.055328846 0.2264052331
-1.633914351 2.046769619 0.3164293468
-1.616841674 2.026833773 0.4039653242
-1.523657918 1.910704613 0.466781646
-1.538853168 1.931142211 0.5601246953
-1.655273676 2.078729391 0.7004163861
-1.459283352 1.837201715 -0.617076695
-1.428529143 1.799772382 -0.5205333233
-1.418922186 1.788309693 -0.4354889691
-1.700412154 2.144616604 -0.426804781
-1.70529902 2.152323008 -0.3320286274
-1.38319242 1.746405959 -0.1911943108
-1.415580869 1.78858161 -0.1173383594
-1.700684905 2.150351763 -0.04715460539
-1.706053376 2.148648977 0.04718951136
-1.453765631 1.832223892 0.1203738302
-1.636986375 2.063881874 0.2267538458
-1.470164776 1.854885936 0.2854745388
-1.631833673 2.06033802 0.4095969796
-1.513323307 1.911393523 0.4656367898
-1.528475881 1.931916833 0.5587750077
-1.639621139 2.073886395 0.6967929602
-1.452861905 1.842283964 -0.617076695
-1.404145718 1.781788945 -0.5137848258
-1.416316271 1.797878146 -0.4366338253
-1.690472245 2.147434473 -0.4261790216
-1.701457143 2.162943602 -0.3327598572
-1.377088308 1.751223326 -0.1911943108
-1.396988153 1.777808189 -0.1162916347
-1.594369173 2.030454159 -0.04436222091
-1.693590164 2.148309708 0.0470498912
-1.441181779 1.829442501 0.1198504716
-1.622375607 2.060192347 0.2257079929
-1.4072119 1.788246274 0.2742625773
-1.622190118 2.062915802 0.4089712501
-1.495722175 1.902773619 0.462202251
-1.520519495 1.935707808 0.5583251119
-1.644299507 2.094793558 0.7019693255
-1.441657782 1.841260314 -0.6150061488
-1.397917032 1.786679745 -0.5137848258
-1.419707537 1.815182805 -0.4396867752
-1.689047575 2.161104679 -0.4277433455
-1.681678414 2.153224468 -0.3303224742
-1.366062164 1.749738336 -0.1904970706
-1.378488898 1.766926289 -0.1152449176
-1.553194523 1.991577625 -0.04338488355
-1.684849024 2.152633667 0.04701498896
-1.431414723 1.829493046 0.1195364669
-1.575904727 2.015615463 0.2201300114
-1.393628001 1.783762336 0.2728001475
-1.603180885 2.052716017 0.4058425426
-1.489071608 1.907982707 0.462202251
-1.507760882 1.933320522 0.5560756326
-1.634968877 2.097187281 0.7009340525
-1.437593579 1.849331617 -0.6160414219
-1.387201786 1.78515017 -0.5119851828
-1.404934287 1.809272528 -0.4370154142
-1.67823863 2.162012577 -0.426804781
-1.667229176 2.149377823 -0.3288600743
-1.350180745 1.741898537 -0.1891025752
-1.367729068 1.765172362 -0.1148262247
-1.507056475 1.946391106 -0.04226793349
-1.675246954 2.155050755 0.04694517702
-1.418893933 1.82659173 0.1190131083
-1.543204188 1.988052607 0.2164694667
-1.37796998 1.775827169 0.2708502412
-1.6032691 2.067665815 0.4077197909
-1.481532812 1.911358833 0.4618206024
-1.492988467 1.927525043 0.5529262424
-1.639463067 2.118158102 0.7061104178
-1.41964674 1.838797569 -0.6108650565
-1.385722995 1.796153665 -0.5137848258
-1.398609638 1.81416595 -0.4370154142
-1.669475079 2.166293144 -0.4264918864
-1.6572932 2.152039289 -0.3283725679
-1.336802125 1.737126827 -0.1880567074
-1.366119862 1.776506901 -0.1152449176
-1.406412125 1.829563737 -0.0395802632
-1.668935418 2.16246891 0.04698008299
-1.413728595 1.833115339 0.1191177741
-1.490376472 1.93319881 0.2098456323
-1.369339228 1.777481437 0.2703627348
-1.591221094 2.066988945 0.4064682722
-1.480503201 1.924556255 0.4637286961
-1.48743844 1.934269905 0.5533761978
-1.632058859 2.123868465 0.7061104178
-1.408198118 1.837854266 -0.6087944508
-1.37913096 1.801220298 -0.5137848258
-1.406267405 1.837990522 -0.4415948689
-1.655524015 2.164551735 -0.4249275625
-1.653011322 2.162830353 -0.3291037679
-1.326798677 1.737264276 -0.187533766
-1.365658283 1.789440274 -0.1157682762
-1.404549003 1.841065526 -0.03971988335
-1.651271343 2.155870914 0.04670084268
-1.408214688 1.839870334 0.1192224547
-1.478438735 1.932318449 0.209148407
-1.359198689 1.777757406 0.2696315348
-1.598025918 2.091642857 0.4102227092
-1.467483163 1.922166944 0.4618206024
-1.47915709 1.938159227 0.5529262424
-1.61957705 2.123692036 0.7040398717
-1.40963769 1.85376811 -0.6124179363
-1.36780417 1.8000561 -0.5119851828
-1.402217388 1.846015096 -0.4423580766
-1.640414 2.161163807 -0.4230503142
-1.645451069 2.168587685 -0.3291037679
-1.330356002 1.754586339 -0.1889282614
-1.358197093 1.792604685 -0.1156636029
-1.399320722 1.847551227 -0.0397547856
-1.637307525 2.153949261 0.04652632028
-1.417493105 1.86544776 0.1205831841
-1.468936205 1.93455112 0.2087997794
-1.352673292 1.78272748 0.2696315348
-1.569226623 2.068879128 0.4045910537
-1.453648686 1.91789031 0.45953089
-1.491211772 1.968163133 0.5601246953
-1.605157971 2.120090961 0.7009340525
-1.412796617 1.870764971 -0.6165590286
-1.357131481 1.798360348 -0.5101855993
-1.418552756 1.88043344 -0.4496088028
-1.627292395 2.158705235 -0.4214859903
-1.634667039 2.169275761 -0.3283725679
-1.337714076 1.776495814 -0.1908456981
-1.369057655 1.819441557 -0.1171290129
-1.518200278 2.018381119 -0.04338488355
-1.632565737 2.162558317 0.04659612849
-1.408892512 1.866949677 0.1203738302
-1.440920591 1.91077745 0.205662176
-1.336002469 1.772934437 0.2674378753
-1.578997374 2.09616065 0.4089712501
-1.450823307 1.927405715 0.4606757462
-1.484677434 1.973097086 0.5601246953
-1.602763176 2.131577969 0.7030045986
-1.413540244 1.884712338 -0.6196648479
-1.352329493 1.804409981 -0.5106354952
-1.407601237 1.878842235 -0.4480823576
-1.623677015 2.168833494 -0.4224245846
-1.614004135 2.157484293 -0.3256914616
-1.343433738 1.797112703 -0.1925888062
-1.366602778 1.828771472 -0.1174430177
-1.505162597 2.015657425 -0.04321036115
-1.625384688 2.167960644 0.04659612849
-1.38799715 1.852674961 0.1191177741
-1.423826694 1.901192904 0.2040933669
-1.331305623 1.778944254 0.2676816285
-1.566939235 2.095331669 0.4077197909
-1.443247795 1.930634141 0.4602941573
-1.496441364 2.003247023 0.5673231483
-1.605712414 2.151093006 0.7076632977
-1.410082817 1.894529939 -0.6212177873
-1.333226442 1.791921735 -0.5056865811
-1.403047562 1.887139797 -0.4488455653
-1.615716338 2.174770355 -0.4224245846
-1.599362254 2.153542757 -0.324229002
-1.33477819 1.798591137 -0.1922401935
-1.356322289 1.828955054 -0.1171290129
-1.496927142 2.019292593 -0.04317545891
-1.615419984 2.17041254 0.04652632028
-1.394632459 1.875137568 0.1202691719
-1.442995667 1.941578865 0.2079282254
-1.328638792 1.788361192 0.2684128582
-1.54313004 2.078583717 0.4033395946
-1.440841079 1.942217588 0.4618206024
-1.497212291 2.019677162 0.5704724789
-1.595893979 2.153580427 0.7066280246
-1.413793802 1.913424015 -0.6258764863
-1.354430437 1.834421158 -0.516484201
-1.408110738 1.907821655 -0.4526617527
-1.597563028 2.16608882 -0.4196088016
-1.597346544 2.167380571 -0.3254477084
-1.330855608 1.806447268 -0.1925888062
-1.367690563 1.857804894 -0.1186990887
-1.502906442 2.042222023 -0.04355940968
-1.59676218 2.161841869 0.04621217772
-1.398755789 1.894454837 0.1212112084
-1.462232351 1.981875896 0.211763069
-1.319719553 1.790022969 0.2679253519
-1.528832793 2.074416876 0.4014623761
-1.428232193 1.939330816 0.4599125087
-1.501703024 2.04058671 0.5749714971
-1.586077809 2.15602541 0.7055928111
-1.416246295 1.930809498 -0.6300175786
-1.334511638 1.820044398 -0.511085391
-1.402602434 1.914309382 -0.4530434012
-1.584534407 2.163406849 -0.4180444479
-1.585461259 2.166257858 -0.3244727552
-1.329245806 1.817514777 -0.1932860464
-1.361522794 1.862329841 -0.1186990887
-1.473356366 2.016776085 -0.0428962186
-1.584852815 2.160675764 0.04607255757
-1.392133951 1.899326324 0.1212112084
-1.403505564 1.916243315 0.2040933669
-1.306739807 1.784779787 0.2664629519
-1.53791225 2.102060318 0.4058425426
-1.414839029 1.934548736 0.4576227963
-1.508726597 2.064435482 0.580370307
-1.573984385 2.155308723 0.703522265
-1.424622536 1.955794692 -0.6367468834
-1.318976283 1.812086701 -0.5074861646
-1.419348717 1.950699806 -0.4606757462
-1.574650168 2.165729046 -0.4174186885
-1.573222041 2.165355444 -0.323497802
-1.332578301 1.834809184 -0.1946805418
-1.363224864 1.878386259 -0.1194317937
-1.485448956 2.047548294 -0.04345469922
-1.574947357 2.162961483 0.04600274563
-1.350567341 1.8554883 0.1180710569
-1.319795609 1.814543366 0.1925888062
-1.297001004 1.784512758 0.2657317221
-1.537899375 2.116737843 0.4077197909
-1.403464317 1.933120489 0.4560963511
-1.504944444 2.074420929 0.5817199945
-1.570231318 2.165207386 0.7050751448
-1.423447132 1.968582749 -0.6393350959
-1.319808841 1.825927258 -0.5101855993
-1.403334975 1.942909956 -0.4576227963
-1.566302896 2.169337749 -0.4171058536
-1.553258061 2.152851105 -0.3208166659
-1.337816954 1.855611563 -0.1964236498
-1.356988788 1.882896423 -0.1194317937
-1.549576879 2.15170598 -0.04558388889
-1.567766547 2.168171883 0.04600274563
-1.348760486 1.866667151 0.1184897348
-1.399760127 1.938675165 0.2054878622
-1.296884418 1.796852469 0.2669504285
-1.52125752 2.109275579 0.4052168131
-1.426897407 1.979170084 0.4660184085
-1.504891157 2.088887691 0.5844194293
-1.562663078 2.170675993 0.7050751448
-1.416910648 1.973292589 -0.6393350959
-1.311155438 1.827355981 -0.509285748
-1.41519177 1.973078489 -0.4637286961
-1.557570577 2.173186064 -0.416792959
-1.54457736 2.156646729 -0.3205729425
-1.325857401 1.851937294 -0.1955520958
-1.374812245 1.921733379 -0.1216299087
-1.54438293 2.160355091 -0.04565370083
-1.560187936 2.173631668 0.04600274563
-1.357369542 1.892462015 0.1198504716
-1.384036303 1.930352211 0.2040933669
-1.290604711 1.801368237 0.2669504285
-1.505836368 2.103329182 0.4030267
-1.519129038 2.124244928 0.5929675698
-1.544968367 2.161971331 0.7004163861
-1.40552938 1.971933961 -0.6372645497
-1.309291363 1.838270664 -0.511085391
-1.410573602 1.98120451 -0.4644919336
-1.541959763 2.167342186 -0.4146028757
-1.540489912 2.166879416 -0.3213041425
-1.318230271 1.85493052 -0.1953777969
-1.361156702 1.916750431 -0.1210018694
-1.539146423 2.168994904 -0.04572350904
-1.54562819 2.169293165 0.04579331726
-1.333379984 1.872783184 0.1182803959
-1.380755067 1.94004178 0.2046162933
-1.290060997 1.813951254 0.2681691051
-1.505350471 2.118234396 0.4049039483
-1.356195331 1.909058213 0.4469375014
-1.535392761 2.162905216 0.6024155021
-1.534058332 2.162624359 0.6988635063
-1.408679008 1.991021633 -0.6419233084
-1.296116233 1.833282709 -0.5083859563
-1.417245746 2.005356073 -0.4690713286
-1.529826283 2.16625762 -0.4133513868
-1.530627966 2.168999195 -0.3208166659
-1.31749022 1.86766088 -0.1962493509
-1.362512946 1.93291688 -0.121734567
-1.53041482 2.17271924 -0.0456886068
-1.527654886 2.159981251 0.0454791747
-1.307238102 1.849698782 0.1165009812
-1.367077351 1.935085893 0.2035704255
-1.289445758 1.826551557 0.2693878114
-1.500225067 2.126703978 0.4055296779
-1.315581799 1.865646601 0.4354889691
-1.528956413 2.169844389 0.6028653979
-1.525388479 2.166386366 0.6983458996
-1.405051708 2.000669479 -0.6434761882
-1.28299284 1.828224778 -0.5056865811
-1.410237551 2.010290623 -0.4690713286
-1.515451431 2.161879778 -0.4114741981
-1.516214609 2.164573193 -0.3193542361
-1.361483097 1.94584322 -0.1222579256
-1.521674752 2.176409483 -0.04565370083
-1.517808437 2.162026882 0.04540936649
-1.267510414 1.806833506 0.113465488
-1.379761577 1.967577338 0.20653373
-1.291035652 1.842421412 0.2710939646
-1.500723124 2.143255472 0.4077197909
-1.300054431 1.857360482 0.4324360192
-1.51578784 2.167184114 0.6006159186
-1.516710758 2.170113802 0.6978282332
-1.410211086 2.022994757 -0.6491702199
-1.278830528 1.835890532 -0.5065863729
-1.411064267 2.026479483 -0.4717426896
-1.510152698 2.170399189 -0.4120999277
-1.502983093 2.161703825 -0.3181355596
-1.290774465 1.857180715 -0.1941576153
-1.367214322 1.968629003 -0.1234093308
-1.503807902 2.166921854 -0.04533955455
-1.513681531 2.172234535 0.04551408067
-1.253206372 1.799773932 0.1127327904
-1.408169627 2.023075104 0.2119373977
-1.298198938 1.866472602 0.2740188539
-1.483086586 2.133881569 0.4049039483
-1.279001117 1.840926766 0.4274749756
-1.491544247 2.148449898 0.5938673615
-1.508024693 2.173808098 0.6973105669
-1.398744583 2.021550179 -0.6470996737
-1.267981529 1.833931208 -0.5047867298
-1.406214833 2.034622431 -0.4725058973
-1.501445293 2.174031496 -0.4117870331
-1.495427608 2.166937351 -0.3181355596
-1.268445015 1.8387146 -0.1917172521
-1.371669173 1.989833951 -0.124456048
-1.491697788 2.165570498 -0.04519993812
-1.503813863 2.174216032 0.04544426873
-1.244645476 1.800851226 0.112523444
-1.445266366 2.091907978 0.2187355161
-1.343554735 1.94613862 0.2852308154
-1.473386049 2.135793447 0.4042782187
-1.249162436 1.811439157 0.4194609821
-1.488458872 2.160061359 0.595666945
-1.494948864 2.171103239 0.6947223544
-1.394220352 2.029362202 -0.6481349468
-1.253069043 1.825273752 -0.5011875629
-1.403902888 2.045749664 -0.4740323722
-1.484172702 2.164336681 -0.4089712501
-1.480379224 2.160421133 -0.3164293468
-1.257836342 1.836336017 -0.1910200119
-1.376344442 2.010853052 -0.1255027652
-1.484507799 2.170505762 -0.04519993812
-1.487540722 2.166002512 0.04516502842
-1.240926504 1.808262587 0.1127327904
-1.44057703 2.099974155 0.2190841585
-1.462798476 2.133965731 0.3125295639
-1.468527198 2.143927336 0.4049039483
-1.224292278 1.788033485 0.4129734933
-1.485688806 2.171419382 0.597466588
-1.484470487 2.171264172 0.693169415
-1.3980124 2.050177574 -0.6533113718
-1.242301106 1.823194504 -0.4993879199
-1.411121488 2.071731567 -0.478993386
-1.475497723 2.167870998 -0.4086583555
-1.425942183 2.096634626 -0.3061923385
-1.251419067 1.84071517 -0.1910200119
-1.369317293 2.015644789 -0.1255027652
-1.474675417 2.172365904 -0.04513012618
-1.474338889 2.162920475 0.04499050602
-1.233482838 1.810932159 0.1126281098
-1.413053513 2.07534647 0.2159465551
-1.470973969 2.162035704 0.3159419
-1.459924459 2.147406101 0.4045910537
-1.208112121 1.777682066 0.4095389545
-1.47700572 2.174979448 0.5970166922
-1.472543836 2.170038462 0.6910989285
-1.401675701 2.071043253 -0.6584877372
-1.232653856 1.822677493 -0.4980382323
-1.411578655 2.088029861 -0.481664747
-1.461286306 2.163187265 -0.4067811668
-1.43971622 2.132860899 -0.3108233809
-1.255805016 1.861807585 -0.1927631199
-1.377904415 2.043596745 -0.1269681752
-1.465966463 2.175841331 -0.04509522021
-1.467899799 2.169710398 0.04502541199
-1.22156167 1.80695343 0.1121047512
-1.404684424 2.078615665 0.2157722414
-1.457863092 2.158931971 0.3147231936
-1.453524113 2.154127121 0.4049039483
-1.20299685 1.783516288 0.4099205434
-1.45960176 2.165578842 0.5929675698
-1.459563732 2.167154074 0.688510716
-1.409151912 2.098620892 -0.6657346487
-1.228456378 1.830204964 -0.498938024
-1.412664056 2.106233358 -0.4847176671
-1.454448223 2.170169115 -0.4070940018
-1.447731137 2.160962105 -0.3142357171
-1.249298811 1.866179466 -0.1927631199
-1.378178835 2.06025362 -0.1277008802
-1.450582027 2.169308901 -0.04485088959
-1.455858827 2.168180466 0.04488579556
-1.209682107 1.802914143 0.1115813926
-1.372647762 2.047342777 0.2119373977
-1.453634024 2.168954372 0.3154544234
-1.438302159 2.147698402 0.402713865
-1.194268465 1.784649968 0.409157306
-1.446238995 2.162813902 0.5907180905
-1.454137444 2.175447464 0.689545989
-1.421101928 2.132463217 -0.6750521064
-1.230380654 1.847671628 -0.5025372505
-1.282373905 1.926477194 -0.4415948689
-1.451239586 2.181812525 -0.4083455205
-1.443096995 2.171213865 -0.3149669468
-1.21410954 1.827382207 -0.1882310212
-1.377606511 2.07503581 -0.1283289045
-1.440788865 2.171027184 -0.04478108138
-1.450118899 2.176830769 0.04495560378
-1.206701994 1.812113404 0.1118954122
-1.38204813 2.077003002 0.2145520598
-1.447873354 2.177573204 0.3159419
-1.428609252 2.149416208 0.4020881355
-1.189118266 1.790443063 0.4095389545
-1.43760252 2.166225672 0.5902681351
-1.441195488 2.172460556 0.6869577765
-1.432831526 2.166414976 -0.6843696237
-1.218873501 1.843613386 -0.5002877116
-1.396843314 2.114406347 -0.4843360782
-1.417871475 2.147051573 -0.4008366466
-1.430422783 2.167702675 -0.3137482405
-1.205530405 1.828282356 -0.1878824085
-1.387205601 2.104606152 -0.1298989803
-1.433202147 2.176042795 -0.04478108138
-1.430758238 2.163280249 0.04457164928
-1.206976771 1.826311827 0.112523444
-1.379181743 2.088464499 0.2152493
-1.440643668 2.182363033 0.3159419
-1.416747212 2.14779377 0.4008366466
-1.17885077 1.787820578 0.4080124497
-1.430411339 2.17098093 0.5902681351
-1.422979832 2.161343336 0.6817814112
-1.422458887 2.166309595 -0.6828166842
-1.20494771 1.836451292 -0.4971384406
-1.417819262 2.161709547 -0.4942581356
-1.417948246 2.163552523 -0.4030267
-1.426109433 2.177664995 -0.3144794703
-1.192913651 1.822267652 -0.1868365258
-1.376570106 2.104421854 -0.1295849681
-1.425597072 2.181032896 -0.04478108138
-1.419905901 2.163246393 0.0444669351
-1.192927122 1.818822861 0.1117907465
-1.378802538 2.103024244 0.2162951678
-1.421051383 2.169113159 0.3132607937
-1.413569689 2.159336567 0.4020881355
-1.161853313 1.77549684 0.4041962922
-1.419625521 2.171067238 0.5889184475
-1.423879504 2.179235458 0.6859225631
-1.416997194 2.174499035 -0.6838519573
-1.178325653 1.809618354 -0.4885902405
-1.414548039 2.173227549 -0.4957846105
-1.413617969 2.173457146 -0.4039653242
-1.413091063 2.174307346 -0.3132607937
-1.182203412 1.81973803 -0.1861392856
-1.372478962 2.114239454 -0.1298989803
-1.413622737 2.179285049 -0.0446414575
-1.404706478 2.156460285 0.04422260076
-1.171316981 1.799541593 0.1103253365
-1.404051304 2.157924414 0.2215245068
-1.409142256 2.16740346 0.3122858107
-1.399565935 2.154319048 0.400210917
-1.153509736 1.776248813 0.4034330547
-1.378092766 2.123698711 0.5745216012
-1.412060142 2.177708149 0.6838519573
-1.409398675 2.179431677 -0.6838519573
-1.167771578 1.807173371 -0.486790657
-1.401627898 2.169906139 -0.493876487
-1.404951811 2.176718473 -0.4036524892
-1.400113583 2.170885324 -0.3120420873
-1.184481263 1.837249637 -0.187533766
-1.39321363 2.162672043 -0.1326204538
-1.401678085 2.177480221 -0.04450184107
-1.397170782 2.16135025 0.04422260076
-1.160694003 1.796908379 0.1099066511
-1.407318234 2.179549932 0.2232676297
-1.399416208 2.168972731 0.3117983341
-1.393108368 2.160851479 0.4005237818
-1.149429679 1.783564806 0.4041962922
-1.409677386 2.190746784 0.6864402294
-1.392391443 2.169706106 -0.6791932583
-1.195117474 1.863733053 -0.5011875629
-1.379211783 2.151646137 -0.4885338843
-1.396278977 2.179946184 -0.4033395946
-1.387176037 2.167399645 -0.3108233809
-1.184502602 1.851443172 -0.1885796487
-1.375973344 2.152377129 -0.1316784024
-1.384379625 2.167192936 -0.04418769479
-1.389617324 2.166214466 0.04422260076
-1.153336167 1.799267769 0.1098019779
-1.397551298 2.181094408 0.2229190022
-1.395047188 2.178860188 0.3125295639
-1.378104329 2.15405345 0.3983336687
-1.145311832 1.790874243 0.4049594998
-1.389544606 2.176115751 0.6802285314
-1.382734537 2.171293974 -0.6781579852
-1.192789793 1.874469399 -0.5029871464
-1.351672769 2.12497282 -0.4812831283
-1.384423256 2.178138256 -0.4020881355
-1.383175135 2.177014112 -0.3115545809
-1.171625853 1.845474124 -0.187533766
-1.333144784 2.101511955 -0.1282242388
-1.377185702 2.171771526 -0.04418769479
-1.379899979 2.167677879 0.04415279254
-1.13878572 1.789601922 0.1089645997
-1.385653377 2.179233789 0.222221747
-1.384239674 2.17868948 0.3117983341
-1.374131322 2.163613796 0.3992722929
-1.130638123 1.781599879 0.4019065499
-1.274726391 2.009423733 0.5394291878
-1.374046922 2.167658329 0.6760873795
-1.372429132 2.170968771 -0.6766050458
-1.183444381 1.873472095 -0.5016374588
-1.358244777 2.151024103 -0.4862441719
-1.370867372 2.172693729 -0.400210917
-1.37171185 2.174873114 -0.3105796576
-1.15168941 1.827437282 -0.1852677315
-1.353841543 2.149862051 -0.1309456974
-1.372106433 2.179711819 -0.04425750673
-1.367363334 2.163789511 0.04397827014
-1.139244318 1.803500295 0.1095926315
-1.375229359 2.178762197 0.2216988355
-1.369593978 2.171515226 0.310092181
-1.365895748 2.166487217 0.3989593983
-1.1184448 1.775373101 0.3996168673
-1.36787951 2.173838377 0.6766050458
-1.36727643 2.178780317 -0.6776403189
-1.17411983 1.872433066 -0.5002877116
-1.33859241 2.135554314 -0.481664747
-1.363655329 2.177227259 -0.400210917
-1.358846664 2.171234369 -0.3093609512
-1.15090692 1.839691401 -0.1861392856
-1.362370968 2.181095362 -0.04418769479
-1.361242533 2.170006275 0.04401317239
-1.115970254 1.780389071 0.1079178825
-1.367996216 2.183311224 0.2216988355
-1.358172059 2.169314384 0.309117198
-1.355181456 2.166218519 0.3980208337
-1.112551689 1.779072165 0.3996168673
-1.223843813 1.958558798 0.5232326984
-1.35619092 2.172044992 0.6745344996
-1.359663248 2.183539391 -0.6776403189
-1.159340143 1.863283515 -0.4966884851
-1.305208206 2.098535776 -0.4721242785
-1.356046438 2.181974649 -0.400210917
-1.341834664 2.16078639 -0.3071672916
-1.066719413 1.718433022 -0.1732402444
-1.345268726 2.170540333 -0.04387355596
-1.350489736 2.16965127 0.04390846193
-1.103420138 1.774097562 0.1072898433
-1.361418962 2.1897645 0.2218731344
-1.348497033 2.170669556 0.3086297214
-1.347611189 2.170936108 0.3980208337
-1.104264855 1.77960813 0.3988536596
-1.350635052 2.180050611 0.6755697727
-1.344924331 2.176768541 -0.6740168929
-1.154876947 1.870635271 -0.4975883365
-1.287563801 2.086372137 -0.4683080912
-1.34842217 2.186694622 -0.400210917
-1.338448763 2.172217607 -0.3081422746
-1.073253393 1.742503047 -0.17533198
-1.33139801 2.165002823 -0.04366412386
-1.346059799 2.179456711 0.04401317239
-1.099318027 1.781338096 0.1074991971
-1.344352126 2.179242849 0.2203043401
-1.345077634 2.182122946 0.3096046746
-1.334845901 2.167217016 0.39645648
-1.102162838 1.790139318 0.4003801048
-1.19176054 1.93717885 0.5151344538
-1.337959051 2.176522732 0.6729816198
-1.328231335 2.166626453 -0.6693580747
-1.148340583 1.874654889 -0.4975883365
-1.285399914 2.099225283 -0.4702161849
-1.337688565 2.186332703 -0.3992722929
-1.330858588 2.176876307 -0.3081422746
-1.063008785 1.739438295 -0.17463471
-1.331123114 2.181586742 -0.04390846193
-1.323816538 2.160271168 0.04352450743
-1.078492165 1.761317968 0.1060337871
-1.334656954 2.180523157 0.2199557126
-1.333309889 2.180030823 0.3086297214
-1.322122693 2.163435221 0.3948921561
-1.094883442 1.792300701 0.3999984562
-1.156563044 1.894752979 0.5025372505
-1.325323105 2.172933817 0.6703934073
-1.325680256 2.17950201 -0.6719462872
-1.14077723 1.876986861 -0.4971384406
-1.233211875 2.029873133 -0.45342502
-1.323897719 2.180857658 -0.3973950744
-1.323251247 2.181509018 -0.3081422746
-1.050732136 1.732916474 -0.1735888571
-1.318322301 2.177666187 -0.04373393208
-1.31834507 2.168296814 0.04359431565
-1.082707047 1.782141447 0.1070805043
-1.323934317 2.180060148 0.2194327861
-1.316423297 2.169398546 0.3064360917
-1.313537955 2.166348219 0.3945792615
-1.086585641 1.792753458 0.3992352486
-1.147922635 1.895445228 0.5016374588
-1.315730095 2.174240828 0.6693580747
-1.315069318 2.179154634 -0.6703934073
-1.130193472 1.874282122 -0.4953388572
-1.229159713 2.039209366 -0.4545698464
-1.315258384 2.183773279 -0.3970822096
-1.306416512 2.170806646 -0.3059485853
-1.04673028 1.739988446 -0.1739374846
-1.312772632 2.18568325 -0.04380374402
-1.308702707 2.169460535 0.04352450743
-1.073386788 1.780777931 0.1067664847
-1.320429802 2.191494226 0.2201300114
-1.303723454 2.165476561 0.3052173853
-1.302912593 2.165842533 0.3936406672
-1.082345009 1.799900174 0.3999984562
-1.136280298 1.891088963 0.4993879199
-1.307138801 2.177163839 0.6688404679
-1.310431123 2.188704491 -0.6719462872
-1.131647229 1.891594529 -0.498938024
-1.210949659 2.024953604 -0.4503720701
-1.31066668 2.19343853 -0.3980208337
-1.063114524 1.781270027 -0.1777723283
-1.296301484 2.174565792 -0.04348960146
-1.301122427 2.174015284 0.04352450743
-1.065424323 1.78090024 0.1065571457
-1.308683395 2.189249277 0.2194327861
-1.298192143 2.17342329 0.3057048619
-1.296737552 2.17184639 0.393953532
-1.082090259 1.813783526 0.4022881985
-1.121690035 1.881652474 0.4957886934
-1.302877784 2.186465502 0.6703934073
-1.294891 2.179977655 -0.6678052545
-1.125368714 1.895336509 -0.498938024
-1.184841156 1.997087121 -0.443121314
-1.268119216 2.138305187 -0.3870703876
-1.276430249 2.154032469 -0.3022925258
-1.050799966 1.774683714 -0.1767264754
-1.282595754 2.168749809 -0.04328017309
-1.295947909 2.181756973 0.04359431565
-1.068376303 1.800065994 0.1074991971
-1.295951486 2.185235977 0.2185612172
-1.288953424 2.174300432 0.3052173853
-1.281093955 2.162763357 0.3914505839
-1.081071258 1.825808525 0.4041962922
-1.113459826 1.882007122 0.4948889017
-1.289339542 2.18102169 0.6672875881
-1.279806614 2.170946121 -0.6636641026
-1.069292426 1.815299034 -0.4764429033
-1.189170003 2.019614697 -0.4473191202
-1.279679179 2.17506814 -0.3930149376
-1.279970169 2.177298784 -0.3049736619
-1.086981177 1.850494266 -0.1840475351
-1.277040839 2.176663876 -0.04334998131
-1.282233357 2.175930262 0.04338488355
-1.054992914 1.791736484 0.1067664847
-1.283645153 2.18093586 0.2176896632
-1.281356335 2.178786278 0.3052173853
-1.269532919 2.160409689 0.390199095
-1.089606404 1.854963541 0.4099205434
-1.104910254 1.88252151 0.49398911
-1.276831388 2.177177429 0.6646993756
-1.269890785 2.172286987 -0.6626288295
-1.105227113 1.891369224 -0.4957886934
-1.17185998 2.007005692 -0.4435029626
-1.276676059 2.188274384 -0.3945792615
-1.269361377 2.176609516 -0.3042424321
-1.086534262 1.864605904 -0.1850934178
-1.269435525 2.181107998 -0.04334998131
-1.267565012 2.168308496 0.04314055294
-1.056790709 1.809205174 0.1076038629
-1.276646614 2.187346935 0.2178639621
-1.265739918 2.169529676 0.3032674789
-1.258999944 2.159708261 0.3892605007
-1.090705872 1.872515917 0.4129734933
-1.098003507 1.886558294 0.49398911
-1.264367104 2.173271656 0.6621111631
-1.266177297 2.183390617 -0.6646993756
-1.097310781 1.893721104 -0.4953388572
-1.151070595 1.987300277 -0.4381602705
-1.263093352 2.182459116 -0.3927020431
-1.207713366 2.088450909 -0.2910805345
-1.095641017 1.896177769 -0.1878824085
-1.26043272 2.184014082 -0.04331507534
-1.26362133 2.179859877 0.04328017309
-1.041142821 1.797512293 0.1066618189
-1.268005848 2.190065622 0.2176896632
-1.249826789 2.160408258 0.3013175726
-1.256018043 2.172859669 0.3908248544
-1.104789019 1.912009597 0.4209874868
-1.086539149 1.881941557 0.4917396307
-1.258324265 2.181237698 0.6631464362
-1.260091782 2.191366673 -0.6657346487
-1.088751078 1.894160867 -0.4944390059
-1.160401583 2.020447493 -0.4446478188
-1.257051587 2.190500975 -0.3933278024
-1.24387598 2.168418169 -0.3018050492
-1.075145125 1.875790238 -0.1854420304
-1.249821305 2.18319416 -0.04321036115
-1.254010201 2.180790663 0.04321036115
-1.031877279 1.795939922 0.1063477993
-1.260961652 2.196426392 0.2178639621
-1.246230483 2.171644211 0.3022925258
-1.239582539 2.161807537 0.3880090117
-1.106557965 1.931377053 0.4244220257
-1.07769835 1.882528663 0.490839839
-1.252621055 2.188970566 0.6641817093
-1.243624091 2.178536892 -0.6605582833
-1.047705531 1.83682251 -0.4782425463
-1.1540488 2.024082661 -0.4446478188
-1.250163198 2.19443965 -0.3933278024
-1.242571115 2.182881832 -0.3032674789
-1.045598388 1.837598681 -0.1812585741
-1.234673262 2.173416615 -0.04293112084
-1.246771932 2.184936762 0.04321036115
-1.019980907 1.788941264 0.1057197675
-1.246163368 2.186528921 0.2164694667
-1.237058043 2.172314882 0.3018050492
-1.234360337 2.169340372 0.3886347413
-1.11892736 1.967267871 0.4316727817
-1.066963911 1.877433896 0.4885902405
-1.243448019 2.18975234 0.6631464362
-1.22744453 2.167735577 -0.6558995247
-1.010579467 1.78619349 -0.4638456702
-1.156640291 2.04518795 -0.4484639764
-1.238608599 2.191910744 -0.3920763135
-1.233967185 2.185477495 -0.3030237556
-1.021550775 1.81000483 -0.1781209707
-1.225115299 2.174229145 -0.04286131263
-1.231257915 2.17535305 0.04293112084
-1.019628763 1.802922249 0.1063477993
-1.233620167 2.182193518 0.2155979127
-1.083022237 1.917357326 0.2652442455
-1.228722692 2.17707634 0.3892605007
-1.108194113 1.964322209 0.430146277
-1.055619597 1.87265861 0.4863407314
-1.223471403 2.172198057 0.6564171314
-1.223654747 2.178744078 -0.6579700708
-1.070142627 1.906970978 -0.4948889017
-1.150455117 2.050924778 -0.4488455653
-1.22225821 2.180712223 -0.3892605007
-1.222451568 2.182843447 -0.3020488024
-1.011333942 1.806605339 -0.1774237007
-0.9691973329 1.732752919 -0.1018469036
-1.219469905 2.181982994 -0.04293112084
-1.221698761 2.176150799 0.04286131263
-1.016260982 1.811696053 0.1066618189
-1.225995898 2.186486244 0.2155979127
-0.9996725917 1.784312487 0.2459889054
-1.224975824 2.188246489 0.3905119598
-1.10612452 1.976744771 0.4320543706
-1.047174811 1.87293005 0.4854409397
-1.219650626 2.183201075 0.6584877372
-1.213222146 2.177938938 -0.6564171314
-1.062531233 1.90899241 -0.4944390059
-1.154743671 2.07551527 -0.45342502
-1.207112908 2.173214912 -0.300098896
-0.9992182255 1.799673438 -0.1763778329
-0.9825205803 1.771055937 -0.1039403453
-1.211845279 2.186226845 -0.04293112084
-1.21409452 2.180402279 0.04286131263
-1.000220895 1.797778964 0.1056151018
-1.215450644 2.185529232 0.2150750011
-0.9895815849 1.780850053 0.2450139225
-1.219247103 2.195963383 0.3911376894
-1.10302794 1.987460494 0.4335808754
-1.040630102 1.876574159 0.4854409397
-1.210149288 2.184065819 0.6574524045
-1.206546068 2.183851957 -0.6569347978
-1.059628725 1.919513822 -0.4962386489
-1.157924652 2.098442078 -0.4576227963
-1.190790176 2.159784079 -0.38394171
-1.197604299 2.173937321 -0.2996113896
-0.9775534868 1.775225759 -0.1735888571
-1.196500301 2.176424742 -0.04265188798
-1.205509901 2.182876348 0.04282641038
-0.9891141653 1.792516232 0.1050917432
-1.186644554 2.151376963 0.2112401277
-0.9843168855 1.7860322 0.2452576756
-1.201093435 2.181171656 0.3876961768
-1.108391404 2.01365757 0.438541919
-1.026560903 1.86653471 0.4818417132
-1.200657845 2.184890509 0.6564171314
-1.194273472 2.179579496 -0.6543466449
-1.049178958 1.916363239 -0.4944390059
-1.141167164 2.085249186 -0.4538066089
-1.203145266 2.200324774 -0.3905119598
-1.190008879 2.178104162 -0.2996113896
-0.9627557397 1.7628901 -0.1720200479
-1.184109092 2.17181015 -0.04247736186
-1.201725721 2.194086313 0.04296602681
-0.9809328914 1.792453885 0.1048823893
-1.128450394 2.062864542 0.2020016313
-0.9771239161 1.787715673 0.2450139225
-1.18684411 2.173215389 0.3855060637
-1.089125991 1.995112658 0.4335808754
-1.018172383 1.86668551 0.4809419215
-1.191175342 2.185675383 0.6553818583
-1.180201769 2.171853065 -0.6507231593
-1.032254338 1.901175857 -0.4894900918
-1.137627602 2.09612155 -0.4553331137
-1.188866258 2.192355633 -0.3883219063
-1.184289575 2.185736179 -0.300098896
-0.9575455189 1.767991781 -0.1721943617
-1.18165803 2.184518814 -0.04265188798
-1.184514284 2.180696011 0.04261698201
-0.9797489643 1.804472923 0.1054057479
-1.109841347 2.04577589 0.1999098957
-0.9680399895 1.785879612 0.2442827076
-1.174926162 2.168454885 0.38394171
-1.087763786 2.009261131 0.4358705878
-1.012577891 1.871942043 0.4813918471
-1.178407073 2.17941761 0.6522760391
-1.171697378 2.174258471 -0.650205493
-1.017626882 1.889147162 -0.4854409397
-0.9711965919 1.804461241 -0.3900764287
-1.176909447 2.187588215 -0.3867575526
-1.176095366 2.187902451 -0.2998551428
-0.9815359116 1.827490807 -0.1777723283
-1.170244694 2.181581259 -0.0425122641
-1.172533512 2.175810099 0.04244245589
-0.9762852192 1.81315732 0.1057197675
-0.9780907631 1.818032742 0.1769007742
-0.9564718008 1.778590202 0.2428202927
-1.165479183 2.169063091 0.3833159804
-1.077379346 2.00593853 0.4343441129
-1.001756787 1.866704345 0.479142338
-1.168967128 2.1801126 0.651240766
-1.164480209 2.178132296 -0.650205493
-0.9981713891 1.868624091 -0.479142338
-0.9328417778 1.747057557 -0.3767197728
-1.165547371 2.184711456 -0.3855060637
-1.161913991 2.179732561 -0.2981489599
-1.165439367 2.190949678 -0.04261698201
-1.162103295 2.174598932 0.0423377417
-0.9614831209 1.800698042 0.1047777236
-0.9739332795 1.824781537 0.1772494018
-0.9418501854 1.766153693 0.2406266183
-1.158830047 2.174861431 0.383628875
-1.085136652 2.037412405 0.4404500127
-0.986995697 1.854706645 0.4750932157
-1.163163185 2.187591314 0.6522760391
-1.154680371 2.178971291 -0.6491702199
-1.006237745 1.89964962 -0.4863407314
-0.9925548434 1.875400424 -0.4041962922
-1.160302877 2.194207191 -0.386444658
-1.151515603 2.178509712 -0.2974177599
-0.9892237782 1.873057961 -0.1816071868
-1.152187109 2.184391499 -0.04240754992
-1.030909657 1.945406437 0.03773030639
-0.953322947 1.80051291 0.1045683846
-0.9718974233 1.837144375 0.1781209707
-0.9347519279 1.767675877 0.2403829098
-1.142926335 2.163173676 0.3808130324
-1.077662349 2.041375637 0.4404500127
-0.979282558 1.856587887 0.4746433198
-1.155520439 2.191637993 0.6522760391
-1.142573833 2.174438477 -0.646582067
-0.9992688298 1.903324723 -0.4863407314
-1.103688598 2.10310936 -0.45342502
-1.154470801 2.201743364 -0.3870703876
-1.14260149 2.180957556 -0.2971740067
-0.9863762259 1.883559823 -0.182304427
-1.140847564 2.181312561 -0.04226793349
-0.9865781069 1.878358126 0.03633411601
-0.9451756477 1.800292611 0.1043590307
-0.9543717504 1.819353342 0.1760292053
-0.9347169995 1.783397675 0.2420890629
-1.136284709 2.168900251 0.3811258972
-1.066887498 2.038167715 0.4389235079
-0.9700859189 1.854814649 0.4732936025
-1.142492533 2.185386658 0.6491702199
-1.130514026 2.169847012 -0.6439938545
-0.991150856 1.90317142 -0.4854409397
-1.108121991 2.129589081 -0.458386004
-1.138960004 2.189786673 -0.3842546046
-1.134447932 2.182972908 -0.2969302833
-0.9669419527 1.862236023 -0.1798640788
-1.025007606 1.974907517 -0.1144075394
-1.131385803 2.181731224 -0.04219812527
-0.9831159711 1.886939287 0.03643882647
-0.9342739582 1.794723034 0.1038356721
-0.9415801167 1.81030035 0.1748090386
-0.9278825521 1.784726024 0.2418453246
-1.12870729 2.172853231 0.3811258972
-1.064646721 2.050405979 0.4408316016
-0.9648266435 1.859751463 0.4737434983
-1.131301403 2.182500601 0.6470996737
-1.122424722 2.171868086 -0.6434761882
-0.976455152 1.891035795 -0.4813918471
-1.104655147 2.140230894 -0.4599125087
-1.122254729 2.17619276 -0.3811258972
-1.129549265 2.192213297 -0.2976615131
-0.9461645484 1.83709228 -0.177075088
-0.9267207384 1.800881624 -0.1039403453
-1.125058651 2.187249422 -0.04223302752
-0.9774414897 1.892135859 0.03647373244
-0.9338158369 1.808459044 0.1044637039
-0.9419664741 1.825806856 0.1760292053
-0.9189178944 1.782660842 0.2411140949
-1.126924872 2.187119961 0.3830030859
-1.051192164 2.041891575 0.4381602705
-0.9565467238 1.85964191 0.4728437066
-1.124057293 2.186240435 0.6470996737
-1.11747992 2.180930376 -0.6450291276
-0.9284261465 1.812742829 -0.4602464437
-1.107015967 2.163298368 -0.4641103148
-1.118630648 2.186936855 -0.3823773563
-1.110528946 2.172968149 -0.2944929004
-0.9524315 1.865225673 -0.1795154363
-1.011541009 1.981838822 -0.1144075394
-1.110149622 2.176911592 -0.04195378721
-0.979368031 1.911384106 0.036787875
-0.921126008 1.799263358 0.1037310064
-0.9292358756 1.816667676 0.1748090386
-0.9148091674 1.789233208 0.2416016012
-1.117485523 2.187522173 0.3823773563
-1.046201348 2.048862934 0.4389235079
-0.9468325973 1.855860114 0.4710440934
-1.116419435 2.190150499 0.6470996737
-1.109366775 2.182901621 -0.6445114613
-0.9150340557 1.802072287 -0.4566472173
-1.091839552 2.151201248 -0.4606757462
-1.109202743 2.187304974 -0.3817516267
-1.102937579 2.176831245 -0.2944929004
-0.947715044 1.872094035 -0.1798640788
-0.9396904111 1.857046604 -0.1068711653
-0.9374334812 1.85419476 -0.03556620702
-0.9817471504 1.932619572 0.03713692725
-0.9139361382 1.800686359 0.1036263332
-0.9286153913 1.830399752 0.1758549064
-0.9157384634 1.806580305 0.2435515076
-1.103594899 2.179074287 0.3801873028
-1.040817022 2.056005478 0.4396867752
-0.9324321747 1.843503356 0.466994971
-1.108767986 2.1940341 0.6470996737
-1.097013354 2.178326368 -0.6419233084
-0.9691972136 1.925359488 -0.4876904488
-1.074243665 2.135895729 -0.4564779401
-1.102952719 2.194885492 -0.3823773563
-1.098004818 2.185989618 -0.2952241302
-0.9286625981 1.850460768 -0.1774237007
-0.9310867786 1.856907845 -0.1066618189
-0.929163754 1.853880048 -0.03549639881
-0.9812906384 1.948536992 0.03738125786
-0.9112354517 1.811002493 0.104045026
-0.9192152619 1.828450918 0.17533198
-0.9174480438 1.825729609 0.2457451522
-1.094209552 2.179382324 0.3795615733
-1.03679502 2.066826105 0.4412132204
-0.9230499864 1.841681719 0.4656452537
-1.099371433 2.194436789 0.6460644007
-1.085951805 2.175228357 -0.6398527622
-0.9586550593 1.921923518 -0.4858908653
-1.071161866 2.148416996 -0.458386004
-1.089119434 2.186344862 -0.3801873028
-1.085563302 2.18111372 -0.2940054238
-0.9221979976 1.853690982 -0.1774237007
-0.9228217006 1.85656929 -0.10645248
-0.920583427 1.853691578 -0.03542659059
-0.9687854052 1.941384554 0.03717182949
-0.9099390507 1.825054288 0.1046730503
-0.9119388461 1.829864979 0.1751576513
-0.9302156568 1.868173957 0.2511073947
-1.084455132 2.179840565 0.3789358437
-1.030447721 2.072190762 0.4415948689
-0.9270203114 1.865835428 0.4710440934
-1.082731843 2.181147337 0.6408880353
-1.07749474 2.177274704 -0.6393350959
-0.9458947182 1.913029909 -0.4827415645
-1.061046004 2.146863699 -0.4572412074
-1.077981949 2.183048964 -0.3789358437
-1.081455708 2.192010641 -0.294980377
-0.921889782 1.869407535 -0.1786438823
-0.9110384583 1.849030018 -0.1058244407
-0.9141076207 1.856893539 -0.03542659059
-0.9628890157 1.946547151 0.03720673546
-0.9168363214 1.855077624 0.1062431261
-0.9099576473 1.841968775 0.1760292053
-0.9122673869 1.848268628 0.2479388118
-1.079459786 2.188927889 0.3798744082
-1.020604491 2.070491791 0.4404500127
-0.9144752026 1.856822371 0.4678947926
-1.080228686 2.195314169 0.6439938545
-1.070739388 2.182756662 -0.6398527622
-0.92463094 1.886572242 -0.4750932157
-1.049227357 2.141738653 -0.4553331137
-1.067750335 2.181475639 -0.3779972196
-1.065077305 2.177939415 -0.292542994
-0.906609416 1.854713917 -0.1769007742
