# .PCD v0.7 - Point Cloud Data file format
VERSION 0.7
FIELDS x y z
SIZE 4 4 4
TYPE F F F
COUNT 1 1 1
WIDTH 1251
HEIGHT 1
VIEWPOINT 0 0 0 1 0 0 0
POINTS 1251
DATA ascii
8.814816475 1.060468554 1.399514437
8.849135399 1.06303072 1.724212885
8.136530876 0.9745458961 1.881937146
7.115646362 0.8497477174 1.90858376
8.699440956 1.028110266 -2.335634947
8.769311905 1.033259988 -2.028605223
8.795163155 1.034754038 -1.713146091
8.443194389 0.9903529882 -1.33975637
8.709424019 1.018503189 -1.071531892
8.71361351 1.017447352 -0.7638075948
8.885831833 1.034417152 -0.4666285217
8.881039619 1.030713201 -0.1553595215
8.894931793 1.049639702 0.1556387544
8.888529778 1.045738578 0.4668379128
8.879117966 1.043060303 0.7784497142
8.855145454 1.037106514 1.089568496
8.828273773 1.030835748 1.401078701
8.833292961 1.029859185 1.720396876
8.147626877 0.9470360875 1.883736849
7.118568897 0.8249091506 1.90858376
8.687674522 0.992908597 -2.008809566
8.677785873 0.9902441502 -1.689485908
8.532959938 0.9707006812 -1.353522658
8.801687241 0.9981589913 -1.082500219
8.814118385 0.9980107546 -0.7723488212
8.887404442 1.003167033 -0.4665238559
8.900481224 1.001496911 -0.1556387544
8.884634972 1.016989946 0.1553944349
8.904031754 1.016061664 0.4674659073
8.878746033 1.011606574 0.7781010866
8.838988304 1.003951669 1.087131262
8.829854965 0.9997925758 1.400765896
8.821227074 0.9972564578 1.717343926
8.162501335 0.9198969007 1.886436224
7.121404648 0.8000537753 1.90858376
8.621927261 0.9579611421 -2.312859058
8.315330505 0.9209618568 -1.921528578
8.800221443 0.9731069207 -1.712764502
8.793513298 0.9692625999 -1.394508481
8.862339973 0.9737182856 -1.089568496
8.853197098 0.9711500406 -0.7754864693
8.874969482 0.9704033732 -0.4656865001
8.891994476 0.969119966 -0.1554293334
8.890117645 0.9861927629 0.1554293334
8.889657974 0.9829966426 0.4665238559
8.882223129 0.9806096554 0.7781010866
8.828625679 0.9715692401 1.0854249
8.81758213 0.9672432542 1.398262978
8.809041023 0.9647462368 1.714290857
8.16178894 0.8909816146 1.885536551
7.137597084 0.7766548395 1.912207246
8.696286201 0.935506165 -2.332011461
8.731210709 0.9361804128 -2.017357588
8.804700851 0.9393976331 -1.395760059
8.838049889 0.939835906 -1.086156249
8.866440773 0.9412900209 -0.7763580084
8.87035656 0.9385749102 -0.4652678072
8.883390427 0.9368187189 -0.1552198976
8.889530182 0.9547250867 0.1553595215
8.879134178 0.9504737258 0.4657911658
8.877667427 0.9487497211 0.7774038911
8.828016281 0.9403269887 1.084937453
8.818941116 0.9362474084 1.397950053
8.808450699 0.9335791469 1.713527679
8.157096863 0.8616651893 1.883736849
7.144108295 0.752137959 1.913242579
8.701420784 0.9053465724 -2.332529306
8.742178917 0.9065029621 -2.01915741
8.835434914 0.9114975333 -1.400140166
8.847200394 0.9095862508 -1.08688736
8.851833344 0.9085057378 -0.7747891545
8.869606018 0.9071971178 -0.4650584757
8.876502991 0.9063414931 -0.1550453901
8.884851456 0.9228602052 0.1552198976
8.874289513 0.9202019572 0.465372473
8.872997284 0.9169334769 0.776706636
8.825320244 0.9088975787 1.084206343
8.798418045 0.9045708179 1.394195676
8.799938202 0.9016275406 1.711237907
8.16781044 0.8339799047 1.885536551
7.152328968 0.729028821 1.914795518
8.666083336 0.8711049557 -2.322176695
8.750953674 0.8780891299 -2.020507097
8.761091232 0.876021862 -1.703224063
8.838315964 0.8790658116 -1.0854249
8.847021103 0.8768131733 -0.774091959
8.868591309 0.8773880005 -0.4648491442
8.871651649 0.874563992 -0.1549057662
8.858017921 0.8903980255 0.1546963304
8.86950016 0.8884207606 0.46495381
8.856318474 0.8839783072 0.7749634385
8.822360039 0.8790338039 1.083474994
8.803486824 0.8740501404 1.394508481
8.787250519 0.8708894253 1.708185077
8.174408913 0.8072705865 1.886436224
7.137526512 0.7023568749 1.9101367
8.684308052 0.8438547254 -2.326317549
8.730689049 0.8452855349 -2.015108109
8.763948441 0.8469617963 -1.703224063
8.78637886 0.8460341692 -1.391379833
8.827498436 0.8468837738 -1.083718777
8.84177494 0.8435819149 -0.4632790387
8.819275856 0.8554158807 0.1539633423
8.882486343 0.8584174514 0.4654771686
8.851269722 0.8538414836 0.774266243
8.807591438 0.8465253115 1.081281424
8.79665184 0.8423710465 1.392944098
8.786328316 0.83983922 1.707421899
8.181056976 0.7790989876 1.887336016
7.13416481 0.6768921018 1.90858376
8.667965889 0.8117320538 -2.321141243
8.71224308 0.812815249 -2.010159254
8.435230255 0.7825164795 -1.335063338
8.777043343 0.8064972162 -0.4597201943
8.803860664 0.805862546 -0.1536142826
8.575321198 0.801546514 0.1496351361
8.859576225 0.8249968886 0.4641164243
8.85022831 0.8225684762 0.773917675
8.784796715 0.8133943081 1.078112841
8.791670799 0.8109402061 1.391692758
8.781386375 0.8084417582 1.705895305
8.19148922 0.7512545586 1.889135718
7.14802742 0.6530376673 1.911689639
8.604394913 0.7724643946 -1.984514832
8.420203209 0.7514846325 -1.332247615
8.807491302 0.7829506397 -1.080550194
8.841480255 0.781306684 -0.4629650414
8.844331741 0.7800030112 -0.1542774737
8.862874031 0.7972288132 0.1546265334
8.846348763 0.7941859961 0.4632790387
8.853045464 0.7916722894 0.773917675
8.781650543 0.7821939588 1.077381611
8.784473419 0.7809044123 1.390128374
8.776331902 0.7770890594 1.70436883
8.190178871 0.7223117352 1.888235927
7.186717987 0.6325466633 1.921524763
8.665722847 0.7505359054 -2.319070816
8.700100899 0.7519794106 -2.006110191
8.390912056 0.7223086357 -1.628808498
8.761166573 0.7526364326 -1.386061072
8.812017441 0.7539106607 -1.080793977
8.820550919 0.7515352964 -0.7707800269
8.848003387 0.7523232102 -0.4631743729
8.848993301 0.7492921948 -0.1543123722
8.853515625 0.7668005228 0.1544170976
8.839118004 0.762445271 0.4627557099
8.839874268 0.7593979239 0.7725231051
8.782217026 0.7529008389 1.077137828
8.773368835 0.7490575314 1.387938261
8.778860092 0.7479831576 1.70436883
8.204179764 0.6961344481 1.890935183
7.206206322 0.6089253426 1.926183462
7.788352489 0.6485313773 -2.082509995
7.797665119 0.6465700865 -1.79645586
7.849335194 0.6494714022 -1.522718668
8.816573143 0.7233062983 -1.08103776
8.80524826 0.7192831635 -0.7692111731
8.84261322 0.7207818627 -0.4627557099
8.845576286 0.717915535 -0.1542076617
8.854146004 0.7357233763 0.154382199
8.847697258 0.7320780754 0.4630697072
8.826458931 0.7287698984 0.7711286545
8.765008926 0.720615983 1.074700475
8.768054008 0.7177895308 1.386686802
8.765764236 0.7160577774 1.70131588
8.212386131 0.6679640412 1.892284989
7.148596287 0.5789312124 1.9101367
7.767567635 0.6181439757 -2.076298237
7.794046402 0.6188822985 -1.795106053
8.222805023 0.6471475363 -1.299709201
8.807169914 0.6915957332 -1.0795753
8.827273369 0.6869744658 -0.4618136287
8.840052605 0.6864126921 -0.1540680379
8.838718414 0.7033862472 0.1540680379
8.842233658 0.7005559802 0.4626509845
8.829071045 0.6964163184 0.7711286545
8.761533737 0.6895463467 1.073969245
8.76656723 0.686868012 1.386061072
8.752672195 0.6827055216 1.69826293
8.220607758 0.6383140087 1.893634558
7.156351566 0.5544235706 1.911689639
8.207860947 0.6142717004 -1.00547874
8.229891777 0.6144801378 -0.7183122635
8.819658279 0.6554148793 -0.4612902403
8.834418297 0.6549614668 -0.1539284289
8.837249756 0.670681119 0.1539982408
8.838651657 0.6692403555 0.4623369873
8.819527626 0.6646921039 0.7700827718
8.742227554 0.6557976604 1.071288228
8.77285099 0.656555295 1.386686802
8.751086235 0.6518548131 1.697499752
8.228616714 0.6100488901 1.894984365
7.212188244 0.5334278345 1.926183462
5.447242737 0.3923732638 -1.053328514
8.215792656 0.587472558 -1.00620985
8.249873161 0.5870191455 -0.7198810577
8.809831619 0.6253134608 -0.4606622756
8.832660675 0.6238396168 -0.1538586169
8.839426041 0.6413697004 0.1539982408
8.819020271 0.6367989779 0.4611855745
8.825768471 0.6341896653 0.7704313397
8.728512764 0.6256700754 1.069338202
8.757357597 0.6246652603 1.383870959
8.749282837 0.6225546002 1.696736455
8.220874786 0.5820719004 1.892734885
8.225716591 0.5593309402 -1.007184863
8.243823051 0.5591168404 -0.7191838622
8.81196022 0.5945594907 -0.4606622756
8.80674839 0.5926638246 -0.1533699483
8.841609955 0.6105164886 0.1539982408
8.811121941 0.606861949 0.4606622756
8.823847771 0.6046481729 0.7700827718
8.714800835 0.5941155553 1.067388296
8.747555733 0.5948148966 1.381993771
8.759238243 0.5925378203 1.69826293
8.23452282 0.5541550517 1.89543426
7.39298296 0.4962262511 1.973806143
5.431410789 0.3559943736 -1.246675372
8.752822876 0.5706236362 -1.696736455
8.144118309 0.5295129418 -1.285942912
8.235448837 0.5325644016 -1.008159757
8.243737221 0.5302109718 -0.7190095186
8.821855545 0.5658477545 -0.4610809088
8.808763504 0.5619165897 -0.1533699483
8.823633194 0.5798795223 0.153649196
8.815179825 0.5762338042 0.4607669413
8.802044868 0.5722898841 0.7679910064
8.710780144 0.5648294687 1.066657186
8.725922585 0.5627527833 1.378239274
8.741562843 0.5622295737 1.694446921
8.251873016 0.527842164 1.899033427
7.398525715 0.4706637561 1.974841475
8.717531204 0.5377680659 -1.689485908
8.10254097 0.4984149635 -1.279059887
8.249146461 0.5045390725 -1.009622216
8.253491402 0.5019132495 -0.7197067142
8.80792141 0.5325478911 -0.4602435529
8.810671806 0.5311666727 -0.1533699483
8.799656868 0.5474591851 0.1531954408
8.815143585 0.5453339815 0.4606622756
8.795941353 0.5426050425 0.7672938108
8.700809479 0.533688128 1.065194726
8.719947815 0.5318111777 1.376987934
8.735725403 0.5297088027 1.692920327
8.261445999 0.499506712 1.90083313
7.415550709 0.4457605481 1.978982449
8.035290718 0.4647203386 -1.26810956
8.239048004 0.4736192524 -1.008159757
8.263232231 0.4721157551 -0.7204040289
8.783891678 0.4987874031 -0.4588828087
8.804574013 0.4984203279 -0.1532303393
8.803601265 0.51532197 0.1532303393
8.805119514 0.5123270154 0.4600342214
8.801848412 0.5105953813 0.7676424384
8.684871674 0.5007680058 1.063001037
8.725782394 0.5000711679 1.377613664
8.725847244 0.4970192313 1.690630674
8.259331703 0.4690006375 1.899933338
7.469212055 0.4215188026 1.992958903
8.60949707 0.4677839279 -1.66773355
7.96395731 0.4313117266 -1.256533265
8.262534142 0.4445935488 -1.010841012
8.268886566 0.4420369267 -0.7207525969
8.781671524 0.4663754106 -0.458673507
8.792363167 0.4654044509 -0.1529860049
8.801436424 0.4828344882 0.1531605124
8.798960686 0.479614079 0.4596155286
8.803660393 0.478333503 0.7676424384
8.67475605 0.4682887495 1.061538696
8.71572113 0.467449218 1.375736356
8.727610588 0.4650360048 1.690630674
8.260994911 0.4387233853 1.899933338
7.434052467 0.3922077715 1.98312366
7.748427868 0.3925192952 -1.499821663
7.815546989 0.3945519328 -1.232755303
8.254195213 0.4138078392 -1.009622216
8.276421547 0.4120259881 -0.721275568
8.787311554 0.4343850017 -0.4588828087
8.778030396 0.432390511 -0.1527067572
8.807141304 0.450778842 0.1532303393
8.788691521 0.4467546642 0.4589874744
8.78943634 0.4452546239 0.7662479281
8.66848278 0.4360939562 1.060563684
8.701593399 0.4347147942 1.373233438
8.725335121 0.4328477979 1.689867496
8.276170731 0.4091176987 1.903082728
7.381412983 0.3623007238 1.968629718
5.358936787 0.2574070692 -1.228679299
7.757338047 0.3712568283 -1.501348138
7.743677139 0.3678902984 -1.221179128
8.263318062 0.389690876 -1.010597229
8.28151989 0.3890967667 -0.7216241956
8.782505035 0.4095669389 -0.4585688412
8.775280952 0.4061562121 -0.1526369452
8.790462494 0.423776269 0.1529161781
8.785987854 0.420486778 0.4587781727
8.770816803 0.4182265103 0.7645047903
8.671721458 0.4104676247 1.060807347
8.718629837 0.4096338451 1.375736356
8.718665123 0.4081146717 1.688340902
8.283187866 0.3848288655 1.904432297
5.367589474 0.2390498072 -1.230478883
4.102675915 0.1819965094 -0.7900120616
4.111762047 0.180963546 -0.6451873779
8.767917633 0.3782168031 -0.4577314258
8.776644707 0.3755241334 -0.1526369452
8.779902458 0.3925509751 0.1527067572
8.783412933 0.3896360397 0.4585688412
8.768242836 0.3874298334 0.7641561627
8.653269768 0.3793234825 1.058369994
8.696324348 0.3781737685 1.371981978
8.704345703 0.3769964576 1.685287952
8.288374901 0.3560857773 1.905332088
7.426061153 0.3164387047 1.980017781
4.057992458 0.1665337682 -0.9276947975
4.083670139 0.1668717116 -0.7861958742
4.09263134 0.1658089757 -0.6420586705
4.136203766 0.1661282033 -0.5031331778
4.131257534 0.1644832641 -0.3580103815
8.755214691 0.3470568359 -0.4569987059
8.781897545 0.3450402915 -0.1527067572
8.773228645 0.3615735471 0.1525671482
8.772745132 0.3584822118 0.4579407871
8.765561104 0.3566604555 0.7638075948
8.644623756 0.348713249 1.057151318
8.69364357 0.3476554453 1.371356249
8.705609322 0.3466080129 1.685287952
8.2934618 0.3273033202 1.906231999
7.456076622 0.2916491628 1.987782478
4.052706718 0.1521473229 -0.9263451099
4.097987175 0.1524148732 -0.7888671756
4.11689949 0.1516812742 -0.6458130479
8.274879456 0.3034260571 -1.011572123
8.287183762 0.3009847403 -0.7217984796
8.746449471 0.3146038651 -0.4564754069
8.767061234 0.3138174415 -0.1524275243
8.772438049 0.3308693469 0.1525322348
8.761968613 0.3274159729 0.4573127627
8.766809464 0.3245284557 0.7638075948
8.639836311 0.3183224201 1.056420088
8.686907768 0.3170163631 1.370104671
8.702897072 0.3145581484 1.684524775
8.279025078 0.2963481545 1.902632594
7.451257229 0.2654125392 1.986229539
7.652444839 0.2592074275 -1.75776422
7.72453022 0.2602995038 -1.494097352
7.696772575 0.2566746175 -1.213044524
8.262048721 0.2726386189 -1.009865999
8.755477905 0.2843322754 -0.4568940401
8.752163887 0.2811623514 -0.1521482766
8.771593094 0.2986483872 0.1524973363
8.755124092 0.2950282395 0.4568940401
8.759922981 0.2936594486 0.7631103396
8.648881912 0.2869106829 1.057395101
8.674190521 0.2847234011 1.367914677
8.703942299 0.2841751575 1.684524775
8.278061867 0.2673820555 1.902182698
7.429009438 0.2373618484 1.980017781
7.663041592 0.2327913046 -1.7600137
7.709692955 0.2328617424 -1.491044402
7.691698074 0.2296310663 -1.21210587
8.28874588 0.2445559204 -1.013034582
8.293065071 0.2432387471 -0.7221471071
8.752425194 0.2536501884 -0.4566847086
8.753090858 0.2506159246 -0.1521482766
8.760590553 0.2676592767 0.1522879153
8.760092735 0.2645877898 0.4571033716
8.736996651 0.2623598576 0.7610185742
8.649830818 0.2567246258 1.057395101
8.681056023 0.2546186745 1.368853331
8.689180374 0.2533392012 1.681471705
8.280892372 0.2385384887 1.902632594
7.41241312 0.2109317929 1.975359082
7.634587765 0.2052532732 -1.753265262
7.704571724 0.2057891637 -1.489899516
7.670731544 0.2022059858 -1.208664417
8.287564278 0.2155714184 -1.012790799
8.301831245 0.2144927084 -0.7228443623
8.741276741 0.2227934748 -0.4560566843
8.749876976 0.2214846313 -0.1520784795
8.749477386 0.2367547899 0.1520784795
8.760922432 0.2355343848 0.4571033716
8.729893684 0.2316509038 0.7603213787
8.620907784 0.2257477492 1.053738952
8.681853294 0.2258274406 1.368853331
8.674310684 0.2226015329 1.678418875
8.293364525 0.2099289745 1.905332088
7.413071632 0.1863516718 1.975359082
7.63522625 0.1799364686 -1.753265262
7.705242634 0.1788955629 -1.489899516
7.669384956 0.1767238379 -1.208351493
8.282279968 0.187954247 -1.012059689
8.306512833 0.1855994016 -0.7231929898
8.722000122 0.193364203 -0.4550099373
8.750597 0.1909381747 -0.1520784795
8.738219261 0.2074561417 0.1518690437
8.74971199 0.204669103 0.4564754069
8.730648994 0.2011782974 0.7603213787
8.611685753 0.1969292462 1.052520275
8.684562683 0.1955670416 1.369166136
8.663225174 0.1935697198 1.676129103
8.290117264 0.1823419631 1.904432297
7.288136005 0.1577581912 1.941712499
7.635807991 0.1532814205 -1.753265262
7.699904919 0.153223753 -1.488754749
7.669955254 0.1499495804 -1.208351493
8.274947166 0.1588879079 -1.011084676
8.317070961 0.1567926407 -0.7240645289
8.726615906 0.162989825 -0.4552193284
8.743211746 0.1602469832 -0.1519388556
8.742888451 0.1770314425 0.1519388556
8.73239994 0.1737698317 0.4555333257
8.739234924 0.17238006 0.7610185742
8.616290092 0.1669463664 1.053007722
8.673342705 0.1650232971 1.367288947
8.6677742 0.1634040773 1.676892519
8.27511692 0.1531123519 1.90083313
7.412260532 0.1345590502 1.974841475
7.644090176 0.1267573833 -1.755064845
7.684710979 0.1247479394 -1.485701799
7.674403191 0.1219012216 -1.208977222
8.277435303 0.1300309449 -1.01132834
8.307605743 0.1276044846 -0.7231929898
8.72315979 0.1309460551 -0.4550099373
8.723724365 0.1294275522 -0.1515898108
8.739454269 0.1464468092 0.1518690437
8.722969055 0.1431250274 0.4550099373
8.71988678 0.1400300264 0.759275496
8.60888195 0.1367446035 1.052032828
8.658065796 0.1345030367 1.364786029
8.664388657 0.1315721571 1.676129103
8.279520035 0.1228372008 1.901732922
7.424275398 0.1088525727 1.977947354
7.667886734 0.09904326499 -1.760463595
7.689025402 0.09797051549 -1.486464977
7.666881561 0.09501551092 -1.207725763
8.281809807 0.1011867747 -1.011815906
8.298039436 0.09849222004 -0.7223213911
8.715576172 0.1004014015 -0.4545912743
8.716124535 0.09888636321 -0.151450187
8.735934258 0.1143595576 0.1517992467
8.727410316 0.1127287447 0.4552193284
8.708369255 0.1094385386 0.7582296133
8.611310005 0.105212599 1.052276492
8.648605347 0.1041586772 1.363221645
8.653017044 0.1011910811 1.673839331
8.287675858 0.0954720974 1.903532505
7.411087513 0.08278686553 1.974323869
7.687659264 0.07380003482 -1.764962673
7.695197582 0.0725292936 -1.487609863
7.665178776 0.06957063824 -1.207412839
8.71586132 0.07149653882 -0.4545912743
8.724403381 0.07004807889 -0.1515898108
8.714269638 0.08517626673 0.1514152884
8.723741531 0.08374621719 0.4550099373
8.708683968 0.08055753261 0.7582296133
8.591760635 0.07648090273 1.049839139
8.648903847 0.07547589391 1.363221645
8.637598991 0.07236623764 1.6707865
8.301587105 0.0680982396 1.906681895
7.409389496 0.05819666758 1.973806143
7.699322701 0.04703255743 -1.48837316
7.66734314 0.04416451976 -1.207725763
8.147314072 0.04550337419 -0.995241642
8.171000481 0.04278742895 -0.7111654878
8.692083359 0.04247793555 -0.4533352256
8.722587585 0.04110884294 -0.1515548974
8.714503288 0.05627582967 0.1514152884
8.713985443 0.0547557883 0.4544866085
8.70093441 0.05163250118 0.7575323582
8.578072548 0.04790919274 1.048132896
8.645154953 0.04677503929 1.362595916
8.633865356 0.0437002629 1.670023322
8.297869682 0.04055142403 1.905781865
7.411473751 0.0336326398 1.974323869
7.703362465 0.02151293121 -1.489136338
7.68522501 0.01877977327 -1.210541487
8.133523941 0.01845575683 -0.993535459
8.163126945 0.01567361876 -0.7104682326
8.692176819 0.01365130767 -0.4533352256
8.704678535 0.01215592772 -0.1512407511
8.720641136 0.02740193158 0.1515199989
8.702135086 0.02582089975 0.4538585842
8.705042839 0.02278690413 0.7578809857
8.574213982 0.01945572346 1.04764545
8.643286705 0.01809987985 1.362282991
8.633962631 0.01507082116 1.670023322
8.294060707 0.01302605588 1.904882193
7.4038167 0.00904716365 1.972253203
1.057689667 -0.0005538050318 -0.2718120217
7.87290144 -0.01099265087 -1.240264058
8.129562378 -0.01418877579 -0.9930480123
8.157150269 -0.01566062309 -0.7099453211
8.696159363 -0.01973099262 -0.4535445571
8.694658279 -0.02276261151 -0.1510662287
8.714683533 -0.006083997432 0.1514152884
8.700171471 -0.009110800922 0.4537539184
8.701080322 -0.01063038036 0.7575323582
8.56826973 -0.01345901657 1.04691422
8.62156105 -0.01655223034 1.358841538
8.633956909 -0.01808294281 1.670023322
8.297944069 -0.02027574368 1.905781865
7.345842361 -0.0192314107 1.956724048
1.005521774 -0.004036444239 -0.2578358352
8.137403488 -0.04260773212 -0.9940229058
8.143099785 -0.04405884072 -0.7087251544
8.696037292 -0.05008612946 -0.4535445571
8.690526962 -0.05308806524 -0.1509964317
8.706609726 -0.03647037223 0.1512756646
8.702083588 -0.03948907182 0.4538585842
8.681067467 -0.04090886936 0.7557892799
8.574126244 -0.04339792207 1.04764545
8.621459007 -0.04514226317 1.358841538
8.622061729 -0.04815517738 1.66773355
8.30366993 -0.04927554727 1.907131791
1.055728316 -0.007923300378 -0.271294415
8.598359108 -0.06903352588 -1.663154125
8.145145416 -0.07108160108 -0.9949979782
8.144887924 -0.07250102609 -0.7088994384
8.687821388 -0.08036676049 -0.4531258941
8.688302994 -0.08188775182 -0.1509615183
8.694431305 -0.06676974893 0.1510662287
8.695913315 -0.06829893589 0.4535445571
8.672902107 -0.07114581764 0.7550919652
8.563996315 -0.07324205339 1.046426773
8.621249199 -0.07523649931 1.358841538
8.613987923 -0.07818021625 1.666207075
8.317087173 -0.07838901132 1.910281062
7.401549816 -0.07105196267 1.971735597
1.055694222 -0.01160843112 -0.271294415
8.594140053 -0.0990017578 -1.662390947
7.971133232 -0.09321632981 -1.255907655
8.132954597 -0.09794805944 -0.993535459
8.154547691 -0.1010549888 -0.7097710371
8.667534828 -0.1089251861 -0.4520791471
8.697962761 -0.1123442277 -0.1511360556
8.682165146 -0.09546923637 0.1508567929
8.681641579 -0.09849432111 0.4528118372
8.676585197 -0.1014660522 0.7554405928
8.549812317 -0.1014759913 1.04472065
8.620933533 -0.105329819 1.358841538
8.609755516 -0.1066961437 1.665443897
8.312884331 -0.1059193909 1.90938127
7.407051563 -0.09696362168 1.973288536
7.947057247 -0.12068028 -1.252153158
8.12065506 -0.1261517704 -0.9920730591
8.160142899 -0.1281897575 -0.7102939487
8.671096802 -0.1392440051 -0.4522884786
8.681521416 -0.1424426436 -0.1508567929
8.681778908 -0.125775069 0.1508567929
8.67125988 -0.1286501735 0.4522884786
8.680186272 -0.1302979141 0.7557892799
8.549406052 -0.1313197762 1.04472065
8.616562843 -0.135359779 1.35821569
8.613256454 -0.1368115246 1.666207075
8.300772667 -0.1347463429 1.906681895
7.393147469 -0.1225942597 1.969665051
0.9860550165 -0.01755595766 -0.25265944
8.573637962 -0.1571377069 -1.6585747
7.970288277 -0.1488626152 -1.255907655
8.118180275 -0.1544596255 -0.9918293357
8.147693634 -0.15644373 -0.7092480659
8.670557976 -0.1695109457 -0.4522884786
8.660978317 -0.1723480821 -0.150507763
8.681286812 -0.1560793519 0.1508567929
8.672756195 -0.1589543372 0.4523931742
8.671710014 -0.1604491621 0.7550919652
8.544926643 -0.1610871553 1.044233203
8.598262787 -0.1650950909 1.355399847
8.604875565 -0.1667244285 1.664680719
8.304148674 -0.1637974977 1.907581568
7.379154205 -0.1481290162 1.966041565
0.9319081306 -0.01984613575 -0.2381655723
8.574998856 -0.1871071458 -1.658956289
7.969720364 -0.1766832024 -1.255907655
8.121560097 -0.1828857809 -0.9923167825
8.139130592 -0.1847026944 -0.7085508108
8.665919304 -0.1996837705 -0.4520791471
8.664322853 -0.2026730031 -0.1505775601
8.680688858 -0.1863817573 0.1508567929
8.674144745 -0.1892705113 0.4524978399
8.667113304 -0.1906304955 0.7547433972
8.552249908 -0.1910908669 1.045208097
8.597634315 -0.195107609 1.355399847
8.60031414 -0.196670264 1.663917303
8.309371948 -0.1929190904 1.908931375
7.378592014 -0.173886165 1.966041565
0.9588708282 -0.02376920916 -0.2454124987
8.57036972 -0.2169390023 -1.658193111
8.120872498 -0.211234197 -0.9923167825
8.13445282 -0.2130081654 -0.7082021832
8.653190613 -0.2296144068 -0.451451093
8.669559479 -0.2330771685 -0.1506822854
8.659995079 -0.2161828578 0.150507763
8.673431396 -0.2195477784 0.4524978399
8.654444695 -0.2205786258 0.7536975145
8.539624214 -0.2206350118 1.043745637
8.59690094 -0.2251177877 1.355399847
8.583875656 -0.2262758911 1.660864353
8.320335388 -0.2222351879 1.91163063
7.403044701 -0.2003204972 1.972770929
0.9317468405 -0.02635154501 -0.2381655723
8.557785034 -0.2465146482 -1.655903339
8.120085716 -0.2395800352 -0.9923167825
8.141626358 -0.2416378111 -0.7088994384
8.640357971 -0.2594585717 -0.4508230686
8.666694641 -0.2632774413 -0.1506473869
8.655190468 -0.2462968081 0.1504379511
8.658637047 -0.2494197935 0.4517651498
8.64963913 -0.2506715059 0.753348887
8.52491188 -0.2500351071 1.042039514
8.592114449 -0.2550079823 1.354774237
8.583033562 -0.2562378347 1.660864353
8.323405266 -0.2513949275 1.912530541
7.369474411 -0.2251578271 1.963971138
0.9586815238 -0.03046275675 -0.2454124987
8.105312347 -0.2674646974 -0.9906105995
8.142724037 -0.2701219916 -0.709073782
8.631415367 -0.2893498242 -0.4504044056
8.653731346 -0.2931220531 -0.1504379511
8.654277802 -0.2765075564 0.1504379511
8.6437397 -0.279191196 0.4510324597
8.652693748 -0.2809921801 0.7536975145
8.522003174 -0.2797259986 1.041795731
8.579325676 -0.2846055627 1.352896929
8.582087517 -0.2861966491 1.660864353
8.30689621 -0.2799224555 1.908931375
1.004904985 -0.03544326872 -0.2578358352
7.61605835 -0.2726131976 -1.473108411
7.603243351 -0.2748119533 -1.198339581
8.098378181 -0.2955387235 -0.9898794293
8.133767128 -0.2982516885 -0.7083764672
8.634345055 -0.3196250796 -0.4506137371
8.632727623 -0.3210740089 -0.1500889063
8.657256126 -0.3068565726 0.150507763
8.636778831 -0.3076400459 0.4507184029
8.639713287 -0.3107643127 0.7526516318
8.522958755 -0.3095436692 1.042039514
8.574386597 -0.3129099607 1.352271318
8.581035614 -0.3161520064 1.660864353
8.301972389 -0.3087723255 1.908031464
7.43340826 -0.2777673006 1.981570721
0.9314198494 -0.0361071527 -0.2381655723
7.615060329 -0.2991965413 -1.473108411
7.602290154 -0.3000237048 -1.198339581
8.109254837 -0.322866112 -0.9913418889
8.130685806 -0.3265620768 -0.7082021832
8.637228012 -0.3484168053 -0.4508230686
8.631554604 -0.3512058854 -0.1500889063
8.644202232 -0.3350986242 0.1502983272
8.637647629 -0.3378642201 0.4508230686
8.630612373 -0.3406063616 0.7519543767
8.517918587 -0.3376478851 1.041552067
8.571267128 -0.3427593112 1.351958275
8.568169594 -0.3441332579 1.6585747
8.312585831 -0.3367742896 1.910730958
7.513463497 -0.3070258796 2.003311396
0.99691993 -0.04195762426 -0.2557652891
7.602257729 -0.3239458799 -1.470818639
7.601196766 -0.3265587986 -1.198339581
8.116010666 -0.3515142798 -0.9923167825
8.133477211 -0.3551152647 -0.7085508108
8.627978325 -0.3782143891 -0.4504044056
8.634271622 -0.3815100491 -0.1501587033
8.630991936 -0.3647638559 0.1500889063
8.640406609 -0.368183285 0.4510324597
8.625454903 -0.3690542877 0.7516057491
8.516688347 -0.3673789203 1.041552067
8.564099312 -0.3724191189 1.35101974
8.551225662 -0.3733545542 1.65552175
8.319148064 -0.3661313653 1.912530541
7.5007658 -0.3327371776 2.000205517
0.958162725 -0.04384507239 -0.2454124987
7.581407547 -0.3508996069 -1.467002511
7.556538105 -0.352391988 -1.191456556
8.10680294 -0.3794710338 -0.9913418889
8.132187843 -0.3835042715 -0.7085508108
8.610572815 -0.4090767205 -0.4495669901
8.63288784 -0.4116469622 -0.1501587033
8.625671387 -0.3947066665 0.1500190943
8.633083344 -0.3980656564 0.4507184029
8.620063782 -0.400480777 0.7512571812
8.497508049 -0.3962731957 1.039358377
8.564720154 -0.4024038315 1.351332545
8.549799919 -0.4046938717 1.65552175
8.313856125 -0.3964343965 1.91163063
7.486051559 -0.358271271 1.996582389
7.505625248 -0.3736521304 -1.452500939
7.547370911 -0.3783714473 -1.190205097
8.097426414 -0.4087810516 -0.9903668761
8.140748978 -0.4123925567 -0.7094223499
8.609092712 -0.4391306937 -0.4495669901
8.619415283 -0.4411655664 -0.1499492675
8.624167442 -0.4263186753 0.1500190943
8.613688469 -0.427307725 0.4497763813
8.622592926 -0.4307667613 0.7516057491
8.494016647 -0.4273157418 1.039114714
8.559318542 -0.4320986271 1.350706935
8.556178093 -0.4349344075 1.657048345
8.304637909 -0.4250543416 1.909831166
7.500189781 -0.3851929307 2.000723124
0.9578332901 -0.05053318664 -0.2454124987
7.49447298 -0.3993270993 -1.450592875
7.534239292 -0.402764678 -1.188327909
8.090080261 -0.4353109002 -0.9896357059
8.127323151 -0.4401600659 -0.7083764672
8.607589722 -0.4676770568 -0.4495669901
8.609836578 -0.4708135128 -0.1498096585
8.626699448 -0.4551257491 0.1500889063
8.616132736 -0.4575843215 0.4499857128
8.617058754 -0.4606499374 0.7512571812
8.496516228 -0.4556932151 1.03960216
8.541976929 -0.461121738 1.348204017
8.550766945 -0.4630929828 1.656284928
8.310965538 -0.4530153871 1.91163063
7.467936039 -0.4096780419 1.992441058
0.9576604962 -0.05370920151 -0.2454124987
7.524898052 -0.428612262 -1.187076449
8.576044083 -0.4914881289 -1.049595356
8.579335213 -0.4931789935 -0.7481195331
8.605903625 -0.4977203608 -0.4495669901
8.608140945 -0.5008645654 -0.1498096585
8.617072105 -0.4847865105 0.1499492675
8.612488747 -0.4875445664 0.449881047
8.603547096 -0.4885447919 0.7502112985
8.49091053 -0.4851223528 1.039114714
8.540315628 -0.4909359813 1.348204017
8.545178413 -0.4927119017 1.65552175
8.313224792 -0.4822491109 1.912530541
7.354603291 -0.4292155206 1.962418199
0.9806082845 -0.05843062326 -0.251624167
7.552331924 -0.453982532 -1.462423086
7.517440796 -0.4545188248 -1.186137795
8.582202911 -0.521903038 -1.050570369
8.577561378 -0.5231234431 -0.7481195331
8.596141815 -0.5272684693 -0.4491483271
8.602348328 -0.5306632519 -0.1497398615
8.603350639 -0.5141469836 0.1497398615
8.612728119 -0.5177246332 0.4499857128
8.593833923 -0.518094182 0.7495139837
8.485201836 -0.5145179033 1.038627148
8.522776604 -0.5197822452 1.34570086
8.53164959 -0.5218180418 1.653232098
8.323161125 -0.5119825602 1.915230036
7.495744705 -0.4637122154 2.000723124
0.9572621584 -0.06039356813 -0.2454124987
7.535027027 -0.4793452024 -1.459370136
7.513837337 -0.480630666 -1.185824871
8.578443527 -0.5502327681 -1.050326705
8.579659462 -0.5533179641 -0.748468101
8.582289696 -0.5564959645 -0.4485203028
8.612513542 -0.5599652529 -0.1499492675
8.597511292 -0.5439226031 0.1496700346
8.60299015 -0.5457767248 0.4495669901
8.591973305 -0.548089087 0.7495139837
8.47741127 -0.5437523723 1.037895918
8.544661522 -0.5495633483 1.349455357
8.52977562 -0.5515958071 1.653232098
8.321417809 -0.5395803452 1.915230036
7.501876831 -0.489069134 2.002793789
1.003319263 -0.06664039195 -0.2578358352
7.521643162 -0.5035428405 -1.457080364
7.535852909 -0.5071365237 -1.189579368
8.568650246 -0.5781424046 -1.049351692
8.569826126 -0.5812268853 -0.7477709055
8.576413155 -0.5846811533 -0.4483109713
8.590659142 -0.58715868 -0.1496002376
8.603642464 -0.5729615688 0.1498096585
8.585190773 -0.5732377768 0.4487296343
8.598060608 -0.5771118402 0.7502112985
8.471600533 -0.5715942979 1.037408471
8.511258125 -0.5757622719 1.34444952
8.531817436 -0.5801448822 1.653995275
8.311805725 -0.566642046 1.913430333
7.469376087 -0.5118304491 1.994511724
0.9799666405 -0.06835407019 -0.251624167
7.519931793 -0.5284827352 -1.457080364
7.569598198 -0.5346285701 -1.195210934
8.562619209 -0.6077679396 -1.048864245
8.565864563 -0.6095008254 -0.7475966215
8.574426651 -0.6131182909 -0.4483109713
8.58656311 -0.6169988513 -0.1495653391
8.597705841 -0.6012101173 0.1497398615
8.585129738 -0.6033422947 0.4488343
8.588149071 -0.6050607562 0.7495139837
8.47163868 -0.5998241305 1.037652254
8.499343872 -0.604767561 1.342885137
8.529846191 -0.6084342599 1.653995275
8.303945541 -0.5952341557 1.912080765
7.461763859 -0.5374839902 1.992958903
0.9373348355 -0.06866909564 -0.2402361035
7.535662651 -0.5560292006 -1.460515022
8.071998596 -0.5984364748 -1.27530539
8.576216698 -0.6433437467 -0.4485203028
8.578373909 -0.6465169191 -0.1494606137
8.5835886 -0.6303393245 0.1495304257
8.582970619 -0.6333062649 0.4488343
8.57008934 -0.633859694 0.7481195331
8.465533257 -0.6290978193 1.037164688
8.509000778 -0.6353146434 1.344762325
8.5159235 -0.6373261213 1.651705503
8.315420151 -0.6252395511 1.915230036
7.469473839 -0.5642547011 1.995546937
0.9563513398 -0.07341932505 -0.2454124987
7.598270416 -0.5873231292 -1.473108411
7.998961449 -0.6211041808 -1.264042258
7.961528778 -0.6223915815 -0.6949545741
8.569937706 -0.6729636788 -0.4483109713
8.580052376 -0.6767715216 -0.1495304257
8.569373131 -0.6593773365 0.1493210047
8.580708504 -0.6632626057 0.4488343
8.56385231 -0.6634632349 0.7477709055
8.459327698 -0.658336103 1.036677241
8.492945671 -0.6639350653 1.342572331
8.505818367 -0.6664350629 1.650179148
8.317071915 -0.6545678377 1.916129708
7.450126171 -0.5889543891 1.990888238
0.9560891986 -0.07675716281 -0.2454124987
8.000681877 -0.6493415236 -1.264667869
7.991903305 -0.6514372826 -0.9793986082
7.959308147 -0.6501787901 -0.6949545741
8.555591583 -0.7018944621 -0.4476829469
8.571658134 -0.7062247992 -0.1494257003
8.57499218 -0.6899275184 0.1494606137
8.574359894 -0.6928890347 0.4486249685
8.56942749 -0.693995893 0.748468101
8.435214043 -0.6860904694 1.033996105
8.494513512 -0.6938985586 1.343197942
8.499526978 -0.6958014369 1.64941597
8.316679001 -0.683755517 1.916579604
7.376789093 -0.609074831 1.971735597
0.9558154941 -0.08009407669 -0.2454124987
8.474326134 -0.7145880461 -1.644836545
8.021986008 -0.6792652011 -1.268422365
8.02122879 -0.6820212007 -0.9832984805
7.94507885 -0.6769431233 -0.6939086914
8.541150093 -0.7307331562 -0.4470548928
8.559179306 -0.7352852821 -0.1492511779
8.568546295 -0.7195208669 0.1493908018
8.557957649 -0.7216401696 0.4478922784
8.570923805 -0.7242401242 0.7488167882
8.452548027 -0.7172091007 1.036433578
8.484167099 -0.7228749394 1.341946602
8.500958443 -0.7258001566 1.650179148
8.304533005 -0.7119496465 1.914330125
0.9362847209 -0.0817496255 -0.2402361035
8.460045815 -0.7431338429 -1.642546773
7.972340584 -0.7030981183 -1.260913491
8.00693512 -0.7089658976 -0.9818360806
7.938697815 -0.7043203115 -0.6935600042
8.550483704 -0.7616060972 -0.4476829469
8.558553696 -0.7653361559 -0.1492860913
8.565982819 -0.7494263053 0.1493908018
8.557375908 -0.7516833544 0.4479969442
8.560403824 -0.7534549832 0.7481195331
8.448016167 -0.746534884 1.036189795
8.489462852 -0.7531840801 1.343197942
8.50228405 -0.7558171749 1.650942326
8.321407318 -0.7426658273 1.918829203
7.185715199 -0.6438363194 1.921524763
0.9359936714 -0.0850173831 -0.2402361035
3.650038481 -0.3347489834 -0.5738532543
7.917434216 -0.7289034724 -0.971111536
7.924287319 -0.7309291959 -0.6925141811
8.543795586 -0.7910799384 -0.4474735558
8.549856186 -0.7946512103 -0.149181366
8.555348396 -0.7785975933 0.1492511779
8.550722122 -0.781186223 0.4477876127
8.541849136 -0.7818790078 0.7467250824
8.445358276 -0.7760195136 1.036189795
8.484814644 -0.7826317549 1.342885137
8.487864494 -0.7844071388 1.648652554
8.322645187 -0.7720685005 1.919728994
7.166111946 -0.6673031449 1.916865945
0.9780040383 -0.09227637947 -0.251624167
3.607548475 -0.342284292 -0.6961340308
8.120355606 -0.7761800289 -0.9964603186
8.540981293 -0.8208984733 -0.4474735558
8.549019814 -0.8246828914 -0.1492162794
8.536652565 -0.8069512248 0.148971945
8.55788517 -0.8119723797 0.4483109713
8.539068222 -0.8116908073 0.7467250824
8.505833626 -0.8115276694 1.04398942
8.47219944 -0.8113030195 1.341320753
8.477258682 -0.8132807016 1.647126198
8.339297295 -0.8029830456 1.924228072
7.163739204 -0.6923135519 1.916865945
0.9546040297 -0.09343153238 -0.2454124987
3.618054628 -0.3560284972 -0.6984237432
3.608296156 -0.3563399911 -0.5675958395
8.55328846 -0.8507163525 -0.748293817
8.51818943 -0.8487269282 -0.4464268684
8.556038857 -0.8555144072 -0.1493908018
8.537763596 -0.8371350765 0.149041757
8.547047615 -0.8410576582 0.4478922784
8.540147781 -0.8418835998 0.7470736504
8.483195305 -0.8392593265 1.041552067
8.492903709 -0.8432136178 1.34507525
8.474368095 -0.8428668976 1.647126198
8.353895187 -0.8338295817 1.928277135
7.168968201 -0.718085587 1.918936491
0.9542551637 -0.09692969918 -0.2454124987
3.606960058 -0.3682897985 -0.6965156198
3.606966019 -0.3695626259 -0.5675958395
8.533379555 -0.8758183122 -1.048132896
8.522520065 -0.8777101636 -0.7458534837
8.522969246 -0.8807632327 -0.4468455613
8.543053627 -0.8843457699 -0.1492162794
8.544735909 -0.8679425716 0.1492162794
8.526177406 -0.8690645099 0.446950227
8.537005424 -0.8731791377 0.7470736504
8.486138344 -0.8694730401 1.042283297
8.458469391 -0.8696218133 1.340069413
8.47512722 -0.8743242621 1.647889376
8.302323341 -0.8594262004 1.9170295
7.174103737 -0.743902564 1.921007037
0.9731235504 -0.1022794098 -0.2505888641
3.586128473 -0.3788158 -0.692699492
3.607618332 -0.3823592663 -0.5679087043
8.519404411 -0.9074540138 -0.7458534837
8.519843102 -0.9105085731 -0.4468455613
8.524008751 -0.9124584794 -0.1489370465
8.543486595 -0.89946419 0.1492511779
8.531036377 -0.899658978 0.44736889
8.529942513 -0.9025543928 0.7467250824
8.488816261 -0.9011992216 1.043014407
8.447525024 -0.8983065486 1.338817835
8.472023964 -0.9039026499 1.647889376
8.301210403 -0.8886088133 1.917479396
7.165700912 -0.7683224082 1.919454098
0.9343495965 -0.1015028432 -0.2402361035
3.584784269 -0.3913314342 -0.692699492
3.598475933 -0.3934616446 -0.5666572452
8.497458458 -0.9321238399 -1.044476867
8.506282806 -0.9360970259 -0.744981885
8.516777039 -0.9387562871 -0.4468455613
8.518784523 -0.9419874549 -0.1489021331
8.524553299 -0.9260627627 0.148971945
5.21999836 -0.5689169168 0.2729854882
8.512876511 -0.9308080077 0.7455048561
8.511433601 -0.9321536422 1.046183109
8.442374229 -0.9275727868 1.33850503
8.4650774 -0.9315624237 1.647126198
8.302093506 -0.9165595174 1.918379307
7.157214642 -0.7926926613 1.917901158
0.9532064199 -0.1067507714 -0.2454124987
3.573712111 -0.4021192789 -0.6907913685
3.577451229 -0.40380463 -0.5635285378
8.50204277 -0.9626734257 -1.04545188
8.499173164 -0.9638507962 -0.744633317
8.509478569 -0.9680281281 -0.4466362
8.519587517 -0.9706844091 -0.148971945
8.51729393 -0.9553675652 0.1489021331
5.22403717 -0.5868929625 0.2732995152
4.203555584 -0.4737330675 0.3663773537
8.480513573 -0.9587364197 1.042770743
8.458879471 -0.9577860236 1.341633558
8.442266464 -0.9588896036 1.643309951
8.310460091 -0.9468572736 1.921078801
7.154546738 -0.8164225221 1.917901158
0.9547470212 -0.1102991328 -0.2459301353
3.57609272 -0.4156656265 -0.5635285378
8.490916252 -0.989942193 -1.044476867
8.495756149 -0.9935125113 -0.744633317
8.486384392 -0.9939180017 -0.4455895126
8.518133163 -1.000650644 -0.1490068436
8.504146576 -0.9824591875 0.1487276107
5.227908611 -0.6058142781 0.2736135423
8.479258537 -0.9870830178 1.043014407
8.445674896 -0.9861616492 1.340069413
8.446840286 -0.9877921343 1.644836545
8.303402901 -0.9739565253 1.920178771
7.159328461 -0.8422946334 1.919971824
0.9351926446 -0.1111838967 -0.2407537699
2.54160738 -0.3035182357 -0.4892971218
3.576581001 -0.4283809066 -0.5638414025
8.471641541 -1.017680883 -1.04252696
8.496370316 -1.022155881 -0.744981885
8.486829758 -1.0240134 -0.4457988441
8.516573906 -1.030618668 -0.149041757
8.510593414 -1.013320446 0.1489021331
5.263442039 -0.6285591722 0.2756022811
4.20221138 -0.502571106 0.3665516675
8.463935852 -1.015256643 1.041552067
8.430413246 -1.014220834 1.338192105
8.439441681 -1.016801357 1.644073129
8.292214394 -1.001999736 1.918379307
7.164015293 -0.8682098389 1.92204237
0.9386339188 -0.1149171814 -0.2417890429
2.544429541 -0.3128674626 -0.4900603294
3.565261364 -0.4396540523 -0.5622770786
8.471978188 -1.047733545 -1.043014407
8.472979546 -1.049358845 -0.7432388067
8.493113518 -1.054862618 -0.4463222027
8.497048378 -1.058363318 -0.1487625092
8.510974884 -1.04350841 0.148971945
5.292932987 -0.6508282423 0.2772770226
8.468220711 -1.045768261 1.04252696
8.417019844 -1.042428374 1.336627722
8.443634987 -1.047220826 1.645599723
8.296401024 -1.031901002 1.920178771
7.160941124 -0.8932116032 1.92204237
0.9190599918 -0.1157783493 -0.2366126478
2.551112652 -0.3227328658 -0.4915867746
3.559785604 -0.4515992999 -0.5616513491
8.480084419 -1.078802943 -1.044476867
8.469264984 -1.078928709 -0.7432388067
8.503247261 -1.086274266 -0.4470548928
8.497270584 -1.088525414 -0.1488323361
8.499344826 -1.072209954 0.1488323361
8.473968506 -1.073516488 0.7435874343
8.468457222 -1.075821877 1.043014407
8.427046776 -1.073550463 1.338817835
8.436033249 -1.076191425 1.644836545
8.306280136 -1.062585592 1.923328161
7.14628315 -0.9167277217 1.918936491
0.9339771271 -0.1209709346 -0.2407537699
2.581120491 -0.3356871009 -0.4976926744
3.538599968 -0.4614681005 -0.5585226417
8.472330093 -1.107882619 -1.04398942
8.469397545 -1.10900259 -0.7435874343
8.477621078 -1.113089561 -0.4459035099
8.505314827 -1.11974597 -0.149041757
8.489600182 -1.101099968 0.1487276107
5.228843689 -0.6800361872 0.2741368711
8.491902351 -1.105919957 0.7455048561
8.466618538 -1.105632782 1.04325819
8.427165031 -1.10347259 1.339443564
8.416652679 -1.103590131 1.641783595
8.32184124 -1.094113588 1.927827239
7.148785114 -0.9424247146 1.92048943
0.9526987672 -0.126778692 -0.2459301353
2.60523057 -0.3480747342 -0.502653718
3.538925171 -0.4740795195 -0.5588355064
8.458575249 -1.136128545 -1.042770743
8.463787079 -1.141340613 -0.4453801215
8.485499382 -1.147284627 -0.1487625092
8.481740952 -1.130199194 0.1486577988
8.482992172 -1.133379698 0.4463222027
8.429261208 -1.130693555 1.039114714
8.389980316 -1.128406048 1.334124804
8.416640282 -1.133486986 1.642546773
8.310246468 -1.122112393 1.926027536
7.155023575 -0.9686688185 1.923077583
0.9981882572 -0.1363798231 -0.2583534718
2.615669966 -0.3587673008 -0.5049434304
3.53529191 -0.4861607254 -0.5585226417
7.896073341 -1.088648319 -0.9735489488
7.928556919 -1.09453702 -0.6965233088
8.445901871 -1.168960929 -0.4446474314
8.461637497 -1.174149156 -0.1484134793
8.4599123 -1.1573596 0.1483436525
8.463154793 -1.160812855 0.4454848468
8.421328545 -1.159568548 1.038627148
8.397731781 -1.159306526 1.336002111
8.408742905 -1.162322283 1.641783595
8.302418709 -1.150578856 1.925127745
7.15925312 -0.9947021008 1.925148249
0.9211801887 -0.1291355491 -0.2376479357
2.628010273 -0.3698105216 -0.5076147318
3.529661179 -0.4979462922 -0.5578969121
7.898121357 -1.117038012 -0.9742801189
7.908710957 -1.121351719 -0.6951288581
8.463522911 -1.201523781 -0.4457988441
8.469366074 -1.205369115 -0.1486229002
8.473644257 -1.189384699 0.1486577988
8.466962814 -1.191460967 0.4459035099
8.523259163 -1.200899959 0.7493396997
8.45261097 -1.193955064 1.043014407
8.403412819 -1.189997792 1.337566257
8.416296005 -1.193320632 1.644073129
8.302209854 -1.180101156 1.926027536
7.1557374 -1.01968646 1.925148249
0.9512950778 -0.1369142234 -0.2459301353
2.657726765 -0.383931309 -0.5137206316
3.525857687 -0.5105966926 -0.5575840473
7.878458023 -1.142322063 -0.9723302722
7.892918587 -1.147231936 -0.6940829754
8.473399162 -1.219525814 0.1487276107
8.480543137 -1.22357595 0.4468455613
8.487251282 -1.22756803 0.7465507388
8.45035553 -1.223737359 1.04325819
8.408982277 -1.22074306 1.33913064
8.40409565 -1.223029017 1.642546773
8.313256264 -1.212772846 1.929626942
7.140664577 -1.042983055 1.92204237
0.9316996336 -0.1374152601 -0.2407537699
2.681617498 -0.3969433606 -0.5186816454
3.504513979 -0.5200018287 -0.5544553399
5.12850523 -0.7600557208 0.4498725832
8.43403244 -1.252951145 1.041795731
8.387084961 -1.247472763 1.336314917
8.38424015 -1.250041127 1.639493942
8.31282711 -1.242360234 1.930526614
7.144622803 -1.069045782 1.924112916
0.931214273 -0.1406666785 -0.2407537699
2.707390547 -0.4104210734 -0.5240243077
3.493005276 -0.5301383138 -0.552891016
5.152211189 -0.7837982774 -0.6347521544
5.152850628 -0.7857359648 -0.4523129165
5.30330801 -0.8096256256 -0.2789517939
5.180908203 -0.7927902937 -0.0907856226
5.158694267 -0.7792581916 0.09036676586
8.446956635 -1.282006502 0.7437617183
8.418056488 -1.279123187 1.040333271
8.390490532 -1.277931333 1.337566257
8.387811661 -1.279021263 1.641020298
8.312513351 -1.270508528 1.931426406
7.154214382 -1.09602654 1.927736282
0.949834764 -0.1467027068 -0.2459301353
2.729295731 -0.4230050743 -0.5286037326
3.495037317 -0.5429343581 -0.5535167456
7.858217716 -1.223539114 -0.9713552594
7.874780655 -1.22752583 -0.6935600042
8.465770721 -1.324190497 -0.1488672346
8.444354057 -1.305745959 0.1484483778
8.451703072 -1.308392882 0.4460081756
8.460378647 -1.312759995 0.7453305721
8.387176514 -1.308897853 1.641783595
8.296476364 -1.297710061 1.928727031
7.158174515 -1.120940208 1.929806828
0.9340515733 -0.1476050168 -0.2417890429
2.74719286 -0.4356041551 -0.5324198604
4.103804588 -0.6529160142 -0.5050831437
4.104590893 -0.6545102 -0.3599278629
4.103194237 -0.6564907432 -0.07183230668
4.140466213 -0.6572670937 0.3630654216
8.386667252 -1.337321877 1.642546773
8.303672791 -1.327060223 1.931426406
7.146588326 -1.144697905 1.927736282
0.9144852757 -0.1476229578 -0.2366126478
2.782555103 -0.4506756067 -0.5396706462
3.456163406 -0.5610144734 -0.5478850603
4.087785721 -0.6650058031 -0.5033769608
4.137794495 -0.6738826632 -0.3630654216
4.127754688 -0.6737265587 -0.2169860303
4.091010094 -0.6691954732 -0.07165779173
4.112028122 -0.6645302773 0.07200683653
4.081256866 -0.6610193849 0.2144739032
4.106796741 -0.6658915281 0.3602764606
4.105535507 -0.6671578288 0.5055705905
4.079769611 -0.6644327044 0.6480031013
8.378072739 -1.365956903 1.641783595
8.30668354 -1.357294321 1.933226109
7.138736725 -1.169012904 1.926701188
0.9635224342 -0.1589918137 -0.2500712276
2.825513601 -0.4677607417 -0.5484478474
3.424952984 -0.5682256222 -0.543192029
4.097187996 -0.6812241673 -0.5048393607
4.115763664 -0.6850509048 -0.3613223135
4.12931776 -0.6887883544 -0.2171953768
4.108372688 -0.686768651 -0.07200683653
4.103764534 -0.6779021621 0.07190211862
4.130156517 -0.683743 0.2171953768
8.420860291 -1.395574212 0.7430645227
8.411369324 -1.397018313 1.041795731
8.360383034 -1.39154911 1.335689187
8.361634254 -1.39325738 1.639493942
8.313427925 -1.388207674 1.935925484
7.147949696 -1.196156502 1.930324554
0.9477217793 -0.159784779 -0.2459301353
2.878065109 -0.4867882133 -0.559133172
3.158075094 -0.5352823734 -0.5006418824
7.854300499 -1.334096313 -0.9730613828
7.84925127 -1.334648132 -0.6928628087
8.419049263 -1.434557915 -0.4453801215
8.440542221 -1.441252112 -0.1487625092
8.433436394 -1.42338109 0.1485880017
8.450335503 -1.429267168 0.446950227
8.425758362 -1.426622987 0.7439360023
8.376895905 -1.424366236 1.33913064
8.356719971 -1.422436476 1.639493942
8.308531761 -1.417218447 1.935925484
7.138018131 -1.220123768 1.928771615
0.947158277 -0.1630919576 -0.2459301353
3.004032135 -0.518886447 -0.5843199492
3.189276695 -0.5520302653 -0.5059606433
7.864174366 -1.365447283 -0.6946058869
8.40808773 -1.462910056 -0.4450661242
8.435460091 -1.470706463 -0.1487625092
8.428416252 -1.452810526 0.1485880017
8.429549217 -1.456035972 0.4461128116
8.436434746 -1.458741546 0.7453305721
8.395544052 -1.454689741 1.04106462
8.36330986 -1.453615308 1.641783595
8.295854568 -1.444874525 1.934125781
7.152746677 -1.248354077 1.93394804
0.9465832114 -0.1663971543 -0.2459301353
3.228180647 -0.5703772902 -0.5125308633
3.448690653 -0.6105800271 -0.4248930812
7.867207527 -1.39428091 -0.6953031421
8.418662071 -1.495044589 -0.4459035099
8.41649437 -1.497690558 -0.1485181749
8.427231789 -1.482915282 0.1486577988
8.416548729 -1.484064698 0.4456941783
8.427366257 -1.487488747 0.744981885
8.394324303 -1.484678149 1.041552067
8.357021332 -1.481089115 1.337566257
8.358184814 -1.482799888 1.641783595
8.294597626 -1.474505782 1.935025573
7.14834547 -1.273314118 1.93394804
0.9117696285 -0.1635604352 -0.2366126478
3.166507959 -0.5697447062 -0.617139101
3.181457043 -0.5735809803 -0.5053349137
3.452399015 -0.6236732006 -0.425624311
7.881897449 -1.42527926 -0.6970462203
8.413392067 -1.524422169 -0.4459035099
8.417118073 -1.5281322 -0.1486229002
8.418067932 -1.511615992 0.1485880017
8.41721344 -1.514495611 0.4460081756
8.402515411 -1.51336503 0.7432388067
8.396904945 -1.515380859 1.04252696
8.351800919 -1.510251522 1.337566257
8.345230103 -1.510567546 1.64025712
8.293235779 -1.50414598 1.935925484
7.136254787 -1.296877265 1.931877494
0.9263955951 -0.1695240438 -0.2407537699
3.152914047 -0.5786679387 -0.6148493886
3.163892984 -0.5818247199 -0.5028319359
3.450201035 -0.635720551 -0.425624311
8.010110855 -1.477357149 -0.7088994384
8.404091835 -1.553055167 -0.4456941783
8.417631149 -1.558596134 -0.1487276107
8.408805847 -1.540270805 0.1485181749
8.413840294 -1.544228435 0.4461128116
8.393260956 -1.541965961 0.7428901792
8.381802559 -1.542885423 1.041308284
8.330938339 -1.536529303 1.335063338
8.328321457 -1.537550092 1.637967348
8.295598984 -1.534503341 1.937724948
7.131684303 -1.32177949 1.931877494
0.9447888136 -0.1763004512 -0.2459301353
3.152804852 -0.5900313258 -0.6152310371
3.152135134 -0.591045022 -0.501267612
3.440157175 -0.6462939978 -0.4246493578
8.051898003 -1.514145613 -0.7130829096
8.390768051 -1.580902219 -0.4452754557
8.416069031 -1.588711381 -0.1487974077
8.399446487 -1.568879247 0.1484483778
8.404472351 -1.572854161 0.4459035099
8.403494835 -1.574189305 0.7442846894
8.364659309 -1.569936991 1.039845824
8.352702141 -1.570711255 1.339443564
8.330622673 -1.56806469 1.639493942
8.29019165 -1.563450933 1.937724948
7.140314102 -1.349176407 1.935500979
0.9441676736 -0.1795973033 -0.2459301353
3.148797274 -0.6006652117 -0.6148493886
3.155873775 -0.6031568646 -0.5022062063
3.437880278 -0.6582984924 -0.4246493578
7.929157734 -1.519740105 -0.7026242018
