# .PCD v0.7 - Point Cloud Data file format
VERSION 0.7
FIELDS x y z
SIZE 4 4 4
TYPE F F F
COUNT 1 1 1
WIDTH 1231
HEIGHT 1
VIEWPOINT 0 0 0 1 0 0 0
POINTS 1231
DATA ascii
-3.693726778 0.7313774824 0.06502587348
-3.700826406 0.7341258526 0.1955282837
-3.797408342 0.7539734244 0.3350012898
-3.766010046 0.7491056323 0.4663286805
-3.796155453 0.7564795017 0.6063916087
-3.869504452 0.7717982531 0.7587193847
-3.604305506 0.7202117443 0.8386141658
-3.776228189 0.7559351325 1.02031672
-2.417443275 0.4870030284 -0.6491702199
-3.503584385 0.7070820332 -0.8152192235
-3.536612511 0.7143909335 -0.6930810809
-3.54026103 0.7164141536 -0.5654057264
-3.549232244 0.7195192575 -0.4395174384
-3.557952642 0.7219335437 -0.31390962
-3.550533533 0.7217186093 -0.1876778901
-3.560389757 0.7250162363 -0.06272215396
-3.714673996 0.7490096688 0.06544473022
-3.696284056 0.7466443181 0.195423618
-3.794753313 0.7672243118 0.3350012898
-3.767263174 0.7630351782 0.4668161571
-3.783812284 0.7677620649 0.6048272252
-3.878330469 0.7876452208 0.7610090971
-3.597950459 0.732010901 0.8377143741
-3.73949337 0.7621675134 1.010999322
-2.410051107 0.4942742288 -0.6476173401
-3.506821156 0.7204850316 -0.8165689111
-3.522559166 0.7243590951 -0.6907913685
-3.535803795 0.7283691168 -0.5650929213
-3.542810917 0.7311008573 -0.4390299618
-3.549557209 0.7331398129 -0.3133866787
-3.54603672 0.7337033153 -0.1875732094
-3.551963329 0.736222446 -0.0626174435
-3.747296333 0.7692087293 0.06607301533
-3.691698551 0.7591400146 0.1953189373
-3.797906876 0.7816699743 0.3355242312
-3.78596282 0.7805902362 0.4694972932
-3.77530551 0.779766798 0.6038886309
-3.875557423 0.8011783957 0.7610090971
-3.595373154 0.7445657849 0.8377143741
-3.770858526 0.7822797298 1.02031672
-2.393182516 0.4995255768 -0.6434761882
-2.598227978 0.5432715416 -0.6028653979
-2.611080408 0.5464339256 -0.5102860332
-3.535173178 0.7411123514 -0.5654057264
-3.54023695 0.7434639931 -0.4390299618
-3.531378031 0.7422471046 -0.3119921684
-3.545408487 0.746488452 -0.1876778901
-3.553285122 0.7494412065 -0.06268724799
-3.766120195 0.7867837548 0.0664569661
-3.706620932 0.7757031322 0.1962609887
-3.787354708 0.7932896018 0.3348269761
-3.781272173 0.7933924794 0.46925354
-3.770627499 0.7925339937 0.6035757661
-3.872737408 0.8147009611 0.7610090971
-3.592752218 0.7571114898 0.8377143741
-3.751092911 0.7918466926 1.015658021
-2.391424417 0.5078763962 -0.6434761882
-2.60965848 0.555175662 -0.6060147285
-2.634119749 0.5608600974 -0.5152471066
-3.528700829 0.7526230216 -0.5647799969
-3.553150415 0.7591353655 -0.4409798384
-3.532662153 0.7554019094 -0.312340796
-3.538875103 0.7580230832 -0.1874685436
-3.558601141 0.7628970146 -0.06282686442
-3.790734529 0.8057458997 0.06694563478
-3.702074289 0.7875749469 0.1961563081
-3.794305801 0.808581531 0.335698545
-3.784303665 0.807831049 0.4699847698
-3.771842241 0.8058591485 0.6042014956
-3.858350992 0.8257501721 0.7587193847
-3.601520061 0.7720980644 0.8404137492
-3.735224724 0.8014445305 1.012034535
-2.393413305 0.5170373321 -0.6445114613
-2.588755608 0.5597084761 -0.6015157104
-2.609120846 0.5650655627 -0.5106676817
-3.518463612 0.7626467943 -0.5635285378
-3.535094261 0.767544508 -0.4390299618
-3.545578957 0.7711160183 -0.3137352765
-3.536341906 0.7697543502 -0.1874685436
-3.553962708 0.7748891711 -0.0627919659
-3.784132957 0.8174676895 0.06687582284
-3.705158949 0.8017601967 0.1964703351
-3.803143024 0.8243526816 0.3367443979
-3.760264635 0.8157456517 0.4673036337
-3.769006252 0.8190196753 0.6042014956
-3.855591536 0.83853966 0.7587193847
-3.591323853 0.7823778391 0.8386141658
-3.773928165 0.8235393763 1.023422599
-2.403007269 0.5274559855 -0.6476173401
-2.573463202 0.5658123493 -0.5983663797
-2.591893435 0.570338726 -0.5076147318
-3.5196383 0.7757743597 -0.5641542673
-3.528516769 0.7790228724 -0.4385424554
-3.535220623 0.781150043 -0.3130380213
-3.523883343 0.7799350619 -0.1869451702
-3.543426752 0.7855589986 -0.06265234202
-3.785162687 0.8315290809 0.06694563478
-3.8505826 0.8473097086 0.2044253945
-3.810117483 0.8391026258 0.3376159668
-3.765148163 0.8305779696 0.4682785869
-3.766124487 0.8321710229 0.6042014956
-3.856475115 0.8528419733 0.7594826221
-3.580960274 0.793223381 0.8368145227
-3.774802208 0.8375439048 1.024457812
-2.389838457 0.5333162546 -0.6445114613
-2.556258202 0.5713912249 -0.5947671533
-2.578391314 0.5768110752 -0.5053250194
-3.520763874 0.7889194489 -0.5647799969
-3.521902323 0.7904655933 -0.4380549788
-3.528584242 0.7926122546 -0.3126894236
-3.52698493 0.7935462594 -0.1872591972
-3.538712502 0.797482729 -0.0626174435
-3.809559584 0.850839138 0.06743430346
-3.68387866 0.8241192698 0.1956329495
-3.803276777 0.8515267968 0.3372673392
-3.769973755 0.8454524279 0.46925354
-3.751632452 0.8427147269 0.602324307
-3.868798018 0.8697424531 0.7625355721
-3.578169346 0.8057194352 0.8368145227
-3.768086672 0.8498653769 1.023422599
-2.380426407 0.5399458408 -0.6424409747
-2.556148291 0.580742538 -0.5952171087
-2.578276634 0.5862432122 -0.5057066679
-3.514136553 0.8003272414 -0.5641542673
-3.526863098 0.804520607 -0.4390299618
-3.51414156 0.8022639155 -0.3116435707
-3.541716814 0.8098599315 -0.1882012486
-3.539805651 0.8107232451 -0.06268724799
-3.806566238 0.8641319275 0.06743430346
-3.692664862 0.8396304846 0.1962609887
-3.780853987 0.8603767157 0.3355242312
-3.766999722 0.8586070538 0.46925354
-3.75637126 0.8575639129 0.6035757661
-3.858082771 0.8814926744 0.7610090971
-3.586733103 0.8208122849 0.8395139575
-3.7537992 0.8604237437 1.02031672
-2.37099719 0.54651618 -0.640370369
-2.548409224 0.5883466005 -0.5938673615
-2.572388887 0.5943556428 -0.5049434304
-3.495925188 0.8090260625 -0.5616513491
-3.527900934 0.8177233338 -0.4395174384
-3.51520133 0.8154262304 -0.3119921684
-3.52524972 0.8190547824 -0.1874685436
-3.519425392 0.8189955354 -0.06237310171
-3.80742383 0.8783122897 0.0675041154
-3.693603277 0.8534145355 0.1964703351
-3.781710148 0.8744660616 0.335872829
-3.773648977 0.8739907146 0.4704722464
-3.757203579 0.8715637326 0.6042014956
-3.84159565 0.8918468952 0.7583377957
-3.591438532 0.835092783 0.8413135409
-3.754535437 0.8743990064 1.021352053
-2.38036108 0.5574315786 -0.6434761882
-2.544442415 0.5967936516 -0.5934174657
-2.577943802 0.6051253676 -0.5064698458
-3.47769618 0.8176075816 -0.5591483712
-3.50183773 0.8245732188 -0.4365925491
-3.487123251 0.8217507601 -0.309726119
-3.497099638 0.8253902197 -0.1861078143
-3.499030352 0.8271362782 -0.06205896288
-3.82380414 0.8961611986 0.0678531602
-3.675046921 0.8626503348 0.1956329495
-3.794151068 0.8913075328 0.3372673392
-3.758981466 0.8844292164 0.4690097868
-3.759906292 0.8860328794 0.60514009
-3.842280865 0.9061515331 0.7591009736
-3.580915451 0.8458323479 0.8395139575
-3.755220413 0.8883881569 1.022387266
-2.378400564 0.5657372475 -0.6434761882
-2.540448427 0.6052196622 -0.5929675698
-2.568176985 0.6122992039 -0.5049434304
-3.47866416 0.8306589127 -0.5597741008
-3.479631662 0.832174778 -0.4341551661
-3.50748539 0.8394824862 -0.3118178546
-3.476716757 0.833402276 -0.1851657629
-3.511677265 0.8430789709 -0.06233820319
-3.824542999 0.9104295373 0.06792297214
-3.668127537 0.8745470643 0.195423618
-3.804582596 0.9077830315 0.3384875059
-3.771317005 0.9012372494 0.4709596932
-3.754869699 0.8986914754 0.6048272252
-3.839094162 0.9195590615 0.7591009736
-3.570361614 0.8565078378 0.8377143741
-3.752096415 0.901491046 1.022387266
-2.368899822 0.5722222328 -0.6414057016
-2.542108297 0.6150003672 -0.5938673615
-2.556483269 0.6189509034 -0.5030353069
-3.479582787 0.8437277079 -0.5603998303
-3.484422207 0.8461890221 -0.4351301193
-3.479365349 0.8456040621 -0.3095518053
-3.489311457 0.8493112922 -0.1860031337
-3.495113611 0.852016747 -0.06209386885
-3.833004475 0.926592648 0.06813240051
-3.680581808 0.8911067247 0.1962609887
-3.803327084 0.9215263724 0.3386618197
-3.768147945 0.9143962264 0.4709596932
-3.740192652 0.9089939594 0.6029500365
-3.837768793 0.9334186316 0.7594826221
-3.571136475 0.8698888421 0.8386141658
-3.745173216 0.913667202 1.021352053
-2.355630636 0.5777263045 -0.6382998228
-2.549408436 0.6261950731 -0.5961169004
-2.558120251 0.6288076043 -0.5037985444
-3.472779989 0.8549251556 -0.5597741008
-3.481446981 0.8583468199 -0.4351301193
-3.470589161 0.8563132286 -0.3090288639
-3.482447624 0.8605279326 -0.1857938021
-3.49211812 0.8642118573 -0.06209386885
-3.83557272 0.9413967729 0.06823711842
-3.67744875 0.9039480686 0.1962609887
-3.784609556 0.9309896231 0.3372673392
-3.797700405 0.935615778 0.4751032889
-3.748504162 0.9248843789 0.6048272252
-3.82686305 0.9449267983 0.7579562068
-3.571861506 0.8832848668 0.8395139575
-3.738210917 0.9258050919 1.02031672
-2.353599548 0.5859455466 -0.6382998228
-2.535861969 0.632261157 -0.5934174657
-2.567338943 0.6405851245 -0.5060882568
-3.458276033 0.8641681075 -0.5578969121
-3.486132145 0.8724227548 -0.4361050725
-3.473376751 0.869874835 -0.3095518053
-3.48135972 0.8731654882 -0.185898453
-3.492959023 0.8773698807 -0.06216367334
-3.793455601 0.9451110363 0.06753901392
-3.697525263 0.9225816131 0.1975170523
-3.783270121 0.9446774721 0.337441653
-3.771301746 0.9430875182 0.4721783996
-3.73758769 0.9360439777 0.6035757661
-3.815923929 0.9563692808 0.7564296722
-3.576316833 0.8976453543 0.8413135409
-3.734956264 0.9388493299 1.02031672
-2.360904932 0.5965238214 -0.6408880353
-2.527971983 0.6396750212 -0.5920677185
-2.57079649 0.6509887576 -0.5072330832
-3.476300716 0.8815758824 -0.5613384247
-3.492685795 0.8870295882 -0.4373237491
-3.487698793 0.8864101171 -0.3111206293
-3.48022604 0.8858051896 -0.1860031337
-3.499563694 0.8920278549 -0.06233820319
-3.832784176 0.9691315293 0.06830692291
-3.674920797 0.9305800796 0.1964703351
-3.793468714 0.9613037705 0.3386618197
-3.760290146 0.9542930126 0.4712034464
-3.740041256 0.9505438209 0.6045143604
-3.799243212 0.9662961364 0.7537583113
-3.565608263 0.9081987739 0.8395139575
-3.739143848 0.9537910223 1.022387266
-2.362550735 0.6057203412 -0.6419233084
-2.525723696 0.6484954953 -0.5920677185
-2.578016043 0.6624008417 -0.5091412067
-3.478941441 0.8951819539 -0.5622770786
-3.491490602 0.8997105956 -0.4375675023
-3.501946449 0.9030566812 -0.3126894236
-3.488715887 0.9009436369 -0.1866311729
-3.506108522 0.9067416787 -0.06251272559
-3.833251953 0.9834985733 0.06837673485
-3.660043716 0.9404192567 0.1958422959
-3.801667929 0.9775167704 0.3397077024
-3.766547918 0.969889164 0.4724221528
-3.732875109 0.9626068473 0.6038886309
-3.714105129 0.9584588408 0.7373487949
-3.558643103 0.9196644425 0.8386141658
-3.748883247 0.9702245593 1.026010752
-2.358552456 0.6134778261 -0.6414057016
-2.529102325 0.6587811112 -0.5934174657
-2.573788404 0.6709012389 -0.5087596178
-3.479618311 0.9083173871 -0.5629028082
-3.480646372 0.9098845124 -0.4365925491
-3.487208128 0.9122499228 -0.3116435707
-3.489413977 0.9141284227 -0.1868405193
-3.499053955 0.9179591537 -0.06244291365
-3.849147797 1.001910448 0.06872577965
-3.660603762 0.9541980028 0.1960516423
-3.786664963 0.9877638221 0.3386618197
-3.761219025 0.9825283885 0.4721783996
-3.721848011 0.9736315012 0.6026371717
-3.78290844 0.9903104305 0.7518502474
-3.553525448 0.9315876365 0.8381642103
-3.741736889 0.9823238254 1.024975538
-2.347057104 0.6192429066 -0.6388174891
-2.534323454 0.6695972085 -0.5952171087
-2.573328733 0.6803832054 -0.5091412067
-3.472607136 0.9194477797 -0.5622770786
-3.488961935 0.9250813127 -0.4380549788
-3.470521688 0.9208402634 -0.3104233742
-3.497783184 0.9293805957 -0.1874685436
-3.484233618 0.9270825386 -0.06223348528
-3.834026575 1.012276769 0.06851635128
-3.668836355 0.9700333476 0.1966796666
-3.783194065 1.000974894 0.3386618197
-3.786549568 1.003277898 0.4758344889
-3.722244978 0.9876305461 0.6032629013
-3.798403978 1.008547544 0.7556664944
-3.559668779 0.9464890361 0.8404137492
-3.721484184 0.9909054637 1.02031672
-2.343014956 0.626932025 -0.6382998228
-2.531970739 0.6784396172 -0.5952171087
-2.578523397 0.6913950443 -0.5106676817
-3.450298548 0.9264412522 -0.5591483712
-3.47996068 0.9357081652 -0.4373237491
-3.457666636 0.9303607345 -0.3095518053
-3.473253489 0.9371555448 -0.06209386885
-3.834332943 1.026688457 0.06858616322
-3.669286013 0.9838678837 0.1968890131
-3.781601191 1.014691114 0.3388361633
-3.779190302 1.015459299 0.4753470123
-3.734035254 1.004723787 0.6057658792
-3.79296422 1.021289825 0.7552847862
-3.554461956 0.9584017396 0.8399638534
-3.718002319 1.003889918 1.02031672
-2.338947773 0.6346010566 -0.6377821565
-2.533348083 0.6882956624 -0.5961169004
-2.572305202 0.6993614435 -0.5099044442
-3.456573725 0.9410741329 -0.5607126951
-3.484333754 0.9499384165 -0.438298732
-3.47169733 0.9471443295 -0.3111206293
-3.470016956 0.9479873776 -0.1863171607
-3.472055435 0.949195385 -0.06212876737
-3.819146395 1.036923766 0.06837673485
-3.660220861 0.9944602251 0.1965750009
-3.791493893 1.031547546 0.34005633
-3.771792173 1.027600527 0.4748595357
-3.736400127 1.018659592 0.6067044139
-3.798846245 1.037108183 0.7571929097
-3.55109477 0.9708032608 0.8399638534
-3.72396946 1.018762589 1.022904992
-2.34416914 0.6448111534 -0.6398527622
-2.521657467 0.6941069961 -0.5938673615
-2.562277555 0.7062495351 -0.5083779693
-3.45533824 0.9530568123 -0.5610256195
-3.473510742 0.9593738317 -0.4373237491
-3.474131107 0.9608497024 -0.3116435707
-3.472628832 0.9610874057 -0.1866311729
-3.823399544 1.051703453 0.06851635128
-3.654801846 1.006699681 0.1964703351
-3.795552254 1.046895146 0.3407535553
-3.743487835 1.033236742 0.471690923
-3.730917692 1.031169772 0.6063916087
-3.787817478 1.047606707 0.7556664944
-3.544099569 0.9815337062 0.839064002
-3.724113941 1.032788157 1.023940206
-2.332713127 0.6499885917 -0.6372645497
-2.530481577 0.7060468793 -0.5965667963
-2.563703299 0.7157984376 -0.5091412067
-3.450088024 0.9645797014 -0.5607126951
-3.437643766 0.9623952508 -0.433180213
-3.447903395 0.9659154415 -0.3095518053
-3.459637642 0.9705061316 -0.1861078143
-3.461493731 0.9723303318 -0.06205896288
-3.827409744 1.067192554 0.06865597516
-3.657036781 1.021062493 0.1967843473
-3.778627634 1.05572319 0.3395333886
-3.762798548 1.052715778 0.4746157825
-3.721589327 1.042587399 0.6054529548
-3.780356646 1.059762478 0.7549031973
-3.544404507 0.9949515462 0.8399638534
-3.718626499 1.04525888 1.023422599
-2.324852705 0.6565517187 -0.6357116699
-2.539252758 0.7180572152 -0.5992661715
-2.557410479 0.723674655 -0.5083779693
-3.444799423 0.9760783911 -0.5603998303
-3.445721865 0.9776391983 -0.4346426427
-3.450260401 0.9795775414 -0.3100747466
-3.434999228 0.9778373241 -0.06164010614
-3.771704197 1.065862536 0.06771353632
-4.151195526 1.174670577 0.2238943726
-3.765334606 1.066191673 0.3386618197
-3.762920618 1.066928029 0.4751032889
-3.719827652 1.056111455 0.6057658792
-3.776633978 1.072952867 0.7549031973
-3.544658661 1.008384347 0.8408636451
-3.700091839 1.053998113 1.019281507
-2.322546482 0.6646635532 -0.6357116699
-2.532984018 0.7258430123 -0.5983663797
-2.562417984 0.7347614169 -0.5099044442
-3.447067022 0.9897326827 -0.5613384247
-3.486167908 1.00227654 -0.4402486384
-3.464052677 0.9965738654 -0.3116435707
-3.454697132 0.9951872826 -0.1862124801
-3.47383523 1.002013683 -0.06240800768
-3.659962177 1.051551104 0.4624288678
-3.697134495 1.06362927 0.6026371717
-3.708720446 1.067662358 0.7419282198
-3.552351952 1.02399087 0.8435630798
-3.638851404 1.050299764 1.003234744
-2.320212364 0.6727667451 -0.6357116699
-2.53417778 0.7357670665 -0.5992661715
-2.571149349 0.7469878197 -0.5121941566
-3.530842066 1.027140856 -0.575730443
-3.537918568 1.030539036 -0.4473170638
-3.544715643 1.033190012 -0.3193132579
-3.535562277 1.031861067 -0.1908180416
-3.547092915 1.036570072 -0.06380420178
-3.738226652 1.0881778 0.4729096293
-3.710467339 1.081502318 0.6054529548
-3.727587938 1.087198257 0.7465076447
-3.539402962 1.033652425 0.8413135409
-3.687080383 1.078178167 1.017728567
-2.327117443 0.6835841537 -0.6382998228
-2.527855158 0.7435088158 -0.5983663797
-2.566643 0.7554040551 -0.5118125677
-3.491233587 1.028850198 -0.5697859526
-3.51526022 1.037264466 -0.4448796809
-3.533444166 1.04330039 -0.3186160028
-3.520446777 1.040798783 -0.1901900023
-3.518526316 1.04156661 -0.06335043907
-3.542791843 1.042700291 0.1913414001
-3.541816711 1.043084145 0.3193132579
-3.488785267 1.028790474 0.4414673448
-3.539951801 1.045221925 0.5779204965
-3.477123737 1.027330756 0.6965156198
-3.517086506 1.040472865 0.8368145227
-3.461018801 1.025200129 0.9556120038
-2.446924448 0.7280645967 -0.6724639535
-2.534582376 0.7551102042 -0.6006159186
-2.569634676 0.766040802 -0.5129573345
-3.394871235 1.013345599 -0.5544553399
-3.424127817 1.02338028 -0.4336676896
-3.40952301 1.019663572 -0.3076343834
-3.480439425 1.042195678 -0.1882012486
-3.407603502 1.021681547 -0.06139576808
-3.391751289 1.011124134 0.1832816601
-3.356775045 1.001336098 0.3027536869
-3.319693565 0.9915356636 0.4202620685
-3.401910305 1.017386794 0.555706799
-3.334334135 0.9978103638 0.6682758927
-3.483565331 1.043794155 0.8296161294
-3.292736053 0.9878678918 0.9095422029
-2.52575469 0.7611270547 -0.6952400208
-2.546856642 0.7684558034 -0.6042151451
-2.56882453 0.7755739689 -0.5133389831
-3.406440496 1.029761791 -0.5569583178
-3.42813468 1.037626863 -0.4346426427
-3.360178709 1.017697334 -0.3034509122
-3.306674004 1.002753377 -0.178885445
-3.264335632 0.9911586046 -0.05884771794
-3.354301691 1.011446238 0.06045334041
-3.319368362 1.002176523 0.1795134693
-3.240731239 0.9790517688 0.2924692929
-3.211708307 0.9715071321 0.4068564177
-3.345402479 1.013222098 0.546946466
-3.214340925 0.9741407037 0.6446155906
-3.470576763 1.053117752 0.8273665905
-3.183907747 0.9673449397 0.8800368309
-2.532320976 0.7727588415 -0.6978282332
-2.536703825 0.7750636935 -0.6024155021
-2.573611498 0.7868322134 -0.5148655176
-3.400936127 1.041068077 -0.5566453934
-3.348573923 1.026317835 -0.4248930812
-3.379463434 1.036431432 -0.3055426478
-3.276423693 1.006081104 -0.177420035
-3.067804813 0.9431938529 -0.05532233045
-3.134635687 0.957157433 0.05650909618
-3.153500795 0.9641221762 0.1706163585
-3.115359545 0.9530549645 0.2813133597
-3.094414473 0.9478295445 0.39223212
-3.600577831 1.104243875 0.5898095369
-3.201536417 0.9824751616 0.6427074671
-3.502272367 1.076101542 0.835914731
-3.394700289 1.04434526 0.9400828481
-2.533299685 0.7827336788 -0.6988635063
-2.530259371 0.7827625275 -0.6015157104
-2.58022666 0.7987132072 -0.5167735815
-3.416149616 1.05878222 -0.5597741008
-3.386681318 1.050943732 -0.4302553535
-3.185547829 0.98913908 -0.2881114781
-3.15083003 0.9795640707 -0.1707210392
-3.0282166 0.9426038861 -0.05465914309
-3.016647339 0.9326542616 0.05441480875
-3.039455891 0.9408683181 0.164545387
-3.011144876 0.9326804876 0.2720748186
-2.988702774 0.926872611 0.3790702224
-3.640091419 1.130278587 0.5970055461
-3.244959116 1.008206844 0.6522479653
-3.528267384 1.097581983 0.843113184
-3.536745787 1.101573706 0.9809762836
-2.525020599 0.7898415923 -0.6973105669
-2.531231165 0.7927542925 -0.6024155021
-2.657979727 0.8329600692 -0.5331831574
-3.41997242 1.073065042 -0.5610256195
-3.133004665 0.9842271209 -0.3980818391
-3.166870594 0.9954723716 -0.2867170274
-2.888292789 0.9090130925 -0.156485647
-2.872327805 0.9050896764 -0.05186675489
-2.929403782 0.9168963432 0.05287899449
-2.914177895 0.9132477045 0.1578463912
-2.924221992 0.9169557095 0.2644051313
-2.886964083 0.9063795209 0.3663958013
-2.901181221 0.9119557142 0.474986583
-2.926789284 0.920566678 0.5881361365
-3.520697117 1.108719826 0.8422133923
-2.917504072 0.9198855758 0.808085084
-2.525931835 0.7998172045 -0.6983458996
-2.537736416 0.8045297265 -0.6046649814
-2.779852152 0.8828889132 -0.4552758336
-2.773900986 0.8820648193 -0.3522589505
-2.768467188 0.8808689117 -0.2504602075
-2.820399523 0.8984776735 -0.1529268175
-2.777704 0.8859444261 -0.0501913242
-2.834682703 0.8981252313 0.05120356753
-2.834821463 0.8992580771 0.1536595076
-2.824153185 0.8964163661 0.2555152476
-2.811892033 0.8936050534 0.3571337461
-2.792566299 0.8885367513 0.4574659169
-2.822538376 0.8986157179 0.5675287247
-2.796489716 0.8924738169 0.7749563456
-2.337316751 0.7490798831 -0.6460644007
-2.547901869 0.817551136 -0.6078143716
-2.631537914 0.8448942304 -0.5289853215
-2.694007158 0.8659881949 -0.4415096045
-2.702778101 0.8698486686 -0.3434843719
-2.678137541 0.8624343276 -0.2424418926
-2.70699358 0.8727698326 -0.1468558311
-2.694668293 0.8698350787 -0.04872532189
-2.747746468 0.8811469674 0.04966775328
-2.774616003 0.8908315897 0.1505193561
-2.741336584 0.880674541 0.2481941581
-2.714268208 0.8730239272 0.3449468017
-2.717996836 0.8752701283 0.4455769062
-2.752113342 0.8867874742 0.5537905097
-2.717239618 0.8765966892 0.6492053866
-2.719824076 0.8784787655 0.7542507648
-2.422892809 0.7858432531 -0.6709110141
-2.626705408 0.8534682393 -0.5286037326
-2.627099514 0.8546096087 -0.4308720827
-2.631774902 0.8571470976 -0.3347097635
-2.616385937 0.8526408076 -0.2370382249
-2.645069361 0.863008976 -0.143610999
-2.62698698 0.8581238985 -0.04753855988
-2.641943932 0.8574001789 0.04778289422
-2.674614668 0.8690348864 0.1451810896
-2.65298152 0.8625177741 0.240350157
-2.631924391 0.8566877842 0.3347097635
-2.613503933 0.8517016768 0.4286819696
-2.618344069 0.8537837267 0.5270772576
-2.62894702 0.8582571149 0.6285098791
-2.604729176 0.8513563871 0.7226748466
-2.576154232 0.8455020785 -0.7149102688
-2.605077982 0.8560023308 -0.6231110096
-2.6162498 0.8601792455 -0.5270772576
-2.616594791 0.8613047004 -0.4296205938
-2.626881599 0.8657065034 -0.3344660103
-2.632315636 0.8680073619 -0.2387813479
-2.623075247 0.8659749031 -0.1425642818
-2.635367393 0.8710539341 -0.04774798453
-2.621836185 0.8610013127 0.04746875167
-2.63361764 0.8658894897 0.1430876404
-2.631028652 0.8655463457 0.238607049
-2.602521658 0.8571757674 0.3312974572
-2.586127281 0.8527767062 0.4246146679
-2.596703768 0.85676682 0.5232610703
-2.592628002 0.856425643 0.6204116344
-2.577897549 0.8525584936 0.7159455419
-2.540185928 0.8435299397 -0.7055928111
-2.578034163 0.8570982218 -0.6172622442
-2.587151051 0.860630095 -0.5217345953
-2.589208126 0.8623188734 -0.425553292
-2.599362373 0.8667087555 -0.3312974572
-2.619819641 0.8740378618 -0.2379097939
-2.623825073 0.8763921261 -0.1427736282
-2.63989687 0.8827846646 -0.04788760841
-2.626405478 0.8726701736 0.0476083681
-2.621103525 0.8719245195 0.1425642818
-2.637443304 0.8778712749 0.239478603
-2.582564354 0.8606062531 0.3291037679
-2.596251726 0.8661750555 0.426804781
-2.61045742 0.8714206815 0.5266956091
-2.576684713 0.8611465096 0.6172622442
-2.584065914 0.8646161556 0.7185336947
-2.550045013 0.8566983938 -0.7092162371
-2.560250521 0.8611216545 -0.6136630774
-2.558081388 0.8608890176 -0.516391933
-2.578694582 0.8688282371 -0.4243018329
-2.577511549 0.8694322109 -0.3288600743
-2.584660769 0.8723462224 -0.2349465042
-2.582906485 0.8727584481 -0.140680179
-2.568606377 0.8689255714 -0.04663103446
-2.604388475 0.8754618764 0.04725931957
-2.604793549 0.876609385 0.1418315768
-2.592821836 0.8730849028 0.2356437296
-2.547566175 0.8588354588 0.3249602318
-2.568880796 0.8670203686 0.4227374792
-2.609259844 0.8811552525 0.5270772576
-2.56812501 0.8682632446 0.6159126163
-2.570053101 0.8699147701 0.7154279351
-2.528748035 0.8593783975 -0.7040398717
-2.551694393 0.868170321 -0.6123133898
-2.555060625 0.8698137999 -0.516391933
-2.570036888 0.8759126067 -0.4233632088
-2.589490652 0.8835524917 -0.3308099508
-2.568401575 0.8768565059 -0.2337263227
-2.581734419 0.8824152946 -0.1407848597
-2.577063799 0.8813205957 -0.04684046283
-2.582963943 0.8788092732 0.1407848597
-2.572784901 0.8763480783 0.2340749502
-2.550189257 0.8696455956 0.3256914616
-2.573469639 0.8780859709 0.4239889383
-2.596878767 0.8870854378 0.5251691937
-2.572454214 0.8797442317 0.6177121997
-2.556187153 0.8746800423 0.7123220563
-2.520251751 0.8663161993 -0.7024869323
-2.545115948 0.875359714 -0.6114135981
-2.568715334 0.8844799399 -0.5198264718
-2.561515093 0.8825000525 -0.4224245846
-2.586546421 0.8921347857 -0.3308099508
-2.567208052 0.8864675164 -0.2339006215
-2.580681562 0.8916240931 -0.1408895403
-2.579640627 0.8922724724 -0.04694517702
-2.579458237 0.8866679072 0.04691027477
-2.587435007 0.89041996 0.1412035525
-2.569710255 0.8853235245 0.2340749502
-2.543537855 0.8768031597 0.3252039552
-2.574123621 0.8883520365 0.4246146679
-2.582788467 0.8918474913 0.5228794217
-2.584257126 0.893363595 0.6213114262
-2.562246561 0.8867566586 0.7149102688
-2.530139208 0.87910676 -0.7061104178
-2.531001329 0.880397141 -0.6087141633
-2.565768003 0.8929933906 -0.5198264718
-2.562149525 0.8927360177 -0.4230503142
-2.579668045 0.8998498917 -0.3303224742
-2.569897652 0.8969448805 -0.2344235629
-2.573782682 0.8993086815 -0.140680179
-2.587835789 0.9052334428 -0.04715460539
-2.570680857 0.8936966658 0.04680555686
-2.571106672 0.8948514462 0.1404708475
-2.570523262 0.8951507211 0.2344235629
-2.538587332 0.8850236535 0.3249602318
-2.580332041 0.9005867243 0.4261790216
-2.583366394 0.9021521211 0.5236426592
-2.579283237 0.9017357826 0.6208614707
-2.566429377 0.8982473612 0.7169808149
-2.536168098 0.8911359906 -0.7086986303
-2.535265923 0.8918126822 -0.6105137467
-2.558931828 0.9006399512 -0.5190632939
-2.564607143 0.903643012 -0.4239889383
-2.569023371 0.9062078595 -0.3293475211
-2.574266195 0.9085631967 -0.235120818
-2.563095331 0.905625999 -0.1402615011
-2.573348999 0.910259366 -0.04694517702
-2.573204994 0.9046543241 0.04691027477
-2.560431719 0.9011679292 0.1400521696
-2.578658581 0.9080888629 0.2354694307
-2.53173852 0.8925589919 0.3244727552
-2.560407877 0.9036720395 0.4233632088
-2.591309309 0.9150862098 0.5259323716
-2.559584141 0.9048885703 0.616812408
-2.565099239 0.9078450799 0.7174984813
-2.525760651 0.8973964453 -0.7066280246
-2.53948164 0.9032700062 -0.6123133898
-2.544674873 0.9056174755 -0.5167735815
-2.570741177 0.9159051776 -0.425553292
-2.565844297 0.9151699543 -0.3293475211
-2.569202662 0.9168733358 -0.2349465042
-2.57120347 0.9185991883 -0.1408895403
-2.558858633 0.9151960611 -0.04673574865
-2.571915865 0.9143002629 0.04694517702
-2.561033726 0.9114394188 0.1402615011
-2.575473309 0.917083919 0.2354694307
-2.532346964 0.9027241468 0.3249602318
-2.562819481 0.9145953059 0.4243018329
-2.591796875 0.9254463911 0.5266956091
-2.567420244 0.917752862 0.6195118427
-2.565552235 0.9180958867 0.7185336947
-2.509886265 0.9016352296 -0.7030045986
-2.547315598 0.9160857797 -0.6150127649
-2.556276321 0.9198121428 -0.5198264718
-2.563811302 0.9235343337 -0.4249275625
-2.577573061 0.9295081496 -0.3312974572
-2.562238455 0.9244835973 -0.2345978767
-2.575495005 0.9302828312 -0.1413082182
-2.563170433 0.9268426895 -0.04687536508
-2.570590734 0.923948884 0.04698008299
-2.569112539 0.9244309068 0.1408895403
-2.572256088 0.9260691404 0.2354694307
-2.540385246 0.9155967236 0.3264226317
-2.567043781 0.9262174368 0.425553292
-2.59224391 0.9358212352 0.5274589062
-2.567866325 0.9280339479 0.6204116344
-2.551432371 0.9231017232 0.7154279351
-2.508539438 0.9110504389 -0.703522265
-2.540439367 0.9236403108 -0.6141129732
-2.55305028 0.9287291169 -0.5198264718
-2.549435139 0.9284225106 -0.4230503142
-2.574312925 0.9384999871 -0.3312974572
-2.555252075 0.9320563674 -0.2342492491
-2.564727783 0.936527133 -0.1408895403
-2.571188211 0.9399035573 -0.04708479717
-2.552313805 0.9274532795 0.04670084268
-2.577131748 0.9374892712 0.1415175647
-2.56526351 0.9336795807 0.235120818
-2.529713631 0.9217398763 0.3254477084
-2.569362164 0.9372032285 0.4264918864
-2.57789588 0.9408257604 0.5251691937
-2.568272114 0.9383294582 0.6213114262
-2.551823378 0.9333295822 0.7164632082
-2.510784149 0.9217986465 -0.7050751448
-2.526225567 0.9284685254 -0.6114135981
-2.564533472 0.9430565834 -0.5228794217
-2.549886703 0.9386803508 -0.4236761034
-2.574746609 0.9488531947 -0.331784904
-2.565068722 0.9457945228 -0.2354694307
-2.557695389 0.9440907836 -0.140680179
-2.57539463 0.9516454339 -0.0472244136
-2.564077377 0.941873014 0.04698008299
-2.562596083 0.9423441291 0.1408895403
-2.565728188 0.9440042973 0.2354694307
-2.522754908 0.9291930795 0.3249602318
-2.569782019 0.9475324154 0.4271176159
-2.583805561 0.9532161355 0.5270772576
-2.564981222 0.947288096 0.6213114262
-2.559421539 0.9462508559 0.7195689678
-2.51479578 0.9332465529 -0.7071456909
-2.526622772 0.9386383295 -0.6123133898
-2.550184488 0.9478986859 -0.5205897689
-2.561405182 0.9530864358 -0.4261790216
-2.560257196 0.9536768198 -0.3303224742
-2.571086407 0.9582222104 -0.2363409996
-2.56186986 0.9558051825 -0.1410988867
-2.568310738 0.9592303038 -0.04715460539
-2.557024956 0.9494249225 0.04691027477
-2.551802397 0.9485000968 0.1404708475
-2.573621988 0.9571210146 0.2365152985
-2.519495964 0.9379935265 0.3249602318
-2.564608097 0.9558078051 0.426804781
-2.582302094 0.9629155993 0.5274589062
-2.554356098 0.9535104632 0.6195118427
-2.563341618 0.9578835368 0.7216395736
-2.513331652 0.942696929 -0.7076632977
-2.526979208 0.9488227963 -0.6132131815
-2.539509058 0.9540325403 -0.5190632939
-2.565458536 0.9648037553 -0.4274305105
-2.564344168 0.9654057622 -0.3312974572
-2.556538582 0.9629773498 -0.2352951169
-2.562255383 0.9661513567 -0.1413082182
-2.553721428 0.9639517069 -0.04694517702
-2.57428956 0.9660734534 0.04729422554
-2.555955172 0.9602109194 0.1408895403
-2.570265532 0.966098845 0.2365152985
-2.531069994 0.9523747563 0.3269101381
-2.559407234 0.9640578628 0.4264918864
-2.586273909 0.9746925235 0.5289853215
-2.5564816 0.964484632 0.6208614707
-2.550945997 0.9634134173 0.7190513611
-2.513638496 0.9528340101 -0.7086986303
-2.538227797 0.9631683826 -0.616812408
-2.543504953 0.9656787515 -0.5205897689
-2.560228586 0.9730505943 -0.4271176159
-2.568379641 0.977175355 -0.3322723806
-2.549437761 0.970477283 -0.2349465042
-2.562599421 0.9765124321 -0.1415175647
-2.557814837 0.975710988 -0.04708479717
-2.565292358 0.9729261994 0.04718951136
-2.560056448 0.97196275 0.1413082182
-2.559427261 0.97223562 0.2358180583
-2.529585361 0.9619095325 0.3271538615
-2.554180384 0.9722825885 0.4261790216
-2.575516939 0.9809193611 0.5274589062
-2.56038332 0.9761789441 0.6226611137
-2.5457623 0.9716231823 0.7185336947
-2.499473095 0.9574561119 -0.7055928111
-2.531211376 0.9706271887 -0.6159126163
-2.547450542 0.9773643613 -0.5221162438
-2.543908119 0.9770239592 -0.4249275625
-2.572364569 0.9889836311 -0.3332473338
-2.549753666 0.9808012843 -0.2352951169
-2.559175491 0.9854511023 -0.1415175647
-2.578649282 0.9939842224 -0.04753855988
-2.563747883 0.9825905561 0.0472244136
-2.588348389 0.9930554032 0.1430876404
-2.561598301 0.9833051562 0.2363409996
-2.526212215 0.9707337022 0.3271538615
-2.559989214 0.9847385883 0.4277433455
-2.568412304 0.9884939194 0.5266956091
-2.564234018 0.9879128933 0.6244606972
-2.542355537 0.9805030823 0.7185336947
-2.521338463 0.9759375453 -0.7128397226
-2.513270855 0.973824203 -0.6123133898
-2.551345348 0.9890892506 -0.5236426592
-2.540482044 0.9858980179 -0.4249275625
-2.565196037 0.9965192676 -0.3327598572
-2.550028563 0.9911392331 -0.2356437296
-2.548274755 0.9914816022 -0.1410988867
-2.597524405 1.011687636 -0.04795741662
-2.606920719 1.009587884 0.04809703678
-2.60721302 1.010747671 0.1443437189
-2.556292534 0.9915204048 0.2361666709
-2.513556004 0.9759534597 0.325935185
-2.562059879 0.9958155751 0.4286819696
-2.564946175 0.9974527359 0.5266956091
-2.558954 0.9961508512 0.6240108609
-2.546117544 0.9921774864 0.7206043005
-2.50532198 0.9798078537 -0.7092162371
-2.51348567 0.9840115905 -0.6132131815
-2.544221401 0.9965571761 -0.5228794217
-2.551738024 1.000528097 -0.4274305105
-2.550614834 1.001115799 -0.3312974572
-2.555825949 1.003675938 -0.2365152985
-2.552233458 1.003293514 -0.1415175647
-2.593977213 1.020748615 -0.04795741662
-2.586621046 1.012123704 0.04778289422
-2.609247923 1.022027731 0.1446577311
-2.560236216 1.00334549 0.2368639261
-2.51752615 0.9876214266 0.3269101381
-2.560406923 1.005474925 0.4289948642
-2.577894449 1.012861609 0.5301302075
-2.544579744 1.000798345 0.6213114262
-2.549829006 1.003889918 0.7226748466
-2.494699955 0.985707581 -0.7071456909
-2.520908117 0.9970804453 -0.6159126163
-2.529773951 1.001097679 -0.5205897689
-2.555575848 1.01233995 -0.4286819696
-2.547105074 1.010012507 -0.3312974572
-2.556010962 1.014060855 -0.2368639261
-2.548716068 1.012195826 -0.1415175647
-2.614736795 1.038944483 -0.04841117933
-2.627704144 1.038789868 0.04862061143
-2.616987944 1.035082221 0.1452857554
-2.560423136 1.013742566 0.2372125536
-2.519599199 0.9985973835 0.3276413381
-2.546041012 1.009590626 0.4271176159
-2.576167822 1.022578359 0.5305117965
-2.544692993 1.011113048 0.6222112179
-2.542895317 1.010912657 0.7216395736
-2.496626616 0.996557653 -0.7086986303
-2.528446436 1.009770513 -0.6186119914
-2.526264429 1.00992167 -0.5205897689
-2.544868231 1.017874718 -0.4274305105
-2.558484554 1.024356246 -0.3332473338
-2.545058012 1.02001214 -0.2361666709
-2.560175657 1.026588917 -0.1423549354
-2.598103762 1.042850971 -0.04816684499
-2.616816044 1.044532657 0.04848098755
-2.592957497 1.03605938 0.1441343725
-2.540219545 1.01601541 0.2356437296
-2.525489092 1.010635018 0.3288600743
-2.549836159 1.021410704 0.4283691347
-2.569118023 1.02965498 0.529748559
-2.548560619 1.02244854 0.6240108609
-2.535766125 1.018342495 0.7206043005
-2.491516352 1.004109263 -0.708180964
-2.52490592 1.018591046 -0.6186119914
-2.533824682 1.022702456 -0.5228794217
-2.530310392 1.022311926 -0.425553292
-2.565934896 1.037746429 -0.3347097635
-2.537967682 1.026951671 -0.2358180583
-2.549171686 1.032520771 -0.1419362575
-2.618724108 1.06122458 -0.04862061143
-2.590898752 1.044687033 0.04806213081
-2.608029604 1.0521245 0.1451810896
-2.551616192 1.030401349 0.2370382249
-2.514584303 1.016467929 0.3278850913
-2.542772532 1.028378844 0.4277433455
-2.561869144 1.037142634 0.5289853215
-2.555812359 1.035729885 0.6267102361
-2.532375097 1.026745915 0.7206043005
-2.495153189 1.015713692 -0.7102515101
-2.507076025 1.021077394 -0.6150127649
-2.53751111 1.034505725 -0.5244059563
-2.530564308 1.032189369 -0.4261790216
-2.555128336 1.043248415 -0.3337348402
-2.541744709 1.038819075 -0.2365152985
-2.538339138 1.037944198 -0.1415175647
-2.596497297 1.062784195 -0.0482715629
-2.609645367 1.06232059 0.04848098755
-2.611739635 1.064235926 0.1455997676
-2.546158791 1.038550138 0.2368639261
-2.503848314 1.021801114 0.3269101381
-2.54831028 1.040984273 0.4293076992
-2.560233116 1.046375275 0.5293669701
-2.548756361 1.042723894 0.6258104444
-2.535926819 1.038507819 0.7226748466
-2.495344877 1.025451064 -0.7112868428
-2.507101297 1.031305313 -0.6159126163
-2.523173571 1.038431644 -0.5221162438
-2.534252167 1.04402566 -0.4274305105
-2.547800541 1.050647497 -0.3332473338
-2.551178455 1.052561402 -0.237735495
-2.538392544 1.04832387 -0.1417269111
-2.613287926 1.079788685 -0.04865551367
-2.639211893 1.085111022 0.04910927638
-2.606348991 1.072131157 0.1454951018
-2.561124325 1.054573298 0.238607049
-2.502101183 1.031291366 0.3271538615
-2.550323248 1.051687717 0.4302463233
-2.569267988 1.060549498 0.5320382714
-2.534294605 1.047149301 0.6231110096
-2.536039352 1.048387647 0.7237101197
-2.509593248 1.04156065 -0.7164632082
-2.514465809 1.044097424 -0.6186119914
-2.523159266 1.04873991 -0.5228794217
-2.545367718 1.058491826 -0.4299334586
-2.540637255 1.057564974 -0.3327598572
-2.538293123 1.05762887 -0.2368639261
-2.545963049 1.061346054 -0.1423549354
-2.618730307 1.092754006 -0.04883003607
-2.606047869 1.081592321 0.04855079576
-2.613656998 1.085820079 0.1461231261
-2.551908493 1.061211824 0.2380841076
-2.507831573 1.043395758 0.3283725679
-2.532047987 1.05450809 0.4277433455
-2.576610088 1.073594332 0.5343280435
-2.541599751 1.06004858 0.6258104444
-2.528799057 1.055745363 0.7226748466
-2.480998755 1.039859295 -0.7092162371
-2.514216185 1.054814339 -0.6195118427
-2.519483328 1.057540536 -0.5228794217
-2.530544043 1.063223004 -0.4280562401
-2.544063568 1.069948196 -0.3337348402
-2.534585953 1.066482782 -0.2368639261
-2.542055845 1.070670485 -0.1423549354
-2.830295563 1.193236113 -0.05291389674
-2.646325111 1.10969615 0.04938851297
-2.613343239 1.096937776 0.1463324726
-2.533492804 1.063941717 0.2366896123
-2.518630028 1.058735132 0.3303224742
-2.533628464 1.066079855 0.4286819696
-2.561800957 1.078461051 0.5320382714
-2.54128933 1.070869803 0.6267102361
-2.52135253 1.063505173 0.7216395736
-2.480911493 1.05001986 -0.7102515101
-2.510519266 1.063583612 -0.6195118427
-2.52662158 1.070926309 -0.5251691937
-2.523180485 1.070506096 -0.4274305105
-2.554930687 1.08502984 -0.3356847465
-2.534515381 1.076881409 -0.2372125536
-2.538303137 1.079537511 -0.1423549354
-2.610843658 1.111465216 -0.04883003607
-2.723457575 1.153235316 0.05092432722
-2.635242701 1.116966128 0.1477978826
-2.537100315 1.075890183 0.2373868525
-2.505782843 1.063641667 0.3291037679
-2.542618752 1.080324292 0.4308720827
-2.554407597 1.085860252 0.5312750936
-2.54650116 1.083549738 0.6289597154
-2.52473402 1.075327873 0.7237101197
-2.500324726 1.068542838 -0.7169808149
-2.494249344 1.066975355 -0.6163624525
-2.530087471 1.082829118 -0.5266956091
-2.523059607 1.080863595 -0.4280562401
-2.543829918 1.090811729 -0.3347097635
-2.530740499 1.085722566 -0.2372125536
-2.527178764 1.085238934 -0.1419362575
-2.601436615 1.118203044 -0.04872532189
-2.594385147 1.10927546 0.04855079576
-2.862684011 1.225174189 0.1609865427
-2.535161257 1.085523486 0.2375611663
-2.496580839 1.070035934 0.3283725679
-2.551539183 1.0946455 0.433062166
-2.554209709 1.09631896 0.5320382714
-2.537332058 1.090123773 0.6276100278
-2.524514675 1.085660815 0.7247454524
-2.491258621 1.074967384 -0.7154279351
-2.49945426 1.079539657 -0.6186119914
-2.519083977 1.088538766 -0.5251691937
-2.522897243 1.091232538 -0.4286819696
-2.540006638 1.099684715 -0.3347097635
-2.537904739 1.099301338 -0.2382584065
-2.534369469 1.098820806 -0.1425642818
-2.588345289 1.123296499 -0.04855079576
-2.575810194 1.111984372 0.0482715629
-2.658548832 1.14880383 0.1495773047
-2.54232955 1.099110126 0.238607049
-2.491009235 1.077955246 0.3281288445
-2.547702789 1.103545308 0.433062166
-2.55396986 1.10678947 0.5328015089
-2.529935837 1.097423077 0.6267102361
-2.531341553 1.099082828 0.727851212
-2.483948946 1.082113862 -0.7143926024
-2.501029968 1.090593934 -0.619961679
-2.515268803 1.097325444 -0.5251691937
-2.533555269 1.10635674 -0.4311849177
-2.536152363 1.108544946 -0.3347097635
-2.533858776 1.108595371 -0.2382584065
-2.534178019 1.109262586 -0.1427736282
-2.626535892 1.150781512 -0.049353607
-2.60490942 1.135351181 0.04889984801
-3.075567961 1.341764688 0.1736518443
-2.545781136 1.111166477 0.2393042892
-2.494507551 1.089822888 0.3291037679
-2.529356003 1.106100082 0.4305591881
-2.560883045 1.120418787 0.5350912213
-2.531445026 1.108592868 0.6280599236
-2.527489662 1.107912183 0.727851212
-2.472893 1.088098645 -0.7123220563
-2.509692907 1.104813814 -0.6231110096
-2.51482296 1.108120918 -0.5259323716
-2.524060965 1.113243818 -0.4302463233
-2.539531946 1.120596766 -0.3356847465
-2.5190382 1.11260426 -0.2372125536
-2.541055441 1.12338829 -0.1434016526
-2.655421019 1.174503446 -0.04998189583
-3.040213108 1.337725401 0.05727700517
-2.606595993 1.14801538 0.1470651776
-2.536222219 1.118078113 0.2387813479
-2.505218029 1.104933023 0.331053704
-2.523672581 1.114124179 0.4302463233
-2.549575806 1.126623869 0.5335647464
-2.539840221 1.123381495 0.6312092543
-2.509474039 1.11047411 0.7237101197
-2.472610712 1.098292589 -0.7133573294
-2.498503685 1.110838771 -0.6213114262
-2.518114805 1.12008357 -0.5274589062
-2.50933218 1.117226958 -0.4283691347
-2.546484709 1.134300232 -0.3371471465
-2.526057243 1.126258612 -0.2382584065
-2.529822826 1.128996253 -0.1429829746
-2.609307766 1.165014386 -0.0491790846
-2.589408875 1.150713444 0.04876022786
-2.611697435 1.16116488 0.147588551
-2.528663635 1.125304461 0.2384327203
-2.488458395 1.108453035 0.3293475211
-2.526985407 1.126142979 0.4314978123
-2.538456202 1.132317066 0.5320382714
-2.539659977 1.133386254 0.6321091056
-2.51263833 1.122378349 0.7257806659
-2.477769613 1.11043632 -0.7159455419
-2.491250753 1.117521644 -0.6204116344
-2.521551371 1.131643295 -0.5289853215
-2.512820959 1.128779888 -0.4296205938
-2.539088011 1.141111016 -0.3366596699
-2.527759552 1.137081265 -0.2387813479
-2.518780708 1.134098649 -0.1425642818
-2.875270367 1.29521513 -0.05434499681
-2.676812649 1.200200438 0.05050547048
-2.589609861 1.161643505 0.146541819
-2.535823584 1.138580203 0.239478603
-2.481147528 1.115071535 0.3288600743
-2.535848618 1.140187263 0.4336878955
-2.541848421 1.143951654 0.5335647464
-2.528779984 1.138600945 0.6303094625
-2.515947342 1.133879423 0.727851212
-2.477594137 1.120238781 -0.7169808149
-2.491081953 1.127383947 -0.6213114262
-2.514009237 1.138818145 -0.5282221437
-2.512662888 1.138736844 -0.4302463233
-2.527858496 1.14668715 -0.3356847465
-2.52921772 1.148368478 -0.2393042892
-2.514806271 1.142884612 -0.1425642818
-2.608599186 1.186058521 -0.04931870475
-2.84408164 1.286543131 0.05378652364
-2.598275185 1.176443219 0.147274524
-2.535663605 1.148627281 0.2398272157
-2.48285985 1.125752568 0.3295912445
-2.530054092 1.148215771 0.433375001
-2.541414976 1.154441476 0.5343280435
-2.51769352 1.144196868 0.6285098791
-2.522524834 1.147454262 0.7309570909
-2.47874403 1.131718516 -0.7185336947
-2.494022369 1.139747024 -0.6231110096
-2.499106169 1.143124938 -0.5259323716
-2.52284193 1.154514551 -0.4327492714
-2.530857325 1.159251094 -0.3366596699
-2.51955843 1.155139804 -0.2387813479
-2.521492243 1.157091737 -0.1431923211
-2.520637751 1.157232165 -0.04771308228
-2.599249125 1.187286496 0.0491790846
-2.675684452 1.223329544 0.1519847512
-2.535060406 1.159570932 0.2401758432
-2.487741709 1.138976932 0.3308099508
-2.520441532 1.155012488 0.4324364364
-2.544304371 1.167022467 0.5358544588
-2.517025471 1.155041933 0.6294096708
-2.511280298 1.153466821 0.7288864851
-2.472824812 1.139987826 -0.7180161476
-2.496906519 1.152145863 -0.6249106526
-2.498665333 1.153487206 -0.5266956091
-2.511420965 1.160438538 -0.4314978123
-2.533798456 1.171852589 -0.3376346231
-2.508278131 1.160581112 -0.2380841076
-2.524687052 1.169243693 -0.143610999
-2.520211697 1.167705178 -0.04778289422
-2.529508829 1.166654944 0.04792251065
-2.529944658 1.167390704 0.1438203603
-2.514514208 1.161336064 0.238607049
-2.494361877 1.153085113 0.3322723806
-2.516394615 1.163803458 0.4324364364
-2.536652088 1.174247384 0.5350912213
-2.523384094 1.169175029 0.6321091056
-2.505486012 1.161413431 0.7283688784
-2.47233367 1.150242686 -0.7190513611
-2.486004829 1.157130361 -0.6231110096
-2.505301476 1.167176843 -0.5289853215
-2.500397205 1.16542244 -0.4302463233
-2.533496618 1.181927204 -0.3381221294
-2.507822037 1.17101562 -0.2384327203
-2.520795822 1.177609563 -0.143610999
-2.534234762 1.184965372 -0.04813193902
-2.503869534 1.164914608 0.04750365391
-2.522232771 1.174529076 0.143610999
-2.519474506 1.17431426 0.239478603
-2.486926079 1.159672618 0.331784904
-2.521266937 1.176756859 0.4340007603
-2.529186487 1.18099153 0.5343280435
-2.528320551 1.181661606 0.6343585849
-2.503166199 1.170970678 0.7288864851
-2.466756344 1.157614112 -0.7185336947
-2.47842288 1.164144158 -0.6222112179
-2.512078285 1.180488348 -0.5312750936
-2.503463745 1.177507043 -0.4314978123
-2.525763273 1.189071774 -0.3376346231
-2.511134863 1.182721257 -0.2391299605
-2.513056993 1.184697747 -0.1434016526
-2.548377514 1.201892853 -0.04848098755
-2.519699574 1.182995439 0.04788760841
-2.529170752 1.187981009 0.1442390382
-2.51917243 1.18435812 0.2398272157
-2.475677967 1.164965749 0.3308099508
-2.517350674 1.185111284 0.4340007603
-2.532152414 1.193160176 0.5358544588
-2.511842251 1.184661508 0.6312092543
-2.509752274 1.184211373 0.7319923043
-2.469685078 1.16952455 -0.7206043005
-2.478070974 1.174025178 -0.6231110096
-2.507942438 1.189249396 -0.5312750936
-2.503114939 1.187495232 -0.4321235418
-2.502081394 1.188074946 -0.3349535167
-2.5213871 1.198321462 -0.2405244559
-2.509114504 1.193024874 -0.1434016526
-2.527915955 1.203047276 -0.04816684499
-2.521184683 1.193912268 0.04799232259
-2.510569811 1.189959288 0.1434016526
-2.529423714 1.199976325 0.241221711
-2.47538805 1.174871445 0.3312974572
-2.516767025 1.195586681 0.4346264899
-2.538820982 1.206607103 0.5381441712
-2.504380226 1.191310525 0.6303094625
-2.502115011 1.191303372 0.7309570909
-2.476252317 1.182703376 -0.7237101197
-2.484506845 1.187711239 -0.6258104444
-2.49690032 1.19417119 -0.529748559
-2.509644747 1.201343656 -0.4340007603
-2.508660078 1.201948047 -0.3364159465
-2.502816916 1.20022285 -0.2391299605
-2.515739441 1.206959844 -0.1440296918
-2.529109478 1.214460373 -0.0482715629
-2.518805981 1.203567743 0.04802722484
-2.504599571 1.197853446 0.1432970017
-2.521836281 1.206637859 0.2408730984
-2.478433609 1.186934114 0.3322723806
-2.505452633 1.200949788 0.433375001
-2.541674614 1.218856931 0.5396706462
-2.508990765 1.204261422 0.6325589418
-2.506648064 1.204212904 0.7335452437
-2.468420506 1.190093517 -0.7226748466
-2.489121914 1.200609684 -0.6280599236
-2.496042728 1.205021977 -0.5305117965
-2.501667738 1.208814502 -0.433375001
-2.51159811 1.214153528 -0.3373908997
-2.495025158 1.207216501 -0.2387813479
-2.51489377 1.217913389 -0.1442390382
-2.514056921 1.218049765 -0.04806213081
-2.518191814 1.214089751 0.04809703678
-2.512994289 1.212664962 0.1440296918
-2.51380825 1.2141397 0.2405244559
-2.484999657 1.200760365 0.3337348402
-2.506580591 1.212267756 0.4343136251
-2.530121803 1.224743605 0.5381441712
-2.508067846 1.215148091 0.6334587336
-2.493736744 1.208742976 0.7309570909
-2.465988636 1.199547887 -0.723192513
-2.482952595 1.208871722 -0.6276100278
-2.502411127 1.218885779 -0.5328015089
-2.486779213 1.212345719 -0.4314978123
-2.510699272 1.225092053 -0.3378783762
-2.496167421 1.218540549 -0.2393042892
-2.514216185 1.228438258 -0.1444483697
-2.514964819 1.229891539 -0.04816684499
-2.50293684 1.21806097 0.04788760841
-2.521101713 1.227989674 0.1447623968
-2.511345863 1.223780036 0.2406987846
-2.469876766 1.204639077 0.3322723806
-2.505670786 1.223179817 0.4349393547
-2.522302866 1.231844187 0.5373809338
-2.510813951 1.227318764 0.6352583766
-2.491025448 1.218723297 0.731474638
-2.463520288 1.208999515 -0.7237101197
-2.473470688 1.214953542 -0.6262603402
-2.498141289 1.227613449 -0.5328015089
-2.493167639 1.226249933 -0.433375001
-2.506407499 1.233848572 -0.3378783762
-2.500835657 1.231647968 -0.2401758432
-2.499164104 1.231908798 -0.1438203603
-2.498102903 1.232469678 -0.04792251065
-2.516799927 1.236782551 0.1447623968
-2.51599884 1.236933947 0.2415703386
-2.469218731 1.215006113 0.3327598572
-2.517335176 1.23977375 0.4377551973
-2.521510124 1.242376804 0.5381441712
-2.510009766 1.237800121 0.6361581683
-2.497150183 1.232541561 0.7345805168
-2.469672918 1.222734571 -0.7268159389
-2.470960379 1.224445939 -0.6267102361
-2.493840933 1.236326218 -0.5328015089
-2.488872051 1.234945297 -0.433375001
-2.498529911 1.240823627 -0.3373908997
-2.507226706 1.245689034 -0.241221711
-2.502001762 1.244182825 -0.1442390382
-2.547492266 1.267912626 -0.04896965623
-2.5033319 1.239942193 0.04806213081
-2.501730919 1.240237713 0.1441343725
-2.522375584 1.251020074 0.2426162064
-2.463184595 1.222735286 0.3325161338
-2.505915642 1.245037556 0.4365036786
-2.520673752 1.252918482 0.5389074087
-2.491715908 1.239609599 0.6325589418
-2.496290684 1.242973566 0.7356157899
-2.461933613 1.229620934 -0.7257806659
-2.480615854 1.240034699 -0.6303094625
-2.482486963 1.241510868 -0.5312750936
-2.493378162 1.248046517 -0.4349393547
-2.497732639 1.251316547 -0.3378783762
-2.502863407 1.254433393 -0.241221711
-2.504784822 1.256490469 -0.1446577311
-2.584154367 1.297433615 -0.04977246746
-2.844229937 1.421180487 0.05479875952
-2.554548979 1.277549624 0.1474838704
-2.514429092 1.258034706 0.2422675639
-2.47132659 1.237547398 0.3342222869
-2.492724419 1.24935174 0.4349393547
-2.530325174 1.268749118 0.5419603586
-2.497823954 1.25354445 0.6352583766
-2.491936922 1.251679063 0.7356157899
-2.450725317 1.234730363 -0.7237101197
-2.478012562 1.249562979 -0.6307593584
-2.481643677 1.25193727 -0.5320382714
-2.489006758 1.256741881 -0.4349393547
-2.50242877 1.264067054 -0.3390970826
-2.491357327 1.259566069 -0.2405244559
-2.511075974 1.270636797 -0.1452857554
