# .PCD v0.7 - Point Cloud Data file format
VERSION 0.7
FIELDS x y z
SIZE 4 4 4
TYPE F F F
COUNT 1 1 1
WIDTH 1261
HEIGHT 1
VIEWPOINT 0 0 0 1 0 0 0
POINTS 1261
DATA ascii
-0.07786086947 4.288970947 -1.137820601
-0.08337590098 4.637485504 -1.060865879
-0.09879507869 5.603802681 -1.081186652
-0.09691605717 5.608290195 -0.881716311
-0.09670758247 5.653337479 -0.6891058087
-0.09437379986 5.632017136 -0.489092648
-0.09279421717 5.655591011 -0.2942338884
-0.09182015806 5.656405926 -0.09804582596
-0.1025000513 5.646222115 0.09787129611
-0.100799717 5.661447048 0.2945478857
-0.09847927839 5.641910076 0.4899641871
-0.0970768407 5.617594242 0.6847185493
-0.09472172707 5.594497681 0.8795261383
-0.09292709827 5.603902817 1.081186652
-0.09068595618 5.586535931 1.279968143
-0.08928916603 5.560118675 1.478426456
-0.06398042291 4.312385559 -1.144032359
-0.07678639144 5.30025053 -1.213832498
-0.0801820159 5.602136612 -1.080805063
-0.0782886222 5.606605053 -0.8814033866
-0.07686356455 5.645700932 -0.6881309152
-0.07583183795 5.642259598 -0.4899641871
-0.07383108139 5.639891624 -0.2933965027
-0.0722291097 5.668688774 -0.09825524688
-0.08284757286 5.650544643 0.0979411155
-0.08086396009 5.649782658 0.2939198911
-0.08008044958 5.66411972 0.4918816388
-0.07719198614 5.598049641 0.6822811961
-0.07519389689 5.594793797 0.8795261383
-0.07441994548 5.610069752 1.082331538
-0.07211061567 5.58290863 1.279068351
-0.06983015686 5.556533813 1.477391243
-0.04890393093 4.310650349 -1.143514633
-0.05436445773 4.943888187 -1.131500363
-0.05869793892 5.604868889 -0.8810905218
-0.05695616081 5.626084805 -0.6856935024
-0.05611757934 5.640498161 -0.4897898734
-0.05412575603 5.63811779 -0.293291837
-0.05236575752 5.660908222 -0.09811563045
-0.06303482503 5.642800331 0.09780148417
-0.06101086736 5.638047695 0.293291837
-0.06022483483 5.656395912 0.4911843836
-0.05766962469 5.600270271 0.6825249195
-0.05558653548 5.587121487 0.8782746792
-0.0547776334 5.60440588 1.081186652
-0.05243969709 5.563639641 1.274569273
-0.05043498054 5.556743622 1.477391243
-0.03385756165 4.31079483 -1.143514633
-0.03577454388 4.766717911 -1.090559363
-0.03686750308 5.029304504 -0.9693725109
-0.03516271338 5.165712357 -0.6291461587
-0.03443101421 5.636274338 -0.2931871712
-0.03347568586 5.641054153 -0.09776658565
-0.04339731485 5.650985241 0.0979411155
-0.04228524119 5.634224415 0.2930825055
-0.04050696641 5.66055584 0.4915329814
-0.03816239536 5.606391907 0.6832561493
-0.03695230931 5.571472645 0.8757717609
-0.03530180454 5.618305683 1.083858013
-0.03403579071 5.571577549 1.276368856
-0.0319618322 5.549152851 1.475320578
-0.01952806115 4.303156376 -1.141444087
-0.01889890991 4.511527538 -1.031622171
-0.01832263544 4.564112186 -0.8789290786
-0.01879793592 5.129076481 -0.8056891561
-0.01800571196 5.157859802 -0.6281711459
-0.01459668484 4.646551609 -0.4028084278
-0.0157637056 5.644347191 -0.293605864
-0.0147780003 5.645133972 -0.09783639759
-0.02464141324 5.647098541 0.09787129611
-0.02363584004 5.642322063 0.2935011685
-0.02162968926 5.632766247 0.489092648
-0.0195787698 5.608472824 0.6834998727
-0.01847755164 5.571564674 0.8757717609
-0.01661932841 5.600722313 1.080423474
-0.01554981712 5.567762852 1.275469184
-0.0135327857 5.537637234 1.472214937
-0.005254622083 4.301265717 -1.14092648
-0.003961062524 4.53689909 -1.037470937
-0.002390611917 4.566111565 -0.8793106675
-0.001785079367 5.107380867 -0.8022475243
6.169661759e-08 5.173772335 -0.6301211119
0.001635827124 4.686421871 -0.4062946737
0.003931976855 5.6323843 -0.2929778397
0.00493132975 5.651150227 -0.0979411155
-0.005900695454 5.635151386 0.09766186774
-0.003936025314 5.638376236 0.293291837
-0.002948043169 5.630815029 0.4889183342
-0.0009773575002 5.600566864 0.6825249195
0.0009694339824 5.569619656 0.8754589558
0.00293140579 5.598783016 1.080041766
0.003889599117 5.571680069 1.276368856
0.005794687197 5.533787251 1.471179605
0.01054714993 4.316710472 -1.145067453
0.01265236642 4.531036854 -1.03612113
0.014368698 4.573942184 -0.8808370829
0.01694882847 5.111304283 -0.8028733134
0.01893264055 5.165797234 -0.6291461587
0.01898732036 4.73021698 -0.4101295173
0.0245422516 5.624343395 -0.2925591469
0.02563347295 5.649094105 -0.09790620208
0.0147362547 5.629136086 0.09755715728
0.01671658456 5.634357929 0.2930825055
0.01768869907 5.630787849 0.4889183342
0.01947229728 5.578697205 0.6798437834
0.02142511122 5.579455376 0.8770232201
0.02345071174 5.598734379 1.080041766
0.0242782142 5.563833714 1.274569273
0.02613038756 5.545320034 1.474285364
0.0267473571 4.378461361 -1.161631942
0.02929827198 4.536806107 -1.037470937
0.03023170121 4.558158875 -0.8777841926
0.03582179546 5.130960941 -0.8060019612
0.03517104313 4.686290741 -0.4062946737
0.04410811514 5.616234303 -0.2921404541
0.04630690441 5.644963264 -0.09783639759
0.03537929058 5.631043911 0.09759206325
0.03726289794 5.618281364 0.2922451198
0.03835232556 5.634669304 0.489266932
0.03996315598 5.584543228 0.6805750132
0.04176968709 5.565512657 0.8748331666
0.04288975894 5.58487606 1.077370524
0.04457541555 5.552015305 1.271869898
0.04638886824 5.537459373 1.472214937
0.04154781252 4.328115463 -1.148173332
0.04496122897 4.519138336 -1.033421755
0.04610175267 4.554098606 -0.8770209551
0.05369196087 5.126853466 -0.8053762317
0.05218751729 4.745907307 -0.4115240574
0.06375897676 5.62003994 -0.2923497856
0.06584635377 5.630770206 -0.09759206325
0.05511476472 5.638884544 0.09773167968
0.0568325147 5.614122391 0.2920357883
0.05798122659 5.630517006 0.4889183342
0.05939203128 5.578414917 0.6798437834
0.06102440879 5.549530506 0.8723301888
0.0623831749 5.584692478 1.077370524
0.06395677477 5.551826 1.271869898
0.06571940333 5.53726387 1.472214937
0.05680837482 4.339533806 -1.151279211
0.06104683504 4.542336941 -1.038820624
0.06205290928 4.557836533 -0.8777841926
0.07158417255 5.126635075 -0.8053762317
0.07512302697 5.248668194 -0.6393831372
0.07019326836 4.845305443 -0.4202395976
0.08343694359 5.623777866 -0.2925591469
0.08451717347 5.630520821 -0.09759206325
0.07463748008 5.626660824 0.09752225131
0.07555554062 5.621891499 0.2924544513
0.07741677761 5.614342213 0.487523824
0.07906189561 5.592067719 0.6815499663
0.07936932892 5.545347214 0.8717044592
0.08202240616 5.594255924 1.079278588
0.08333206177 5.551568508 1.271869898
0.08373080194 5.513835907 1.46600318
0.07198487967 4.341240406 -1.151796818
0.07607803494 4.540160179 -1.038370609
0.07792564481 4.555629253 -0.8774026036
0.08339794725 4.82615757 -0.7578201294
0.0928041935 5.264268875 -0.6413331032
0.08710740507 4.845030785 -0.4202395976
0.1018696427 5.611488342 -0.2919311225
0.1038394049 5.612197399 -0.09727791697
0.09309569746 5.614385128 0.09731282294
0.09531588852 5.629581928 0.292873174
0.09701283276 5.614037991 0.487523824
0.09743107855 5.581850529 0.6803312302
0.09883005172 5.550961494 0.8726431131
0.1004308984 5.586101532 1.077752113
0.1017428041 5.551261902 1.271869898
0.1029786468 5.51350975 1.46600318
0.09125622362 4.506745815 -1.03072238
0.09319384396 4.563197136 -0.8789290786
0.1063988879 5.122079372 -0.8047505021
0.111683771 5.287727833 -0.6442579031
0.1017326489 4.77698946 -0.4143129885
0.1211935952 5.599117756 -0.2913030684
0.1235157549 5.615798473 -0.09734772146
0.112694487 5.61402607 0.09731282294
0.114638783 5.613239765 0.2920357883
0.1156279966 5.613685131 0.487523824
0.1164978817 5.561630249 0.677893877
0.1182494536 5.552557468 0.8729559183
0.1196753904 5.573940277 1.075462461
0.120951131 5.543079853 1.270070314
0.1222199649 5.513116837 1.46600318
0.1070468128 4.576271534 -1.214948654
0.1072615609 4.518088818 -1.033421755
0.1089352593 4.554993629 -0.8774026036
0.124034524 5.111802578 -0.8031861186
0.1188097596 4.826904297 -0.5877105594
0.1172185987 4.728802681 -0.4101295173
0.1408392936 5.60265398 -0.2915124297
0.1434249878 5.627327442 -0.09755715728
0.1323861331 5.617597103 0.09738263488
0.1340424269 5.604818821 0.2916170955
0.1353201717 5.617230892 0.4878724515
0.1359123737 5.561189651 0.677893877
0.1375290453 5.548161507 0.8723301888
0.1393288076 5.581339359 1.076988935
0.1400023103 5.530935287 1.26737082
0.1417624205 5.524244308 1.469109058
0.1229177192 4.572007656 -1.213913441
0.1229801252 4.515738964 -1.032971859
0.1245129555 4.542809963 -0.8751128912
0.1416593939 5.103439808 -0.8019346595
0.1561256796 5.554701328 -0.6771626472
0.134514302 4.75624609 -0.4125698805
0.1602798551 5.598135471 -0.2913030684
0.162605226 5.610802174 -0.09727791697
0.1519932151 5.617100716 0.09738263488
0.1534981132 5.6003232 0.2914077342
0.1544864774 5.600790977 0.4864779413
0.1553252041 5.560681343 0.677893877
0.1563937962 5.529876232 0.8695144057
0.1589236408 5.5847435 1.077752113
0.1594191045 5.53430891 1.268270731
0.1607058048 5.512129307 1.46600318
0.1384038478 4.55610323 -1.209772229
0.1391004026 4.526968956 -1.035671353
0.1401238889 4.534498692 -0.8735864162
0.1574380249 5.037759304 -0.7916100025
0.1691830903 5.353727818 -0.6525450349
0.1510538608 4.753756523 -0.4123955667
0.1799497753 5.601534367 -0.2915124297
0.1821235269 5.608201981 -0.09724301845
0.1713568717 5.608541489 0.09724301845
0.1730421185 5.59975338 0.2914077342
0.1737899035 5.592252254 0.4857807159
0.1749205291 5.566057205 0.6786250472
0.1755717099 5.52534771 0.8688886166
0.1780397296 5.572381496 1.075462461
0.1787379384 5.533718586 1.268270731
0.1796950549 5.503811836 1.463932633
0.1540463865 4.547869205 -1.207701683
0.1550361216 4.530351162 -1.036571026
0.1563575417 4.545754433 -0.8758761287
0.1711111665 4.924650669 -0.7737765312
0.1737025231 4.974216461 -0.6059910059
0.1682777256 4.771121025 -0.4139643908
0.1993609816 5.596879959 -0.2913030684
0.200861901 5.611563683 -0.09731282294
0.190523833 5.595917225 0.09703358263
0.1918853968 5.607133389 0.291826427
0.193308264 5.591611385 0.4857807159
0.1941396296 5.559461117 0.677893877
0.1941694915 5.532631397 0.8701400757
0.197071448 5.55995369 1.073172688
0.1972277164 5.536990643 1.269170523
0.1979442686 5.503185749 1.463932633
0.1692716926 4.551194668 -1.208737016
0.1693995893 4.512286186 -1.032521963
0.1718021631 4.555020332 -0.8777841926
0.1882688701 4.94576931 -0.7772180438
0.1901980489 4.973612785 -0.6059910059
0.213449195 5.531063557 -0.480551362
0.2171388716 5.576231003 -0.2902563512
0.2187675387 5.59288311 -0.09699867666
0.2090783864 5.595254898 0.09703358263
0.2100275904 5.594491482 0.2911984026
0.2119994164 5.594922066 0.4861293435
0.2121208161 5.54688549 0.6764314771
0.2124383599 5.529983997 0.8698272705
0.2153572738 5.555346012 1.072409391
0.2152808905 5.528516769 1.26737082
0.2160422355 5.498638153 1.462897301
0.1840493232 4.542886734 -1.20666647
0.1838858128 4.500016689 -1.029822588
0.1870534122 4.538700104 -0.8747313023
0.204667598 4.945117474 -0.7772180438
0.2073914111 4.968951225 -0.6055034995
0.2033470422 4.83157444 -0.4193680286
0.2366037071 5.575438499 -0.2902563512
0.2388837934 5.606070995 -0.09724301845
0.2275520265 5.592532158 0.09699867666
0.2292286456 5.58574152 0.2907797098
0.2305532396 5.594188213 0.4861293435
0.2303477973 5.54218483 0.6759439707
0.2314108908 5.521314144 0.8685758114
0.2350781262 5.562406063 1.073935866
0.234083429 5.516049385 1.264671445
0.23523359 5.497850418 1.462897301
0.2005292326 4.538321972 -1.205631256
0.2011572421 4.516833305 -1.033871651
0.2029842287 4.522293568 -0.8716782928
0.2231455743 4.952227592 -0.7784695029
0.2254233062 4.964191914 -0.6050159931
0.2530231178 5.529394627 -0.480551362
0.2575878501 5.586505413 -0.2908844054
0.2582289577 5.579189301 -0.09678925574
0.2484927028 5.601649761 0.09717320651
0.2497012913 5.584863663 0.2907797098
0.2508781552 5.589324474 0.4857807159
0.2506607771 5.541302681 0.6759439707
0.2511050403 5.508588791 0.8666985631
0.2554652393 5.561507225 1.073935866
0.2541184425 5.511261463 1.263771653
0.254846096 5.485372543 1.459791541
0.2156830728 4.506682396 -1.197348952
0.2175222635 4.512173176 -1.032971859
0.2191472948 4.529401302 -0.8732047677
0.2411038727 4.947431087 -0.777843833
0.2441992611 4.97522831 -0.6064783931
0.2377197593 4.826015949 -0.4190194309
0.2770883143 5.585571766 -0.2908844054
0.2794729769 5.594182968 -0.0970684886
0.2688289583 5.59670639 0.09710339457
0.2703609765 5.587901115 0.2909890711
0.2707813382 5.576426983 0.4847348332
0.2716465592 5.554225922 0.6776501536
0.2711975873 5.505658627 0.8663856983
0.2744880915 5.552738667 1.072409391
0.2747055292 5.518078327 1.265571237
0.2747546136 5.480543137 1.458756328
0.2312159985 4.50204277 -1.19631362
0.2321656197 4.48997879 -1.028022885
0.2349577248 4.528608799 -0.8732047677
0.2579589486 4.938668251 -0.7765922546
0.2622931898 4.988222122 -0.608184576
0.2515191734 4.767457485 -0.4139643908
0.2964794934 5.582575798 -0.2907797098
0.2981461287 5.577198982 -0.09678925574
0.2873331904 5.575763702 0.09675434232
0.2896592617 5.582933903 0.2907797098
0.289829582 5.567489624 0.4840376079
0.2903070152 5.539367199 0.6759439707
0.2906212211 5.5086236 0.8670114279
0.2932478786 5.539983273 1.070119739
0.293964386 5.517086029 1.265571237
0.2936781645 5.475692272 1.457720995
0.2468207777 4.499279976 -1.195796013
0.2478383631 4.489140511 -1.028022885
0.2511952519 4.53560257 -0.8747313023
0.2756375968 4.945627213 -0.777843833
0.2787214816 4.985343456 -0.6079408526
0.2677127719 4.758593082 -0.4132671654
0.3147216141 5.559572697 -0.2896283269
0.3176583052 5.594147205 -0.09710339457
0.3067959547 5.574726582 0.09675434232
0.3079500496 5.577954292 0.2905703783
0.3095950186 5.572412014 0.4845605493
0.3089725673 5.526428699 0.6744815111
0.3089990318 5.50960207 0.8673243523
0.3125804365 5.538926125 1.070119739
0.3121494353 5.514134884 1.265121341
0.3122702837 5.482403278 1.459791541
0.261965245 4.502293587 -1.196831346
0.2627247572 4.488294125 -1.028022885
0.2657754421 4.526904583 -0.8732047677
0.2925035655 4.952573299 -0.7790952921
0.2944316566 4.970520496 -0.6062346697
0.2821890712 4.735801697 -0.4113497138
0.3329159915 5.554510593 -0.2894189656
0.3346491158 5.567113876 -0.09664962441
0.3257456422 5.581664085 0.0968939662
0.3257467747 5.564939499 0.2899423242
0.3280709982 5.571354389 0.4845605493
0.3270639181 5.521409988 0.6739940047
0.3272667229 5.508546829 0.8673243523
0.3309479952 5.537858963 1.070119739
0.3292662501 5.493617058 1.260622382
0.3306829333 5.485194683 1.460826755
0.2761813998 4.489831448 -1.193725586
0.2776061296 4.487398148 -1.028022885
0.2795692086 4.506403446 -0.8693885803
0.3094163239 4.959462643 -0.7803467512
0.3031028807 4.84469986 -0.5908791423
0.2973906696 4.726886272 -0.4106524587
0.3523439467 5.569322109 -0.2902563512
0.3524743617 5.555995464 -0.09647510946
0.3442548513 5.580553055 0.0968939662
0.3439512253 5.559841633 0.2897329926
0.3465459943 5.570235729 0.4845605493
0.3458665013 5.528220177 0.6749690175
0.3444202244 5.48968792 0.8645085096
0.3495565355 5.540649891 1.070883036
0.3476065099 5.494439602 1.261072278
0.3481336832 5.472499847 1.457720995
0.2888198495 4.454189777 -1.184407949
0.2937500775 4.505899906 -1.032521963
0.2950249314 4.513288498 -0.8709151149
0.3258597851 4.958409309 -0.7803467512
0.3296099305 5.002131462 -0.6103782654
0.3153041005 4.759670734 -0.4136157632
0.3697477281 5.55218029 -0.2894189656
0.3708983064 5.554795742 -0.09647510946
0.3614602089 5.559425354 0.09654491395
0.3626425564 5.562656879 0.2899423242
0.3641023636 5.555139065 0.4833403528
0.3645899296 5.53298521 0.6757002473
0.362751931 5.490486145 0.8648213148
0.3674091399 5.531624794 1.069356561
0.3658237159 5.493257046 1.261072278
0.3655065 5.459750175 1.454615116
0.3063167632 4.458830357 -1.185960889
0.3103791773 4.495017529 -1.030272484
0.312487036 4.514080524 -0.8712967038
0.3366687298 4.83888483 -0.761574626
0.3495497704 4.99878788 -0.610134542
0.3388686776 4.83395052 -0.4202395976
0.3913458884 5.554704666 -0.2896283269
0.3925048411 5.557319641 -0.09654491395
0.3819811046 5.546027184 0.09633549303
0.3842754364 5.565208435 0.2901516855
0.3857071102 5.557675362 0.4836890101
0.3848641515 5.517682076 0.6739940047
0.3834190965 5.483140945 0.8638827205
0.3872686923 5.510589123 1.065540314
0.3882851899 5.497575283 1.262421966
0.3867393136 5.462160587 1.455650449
0.3225759566 4.467368126 -1.188549161
0.3242999315 4.480358124 -1.027123094
0.3286706805 4.518836498 -0.8724415898
0.3630566895 4.979592323 -0.7841011882
0.3661234081 4.997601509 -0.610134542
0.3557415307 4.8327384 -0.4202395976
0.4082929492 5.533457756 -0.2885816097
0.4121956825 5.559905052 -0.09661472589
0.4006572068 5.548718929 0.09640529752
0.4031226039 5.555864334 0.2897329926
0.4055381119 5.562256813 0.4842118919
0.4027268291 5.510436535 0.6732628345
0.403568089 5.495560169 0.8660727739
0.4061183631 5.517106056 1.067066789
0.4062251151 5.492370605 1.261522055
0.4055185616 5.456924438 1.454615116
0.3400091231 4.500948429 -1.197866559
0.3403787613 4.485028267 -1.0284729
0.3479735553 4.574492455 -0.8835085034
0.3789303005 4.958598137 -0.7809724808
0.3835650384 4.996293068 -0.610134542
0.368707478 4.791801929 -0.4167533815
0.4276047051 5.531999111 -0.2885816097
0.4309831262 5.550457478 -0.09647510946
0.4206261039 5.555262089 0.09654491395
0.421303302 5.538491726 0.288895607
0.424282819 5.564854622 0.4845605493
0.4218091965 5.507017136 0.6730191112
0.4221413434 5.48623991 0.8648213148
0.4253756106 5.515654564 1.067066789
0.4241892397 5.475376606 1.257922888
0.4254625142 5.467031479 1.457720995
0.3622637689 4.58254528 -1.220125079
0.3672940135 4.62562418 -1.061315656
0.3765535951 4.731771946 -0.9144195318
0.4081998467 5.106896877 -0.8047505021
0.3790415227 4.711046696 -0.4097809196
0.447396487 5.536445141 -0.288895607
0.4492217004 5.534966946 -0.09623077512
0.4400165081 5.553760052 0.09654491395
0.4409494102 5.540969849 0.2891049683
0.4424394667 5.547451019 0.4831660688
0.4410285354 5.505511761 0.6730191112
0.4401818216 5.470950127 0.8626312613
0.4452562928 5.521964073 1.068593264
0.443143487 5.471920013 1.257473111
0.4429787695 5.446258068 1.45254457
0.3777798116 4.575476646 -1.21857214
0.4042103887 4.87484169 -1.119353056
0.452406466 5.444555759 -1.053710103
0.4590397477 5.501115799 -0.8676371574
0.4643552005 5.541442871 -0.6776501536
0.3921484649 4.669986248 -0.4062946737
0.4670566916 5.53883028 -0.2891049683
0.4693846405 5.543328285 -0.09640529752
0.4587393403 5.544219017 0.09640529752
0.4606178999 5.543377399 0.2893142998
0.46179986 5.545872688 0.4831660688
0.4605733752 5.50789547 0.6735065579
0.4594404697 5.471348286 0.8629441261
0.4635425508 5.508637905 1.066303492
0.4624042511 5.472281456 1.257922888
0.4613351524 5.436978817 1.450474024
0.3940792978 4.577980042 -1.219607472
0.4281058908 4.95300293 -1.137799144
0.4751344621 5.485973835 -1.062105775
0.4778986275 5.495544434 -0.8670114279
0.483694464 5.539788723 -0.6776501536
0.40428105 4.620954037 -0.4021112025
0.4856877029 5.52920723 -0.2886862755
0.4885548353 5.539664268 -0.09637039155
0.477059871 5.530630112 0.0961958617
0.4799639583 5.541735649 0.2893142998
0.4801236391 5.532317162 0.4821201861
0.4794509113 5.502298832 0.6730191112
0.4783655405 5.467743397 0.8626312613
0.4813930988 5.491340637 1.063250661
0.4821881354 5.4783988 1.259722471
0.4809899926 5.443032742 1.45254457
0.41833359 4.668935776 -1.244454145
0.4879905879 5.425058842 -1.247575164
0.4951637685 5.494058132 -1.064013839
0.4970775843 5.493842602 -0.8670114279
0.5023121834 5.53015852 -0.6766752005
0.4211300313 4.627450943 -0.4028084278
0.5033513308 5.509577751 -0.2877442241
0.5071572065 5.529959679 -0.09623077512
0.4956460893 5.520964146 0.09605624527
0.4985896349 5.532069683 0.288895607
0.500506103 5.542513371 0.4831660688
0.4972222745 5.48477602 0.6710692048
0.4983426034 5.475876331 0.8641956449
0.5005599856 5.489626408 1.063250661
0.5005967021 5.468920231 1.257922888
0.4999882281 5.441320419 1.45254457
0.2608854175 2.801622391 -0.7423450947
0.5092837214 5.448545933 -1.253423929
0.5132417679 5.480567932 -1.061724186
0.5166228414 5.496006966 -0.8676371574
0.5201174617 5.512560844 -0.6747252345
0.5218443274 5.520533085 -0.4814229608
0.5225765109 5.507787228 -0.2877442241
0.5257004499 5.5201931 -0.09609115869
0.5163997412 5.535129547 0.09633549303
0.5167812705 5.518363953 0.2882675827
0.5194765925 5.536765575 0.4828174114
0.5163661242 5.483006477 0.6710692048
0.516897738 5.468203545 0.8632570505
0.5200909376 5.491754532 1.064013839
0.518394351 5.453559399 1.254773617
0.5189751983 5.439542294 1.45254457
0.2658311129 2.75069952 -0.7288864851
0.5277366638 5.440916061 -1.252074242
0.5306593776 5.461156845 -1.058289647
0.5361893177 5.498102665 -0.8682629466
0.539358139 5.51071167 -0.6747252345
0.541890502 5.526609421 -0.4821201861
0.5425829291 5.513880253 -0.2881629169
0.544965148 5.518324375 -0.09609115869
0.5353338718 5.529312134 0.09626568109
0.5360396504 5.516527176 0.2882675827
0.5391879082 5.538884163 0.4831660688
0.5358871818 5.485122204 0.6715566516
0.5344414711 5.450638294 0.8607540131
0.5396403074 5.493813515 1.064777136
0.537620306 5.453655243 1.255223513
0.5375806689 5.433852196 1.451509237
0.4672042131 4.664298534 -1.244454145
0.5503106713 5.465131283 -1.059434414
0.5541826487 5.484405994 -0.8663856983
0.5585923195 5.508795261 -0.6747252345
0.5587587953 5.500897884 -0.4800284207
0.5618281364 5.5119524 -0.2881629169
0.5652431846 5.526334763 -0.09626568109
0.554230988 5.523430347 0.0961958617
0.5552940965 5.514621735 0.2882675827
0.5561182499 5.513180733 0.4810743034
0.5554318428 5.487167835 0.672044158
0.5534607172 5.448739529 0.8607540131
0.5580204725 5.484083652 1.063250661
0.5574418902 5.459500313 1.257023096
0.5545774698 5.412724972 1.446332932
0.5626809001 5.408024788 -1.245325685
0.5691769719 5.461225033 -1.059052825
0.5729139447 5.478507996 -0.8657599688
0.5782313943 5.510761261 -0.6752127409
0.5783751011 5.502877235 -0.4803770781
0.5808544159 5.507971764 -0.2880582511
0.5833548903 5.522441387 -0.09623077512
0.5726830959 5.513505936 0.09605624527
0.5739904642 5.516723156 0.288476944
0.5757747293 5.515169144 0.4814229608
0.5737512112 5.477299213 0.6710692048
0.572352469 5.454732895 0.8620054722
0.5755118728 5.466483116 1.060197592
0.5764971375 5.457520962 1.257023096
0.5733383298 5.418540955 1.448403478
0.4997535646 4.660923481 -1.244454145
0.5775114894 5.359654903 -1.03959024
0.5900198221 5.466758251 -0.8641956449
0.59650141 5.508813381 -0.6752127409
0.597579062 5.500824928 -0.4803770781
0.5980349779 5.496087551 -0.2875348926
0.6024100184 5.518383503 -0.0961958617
0.5905359387 5.507600784 0.09598644078
0.5928155184 5.510714531 0.2882675827
0.5950242281 5.51312542 0.4814229608
0.5902060866 5.459577084 0.6691192389
0.5920299888 5.458592892 0.8629441261
0.5944858789 5.472351551 1.061724186
0.5933263898 5.443955898 1.254323721
0.5926653147 5.420347214 1.449438691
0.510961771 4.620837212 -1.234101295
0.5960389376 5.373080254 -1.238127232
0.5961502194 5.365514755 -1.041116714
0.6086574197 5.460739136 -0.8635698557
0.613522768 5.486969471 -0.6727753878
0.6162595153 5.502772808 -0.4807256758
0.6172177196 5.493966103 -0.2875348926
0.6216706038 5.516247272 -0.0961958617
0.6097589731 5.505505562 0.09598644078
0.6111671925 5.500671387 0.2878488898
0.6141834855 5.519042969 0.4821201861
0.6101424694 5.465374947 0.6700942516
0.6099774837 5.446678162 0.8613798022
0.6135857701 5.470242977 1.061724186
0.6114529967 5.434105396 1.252524137
0.6111503243 5.414406776 1.448403478
0.5314679742 4.65741396 -1.244454145
0.615547955 5.369252205 -1.0422616
0.6281680465 5.462506294 -0.8641956449
0.6331259012 5.488738537 -0.6732628345
0.6350082159 5.496629715 -0.4803770781
0.6373099089 5.499714375 -0.2879535556
0.6381530166 5.490207195 -0.09577701241
0.6298801303 5.51129055 0.09612605721
0.6299108267 5.494535446 0.2876395583
0.6325345635 5.508947849 0.4814229608
0.6296721697 5.467155933 0.6705816984
0.6280809045 5.436666489 0.8601283431
0.6331294775 5.471967697 1.062487364
0.6299674511 5.428067207 1.251624346
0.630491972 5.416078091 1.449438691
0.6255425215 5.30105257 -1.222380638
0.6294440627 5.326128483 -1.034247637
0.6476957798 5.464203358 -0.8648213148
0.6527514458 5.490437031 -0.6737502813
0.6523080468 5.478551388 -0.4789825678
0.6565051079 5.497456074 -0.2879535556
0.6585013866 5.497873783 -0.09595153481
0.6491156816 5.509057999 0.09612605721
0.6500204206 5.500237942 0.2880582511
0.6503568888 5.4948349 0.4803770781
0.6492191553 5.468867302 0.6710692048
0.6470559835 5.43444109 0.8601283431
0.6517603397 5.465826035 1.061724186
0.6493753195 5.429704189 1.252524137
0.6470944881 5.394662857 1.444262385
0.5639699101 4.653590202 -1.244454145
0.6384011507 5.252408504 -1.211583018
0.6572848558 5.399904251 -1.049130797
0.6655701399 5.452105045 -0.8632570505
0.6723940372 5.492066383 -0.6742377877
0.6723966002 5.484152317 -0.4796798229
0.6747146249 5.487202168 -0.2875348926
0.6784216166 5.501495838 -0.09605624527
0.6664133072 5.490877151 0.0958468169
0.6696999669 5.501900196 0.2882675827
0.670014441 5.496486187 0.4807256758
0.6675812602 5.460656643 0.670337975
0.6665013433 5.436069965 0.8607540131
0.6684418917 5.444031715 1.057908058
0.6695142984 5.437075615 1.254773617
0.6659228206 5.392370701 1.444262385
0.5735142827 4.59791708 -1.229960203
0.6817414165 5.442382336 -1.057908058
0.6850913167 5.453668118 -0.8638827205
0.6905698776 5.481807232 -0.6732628345
0.6915372014 5.481771469 -0.4796798229
0.6923618913 5.472923756 -0.2869068384
0.6993818283 5.512980938 -0.09630057961
0.68508178 5.484549046 0.09577701241
0.6884034872 5.495565891 0.2880582511
0.6891981363 5.494113922 0.4807256758
0.6853984594 5.448444843 0.6691192389
0.6849797368 5.429790974 0.8601283431
0.6884241104 5.449456692 1.059434414
0.6877558231 5.428905487 1.253423929
0.6852275133 5.393846989 1.445297718
0.5925114751 4.618880749 -1.236171842
0.6705790162 5.213032722 -1.203484774
0.6984786987 5.422444344 -1.0544734
0.7041227818 5.451243877 -0.8638827205
0.7081696987 5.467552185 -0.6718004346
0.7124606371 5.493155003 -0.4809000194
0.7117182612 5.472455025 -0.287011534
0.7186229825 5.510506153 -0.09630057961
0.7057498097 5.49402523 0.09598644078
0.7052873373 5.475301266 0.2871161997
0.7099001408 5.503530979 0.4817715585
0.7049236894 5.449957371 0.6696067452
0.7039279938 5.42736721 0.8601283431
0.7079492211 5.450913906 1.060197592
0.7056943178 5.41874218 1.251624346
0.7050507665 5.399084091 1.447368264
0.6025699973 4.570818424 -1.223748565
0.7148213387 5.407717228 -1.249374747
0.7158580422 5.408295155 -1.052183747
0.7221088409 5.440919876 -0.8626312613
0.7282969952 5.472917557 -0.6727753878
0.7308430076 5.48470974 -0.4803770781
0.73160851 5.475875854 -0.2873255312
0.7362622619 5.496072292 -0.09609115869
0.7254454494 5.495492935 0.09605624527
0.7254451513 5.480725765 0.2875348926
0.7291055322 5.501019478 0.4817715585
0.7244676948 5.451398373 0.6700942516
0.7218264341 5.417043686 0.8588768244
0.7280122638 5.45619297 1.061724186
0.724347949 5.414313793 1.251174331
0.7233780026 5.392760754 1.446332932
0.6180043221 4.56485796 -1.222713232
0.7116721272 5.242983341 -1.211583018
0.7342022061 5.401873112 -1.05142045
0.7405595779 5.43445158 -0.8620054722
0.7473980188 5.470341682 -0.6727753878
0.7478220463 5.466332912 -0.4789825678
0.7528911829 5.489118576 -0.2881629169
0.7546241879 5.487525463 -0.09598644078
0.7443567514 5.490945816 0.09602134675
0.7445709109 5.478160381 0.2875348926
0.7461553812 5.482647419 0.4803770781
0.7440279126 5.452770233 0.6705816984
0.7407298684 5.414491653 0.8588768244
0.7459865808 5.445838451 1.060197592
0.7443050742 5.419475079 1.252974033
0.7411451936 5.382547855 1.444262385
0.6371264458 4.585634708 -1.22892499
0.7506723404 5.389084816 -1.246225476
0.754140079 5.407055378 -1.052946925
0.7581585646 5.422051907 -0.8604412079
0.7670385242 5.471631527 -0.6732628345
0.7680052519 5.471582413 -0.4796798229
0.771489501 5.482501507 -0.2879535556
0.7743347287 5.488817692 -0.09605624527
0.7615892291 5.474449635 0.09577701241
0.7650696635 5.48541832 0.2880582511
0.7647365332 5.476063251 0.4800284207
0.7625080347 5.446208 0.6700942516
0.7601734996 5.415785789 0.8595025539
0.7633535862 5.431536198 1.057908058
0.7634861469 5.418773651 1.253423929
0.7599307299 5.379927635 1.444262385
0.6514909863 4.57190752 -1.225819111
0.7689293027 5.382572651 -1.245325685
0.773839891 5.410220623 -1.054091811
0.7798857093 5.43892622 -0.8635698557
0.7861348391 5.468920708 -0.6732628345
0.7879528999 5.474783421 -0.4802027345
0.7889123559 5.467914104 -0.2873255312
0.7963482738 5.505873203 -0.09640529752
0.7809779644 5.47373724 0.09581191838
0.782512188 5.470851898 0.2874302268
0.7844132781 5.477304935 0.4803770781
0.7803820372 5.43565321 0.6691192389
0.7804820538 5.422875404 0.8610669374
0.7828648686 5.43272543 1.058671236
0.7818407416 5.412217617 1.252524137
0.7792581916 5.381066322 1.445297718
0.6696807742 4.584897995 -1.229960203
0.7912979126 5.397773266 -1.052183747
0.7980036139 5.430307865 -0.8626312613
0.8034858108 5.454360008 -0.6718004346
0.8073482513 5.473971367 -0.4803770781
0.8079956174 5.465126991 -0.2873255312
0.8120461702 5.47932291 -0.09598644078
0.8000815511 5.470977783 0.09581191838
0.8001571298 5.4582057 0.2869068384
0.8046866655 5.48241806 0.4810743034
0.7999305725 5.436824322 0.6696067452
0.7979643345 5.410346985 0.8595025539
0.8023989201 5.433843613 1.059434414
0.7995856404 5.401745319 1.250724435
0.7991724014 5.385956764 1.447368264
0.6833930612 4.567247868 -1.225819111
0.7758486271 5.172791958 -1.197636008
0.8078039885 5.379446507 -1.049130797
0.8163674474 5.423582077 -0.8620054722
0.8225164413 5.45152235 -0.6718004346
0.8252621889 5.46323967 -0.4796798229
0.8276618719 5.46622324 -0.2875348926
0.8293686509 5.46459198 -0.09577701241
0.8209477663 5.480017662 0.09602134675
0.8200961947 5.461304665 0.2872208655
0.8244076371 5.483516693 0.4814229608
0.8192010522 5.435961723 0.6698504686
0.8174366951 5.41143465 0.8601283431
0.8213630915 5.431009769 1.059434414
0.81785357 5.395067215 1.249824643
0.817964375 5.383134842 1.447368264
0.6975774765 4.553377151 -1.222713232
0.7912372947 5.152717113 -1.193586826
0.8271722794 5.380474567 -1.049893975
0.8358948827 5.424604416 -0.8626312613
0.8427542448 5.456464767 -0.6727753878
0.84371984 5.456386566 -0.4793311954
0.8479624987 5.471195698 -0.2879535556
0.8481000662 5.465763092 -0.0958468169
0.839466691 5.473165035 0.09595153481
0.8400198817 5.470400333 0.2878488898
0.8411204219 5.464851856 0.4800284207
0.8390779495 5.43895483 0.6705816984
0.8335668445 5.396980762 0.8582510948
0.8403146863 5.428109646 1.059434414
0.8378776312 5.399882317 1.251624346
0.833440125 5.365120888 1.443227053
0.7158623338 4.56618166 -1.226854324
0.8086211085 5.151990414 -1.194036841
0.845950067 5.377554417 -1.049893975
0.8529558182 5.415948391 -0.861692667
0.8614644408 5.457561493 -0.6732628345
0.8627573252 5.453408718 -0.4793311954
0.8661025167 5.468353271 -0.2879535556
0.8687378168 5.472645283 -0.09602134675
0.8551355004 5.454546452 0.0956722945
0.8603488803 5.475327015 0.2882675827
0.8601900339 5.461883068 0.4800284207
0.8558718562 5.428299427 0.6696067452
0.8536329865 5.401843071 0.8595025539
0.8570821881 5.417536736 1.057908058
0.8576070666 5.408622742 1.254323721
0.8527706265 5.36599493 1.444262385
0.7334437966 4.579043865 -1.230995536
0.8544005752 5.322305679 -1.234528065
0.8644000292 5.378596783 -1.050657272
0.8712290525 5.40903759 -0.8610669374
0.8792430162 5.446682453 -0.6722878814
0.8814740777 5.454452038 -0.4796798229
0.8839069009 5.457410812 -0.2875348926
0.8894429207 5.485525131 -0.09630057961
0.8767020106 5.467324257 0.09595153481
0.8772363067 5.46455574 0.2878488898
0.8789320588 5.462934017 0.4803770781
0.8735523224 5.417439461 0.6686317921
0.8728020787 5.406782627 0.8607540131
0.875048399 5.408697605 1.056763172
0.8755472898 5.399825573 1.252974033
0.8711782694 5.366951466 1.445297718
0.7494222522 4.576455593 -1.230995536
0.8802409172 5.36944294 -1.246225476
0.8831684589 5.375546932 -1.050657272
0.8917249441 5.421712399 -0.8635698557
0.8972989321 5.44373703 -0.6722878814
0.9005096555 5.451341629 -0.4796798229
0.9013466239 5.450508595 -0.2873255312
0.9059714675 5.46660471 -0.09602134675
0.8954727054 5.468334198 0.09602134675
0.8956602812 5.457518101 0.2876395583
0.8986414075 5.463764668 0.4807256758
0.8918364644 5.416471481 0.6688755155
0.8916688561 5.403703213 0.8607540131
0.8952208161 5.419324875 1.059434414
0.8912224174 5.383433819 1.249824643
0.8911706805 5.371500969 1.447368264
0.7639584541 4.57013464 -1.229960203
0.8967235684 5.352884293 -1.243076205
0.898393333 5.357098579 -1.047604203
0.9116284251 5.424410343 -0.8645085096
0.9156377912 5.436656952 -0.6718004346
0.9192433357 5.452254772 -0.4800284207
0.9210339785 5.451267719 -0.2875348926
0.9233776331 5.453550339 -0.0958468169
0.9145567417 5.465175152 0.09602134675
0.9153646827 5.458298206 0.2878488898
0.9174162149 5.464684486 0.4810743034
0.9123835564 5.423113346 0.6700942516
0.908556819 5.388870239 0.8588768244
0.9147846103 5.4200387 1.060197592
0.9100075364 5.380290031 1.249824643
0.9092710018 5.364547729 1.446332932
0.7779545188 4.556014061 -1.226854324
0.9223067164 5.390058041 -1.252524137
0.9177494049 5.357800007 -1.0483675
0.9315589666 5.427036285 -0.865447104
0.9352815747 5.437339783 -0.6722878814
0.9362398982 5.437231541 -0.4789825678
0.9414166212 5.455892086 -0.2879535556
0.9430913329 5.454235077 -0.09591662884
0.9312685728 5.448151588 0.09577701241
0.9350853562 5.459007263 0.2880582511
0.9331175089 5.441811562 0.4793311954
0.931643188 5.421852112 0.670337975
0.9273608327 5.38566637 0.8588768244
0.9330331087 5.412942886 1.059434414
0.930108428 5.384762764 1.251624346
0.9260157943 5.349919796 1.443227053
0.7945159078 4.557076931 -1.227889657
0.9404466748 5.382966518 -1.251624346
0.9357684851 5.350696564 -1.047604203
0.9467478395 5.402348042 -0.8620054722
0.9549438953 5.437952518 -0.6727753878
0.9565951228 5.44178009 -0.4796798229
0.9618402719 5.460440636 -0.2883722484
0.9628159404 5.454849243 -0.09598644078
0.9489067793 5.436987877 0.09563739598
0.9548221827 5.459644794 0.2882675827
0.9527959824 5.442446709 0.4796798229
0.9498761892 5.414656639 0.6698504686
0.9468402267 5.386287689 0.8595025539
0.9498768449 5.398052216 1.057144761
0.9492388964 5.383401871 1.252074242
0.9460282922 5.354264736 1.445297718
0.8090656996 4.546668053 -1.225819111
0.9537565708 5.348955631 -1.244425893
0.9614253044 5.375676155 -0.8582510948
0.9739214778 5.434586048 -0.6727753878
0.9738243818 5.428601742 -0.478808254
0.974889636 5.423632145 -0.2865928411
0.9814979434 5.449486256 -0.09595153481
0.9685797691 5.437580109 0.09570720047
0.9731736779 5.452345848 0.2880582511
0.9731910229 5.446932316 0.4803770781
0.9670234323 5.401537418 0.6686317921
0.9663325548 5.386838436 0.8601283431
0.969409287 5.39856863 1.057908058
0.9683685899 5.381973743 1.252524137
0.9653992653 5.35473156 1.446332932
0.8283836842 4.562824249 -1.230995536
0.9738186002 5.353262424 -1.246225476
0.8989916444 4.92727232 -0.7866041064
0.9057781696 4.954687595 -0.6133031249
0.9122274518 4.980125427 -0.4392395616
0.9952528477 5.428055286 -0.287011534
1.000877023 5.447994232 -0.09598644078
0.9889835715 5.442035675 0.0958468169
0.9907701015 5.441055298 0.2876395583
0.9936236739 5.45134306 0.4810743034
0.9858738184 5.39812851 0.6686317921
0.9851317406 5.383432388 0.8601283431
0.9889567494 5.399013519 1.058671236
0.985040009 5.367059708 1.249824643
0.9840812087 5.351329803 1.446332932
0.8443965912 4.555958271 -1.229960203
0.9853861332 5.311510563 -1.23722744
0.9126731753 4.909997463 -0.9625034332
0.9188522696 4.933654785 -0.7881684899
0.9234328866 4.953446865 -0.6135468483
1.015879631 5.428296089 -0.2872208655
1.017309546 5.430708885 -0.09574211389
1.009797335 5.448381424 0.09602134675
1.011214495 5.445419312 0.2880582511
1.012143373 5.439828873 0.4803770781
1.00543654 5.398557186 0.6691192389
1.002831697 5.374135017 0.8591897488
1.010180473 5.40307188 1.060197592
1.004703403 5.363413811 1.249824643
1.00204432 5.344064713 1.445297718
0.8581416011 4.541593075 -1.226854324
1.003401041 5.300203323 -1.235427856
0.9305366874 4.910639763 -0.9632666111
0.9360697269 4.930417061 -0.7881684899
0.9426937103 4.955879211 -0.6142780781
0.9406380057 4.94036293 -0.436276257
1.035566568 5.428641796 -0.2874302268
1.037583947 5.428907394 -0.09577701241
1.029015422 5.440713882 0.09595153481
1.031164885 5.441676617 0.2880582511
1.029636979 5.428433418 0.4796798229
1.027438998 5.406537533 0.6705816984
1.022521019 5.370423317 0.8591897488
1.028301001 5.395656109 1.059434414
1.024882555 5.367530823 1.251624346
1.019445539 5.328971386 1.442191839
0.8739907146 4.538569927 -1.226854324
1.034075022 5.35981369 -1.250274658
0.9476736784 4.907361507 -0.9632666111
0.9528956413 4.925179958 -0.7878555655
0.9599885345 4.952558517 -0.6142780781
0.9605303407 4.950741291 -0.4374964535
1.049556971 5.399505615 -0.2860694826
1.051939964 5.401698589 -0.09535815567
1.044596076 5.419417381 0.09563739598
1.051669955 5.445887566 0.288476944
1.047068238 5.416980743 0.4789825678
1.044796944 5.395122528 0.6696067452
1.041633487 5.368761539 0.8595025539
1.044133663 5.376615047 1.056381464
1.045472264 5.373485088 1.253873825
1.039520621 5.332964897 1.444262385
0.893548429 4.554448128 -1.232030749
1.046765924 5.325576305 -1.243076205
0.9655570984 4.907876492 -0.9640299082
0.9693192244 4.917947769 -0.7872298956
0.976115644 4.943335056 -0.6135468483
0.9793522954 4.955175877 -0.4381936789
1.063741922 5.372298717 -0.2848134041
1.069623113 5.392109394 -0.09525343776
1.056569934 5.380417824 0.09500910342
1.058337212 5.379472733 0.2851274312
1.060580373 5.38592577 0.4765422046
1.052866459 5.336911201 0.6627821326
1.055006981 5.337962151 0.855122447
1.056038737 5.338271141 1.049512386
1.06422174 5.369803429 1.253873825
1.058881164 5.333093643 1.445297718
0.9094378352 4.551301956 -1.232030749
1.066880703 5.3295331 -1.244875789
0.9819080234 4.900626183 -0.9632666111
0.9880365729 4.922281265 -0.7884813547
0.9918011427 4.932112694 -0.6125718951
0.9982169867 4.95953989 -0.4388909042
1.083279252 5.372468472 -0.2850227654
1.088833451 5.390303135 -0.09528834373
1.073777437 5.368853092 0.09486948699
1.077104926 5.375746727 0.2851274312
1.079375744 5.382190228 0.4765422046
1.071488142 5.333203316 0.6627821326
1.071296334 5.322627544 0.8532451987
1.07660377 5.344175339 1.05142045
1.080262184 5.352683544 1.250724435
1.07825768 5.33315134 1.446332932
0.9253205061 4.548099518 -1.232030749
0.9986173511 4.895245552 -0.9628850222
1.006002545 4.922673702 -0.7891070843
1.011401534 4.940289021 -0.6140343547
1.01472199 4.952121735 -0.4385423064
1.103634 5.376480103 -0.2854414582
1.104016304 5.368841171 -0.0949742049
1.096101642 5.382707596 0.09518363327
1.096663237 5.37586832 0.2853367925
1.098158002 5.378389359 0.4765422046
1.09248364 5.341100216 0.664244473
1.088281989 5.311114788 0.8519937396
1.097223043 5.350001335 1.053328514
1.098154306 5.345062256 1.249824643
1.096089959 5.325570583 1.445297718
0.937272191 4.525925159 -1.226854324
1.083873749 5.224641323 -1.221930861
1.016496062 4.895574093 -0.9636482
1.021571875 4.911395073 -0.7878555655
1.030258775 4.944502354 -0.6150093079
1.030376315 4.940747738 -0.4378450811
1.123210311 5.376505375 -0.2856507897
1.124390364 5.372784138 -0.09511382133
1.115697265 5.382764339 0.09525343776
1.116232634 5.375917912 0.285546124
1.116113424 5.370622158 0.4761935771
1.113547325 5.348914623 0.6657069325
1.108429193 5.315018654 0.8532451987
1.113886952 5.336528778 1.05142045
1.118801117 5.350734234 1.252074242
1.112295628 5.310368061 1.442191839
0.9578464031 4.545309544 -1.233065963
1.088820815 5.157904625 -1.20708406
1.035203338 4.899679661 -0.9651747346
1.037072539 4.900069714 -0.7866041064
1.04792273 4.942817688 -0.6152530313
1.048028946 4.939070225 -0.4380193949
1.140308857 5.364737034 -0.2852320969
1.143969655 5.372738361 -0.09518363327
1.132827997 5.371011257 0.09511382133
1.136644125 5.379804611 0.285964787
1.134028196 5.362795353 0.4758449793
1.131390572 5.341111183 0.6652194858
1.127794147 5.314981937 0.8538709879
1.130467772 5.323006153 1.049512386
1.139092803 5.354420662 1.253873825
1.132434845 5.31401062 1.444262385
0.9728980064 4.538160324 -1.232030749
1.109274864 5.165503979 -1.209783316
1.053951621 4.903713703 -0.9667012095
1.054172039 4.896419525 -0.7866041064
1.065168858 4.939129829 -0.6152530313
1.065264463 4.935381413 -0.4380193949
1.159871459 5.364628792 -0.2854414582
1.165681481 5.382392883 -0.09542796761
1.151568294 5.367024422 0.09511382133
1.154578447 5.371899128 0.2857554555
1.155253768 5.370491505 0.476890862
1.146683812 5.321604252 0.6632695198
1.148008585 5.318736076 0.855122447
1.151115775 5.328622341 1.05142045
1.156541109 5.344697475 1.252524137
1.152613044 5.317577362 1.446332932
0.9887322187 4.534736633 -1.232030749
1.129792929 5.173023701 -1.21248281
1.068965077 4.890414715 -0.9647930861
1.074213743 4.906217575 -0.7887941599
1.078993559 4.923935413 -0.6137905717
1.08419323 4.939417362 -0.4387166202
1.185882688 5.393708229 -0.2872208655
1.192979574 5.421462536 -0.0961958617
1.178823829 5.402046204 0.09581191838
1.177498817 5.391456604 0.287011534
1.184213877 5.41313839 0.4810743034
1.174599648 5.360229015 0.6686317921
1.169870496 5.334195137 0.8582510948
1.169286728 5.322654724 1.051038861
1.171328187 5.327510357 1.249374747
1.17107296 5.317499161 1.447368264
1.006270409 4.542750359 -1.235136509
1.143985152 5.155931473 -1.209333539
1.083898544 4.881093502 -0.9636482
1.091765404 4.908412457 -0.7897328138
1.09531498 4.920330524 -0.6137905717
1.099267483 4.929960728 -0.4381936789
1.205505252 5.397542477 -0.2876395583
1.205715537 5.394058228 -0.09577701241
1.198896766 5.407868385 0.09598644078
1.199696183 5.407020569 0.2880582511
1.202159405 5.409181118 0.4810743034
1.194092631 5.364055634 0.6696067452
1.188413501 5.334142208 0.8588768244
1.189495564 5.330245018 1.053328514
1.19111383 5.333105564 1.251624346
1.187855363 5.309815884 1.446332932
1.01454556 4.509232044 -1.226854324
1.171786189 5.199636936 -1.220581055
1.100499272 4.87536478 -0.9632666111
1.108032942 4.904765606 -0.7897328138
1.114237428 4.924221992 -0.6147655845
1.115147352 4.920264721 -0.4376707375
1.226109028 5.401092529 -0.2880582511
1.228080034 5.405416965 -0.09605624527
1.215065002 5.396059513 0.0958468169
1.219443202 5.40669632 0.2882675827
1.217457056 5.393504143 0.4800284207
1.21406436 5.369747639 0.6708254814
1.208330989 5.33574152 0.8598154187
1.206792831 5.320315838 1.052183747
1.210586667 5.332715511 1.252524137
1.203814387 5.294334412 1.443227053
1.035374522 4.524315357 -1.232030749
1.202595115 5.246591568 -1.232728481
1.119677782 4.877039433 -0.9644114971
1.123794436 4.89104557 -0.7881684899
1.132722139 4.922039509 -0.6150093079
1.13496244 4.923910141 -0.4383679926
1.243199825 5.384886265 -0.2874302268
1.248782754 5.404776573 -0.09612605721
1.233940363 5.387671947 0.09577701241
1.240143538 5.406084061 0.288476944
1.238999128 5.396773815 0.4807256758
1.232846379 5.361392021 0.670337975
1.228326797 5.333201885 0.8601283431
1.224076986 5.306292534 1.050275683
1.231437922 5.333939552 1.253873825
1.226691604 5.304944515 1.447368264
1.052826881 4.524252892 -1.233065963
1.235085964 5.29908514 -1.246225476
1.137544394 4.87290287 -0.9644114971
1.14126277 4.884969711 -0.7878555655
1.149849057 4.913989544 -0.6145218015
1.154821634 4.927476406 -0.4390652478
1.261101246 5.372516632 -0.287011534
1.270414591 5.407950401 -0.09626568109
1.254584789 5.38700819 0.0958468169
1.260858178 5.40539217 0.2886862755
1.257863879 5.388316154 0.4803770781
1.250230074 5.34717226 0.6691192389
1.24876523 5.332510471 0.8607540131
1.243964434 5.303682327 1.050657272
1.250532985 5.327493668 1.253423929
1.246125817 5.300413132 1.447368264
1.073848605 4.539163589 -1.238242388
1.258991718 5.313485622 -1.250724435
1.155853748 4.870610237 -0.9647930861
1.159614921 4.882676601 -0.7881684899
1.166936874 4.905878544 -0.6140343547
1.171487689 4.917396545 -0.4385423064
1.281709909 5.371743202 -0.2872208655
1.289296985 5.399367332 -0.0961958617
1.277088881 5.394048214 0.09605624527
1.274208665 5.373527527 0.2872208655
1.280368805 5.395299911 0.4814229608
1.270737052 5.34641695 0.6696067452
1.266927958 5.322132587 0.8598154187
1.265675426 5.308634281 1.052565336
1.268240571 5.315292835 1.251624346
1.267344356 5.303325176 1.449438691
1.086410284 4.532200336 -1.237207055
1.274753094 5.309726238 -1.250724435
1.167612791 4.859728813 -0.9632666111
1.176409006 4.888816357 -0.7897328138
1.18148458 4.902395725 -0.6140343547
1.18334806 4.906358719 -0.4378450811
1.298580527 5.375909328 -0.2876395583
1.303432226 5.387743473 -0.09605624527
1.293550849 5.392181396 0.09609115869
1.290145636 5.369723797 0.2872208655
1.295436144 5.38760376 0.4810743034
1.289384723 5.354202271 0.6710692048
1.283178329 5.320271015 0.8601283431
1.281876087 5.310805321 1.053710103
1.285381079 5.31718874 1.252974033
1.282161593 5.295787334 1.448403478
1.097656369 4.509609699 -1.232030749
1.294201732 5.30903101 -1.251624346
1.184570551 4.855622768 -0.9632666111
1.192059398 4.878923893 -0.7887941599
1.200006723 4.904025555 -0.6147655845
1.198570609 4.894456863 -0.4371477962
1.320193887 5.382981777 -0.2882675827
1.32366097 5.388986588 -0.09616096318
1.311893225 5.385689259 0.09605624527
1.310303211 5.371008396 0.2875348926
1.311400652 5.371435642 0.4800284207
1.308536887 5.351597309 0.6713129282
1.301740527 5.315759659 0.8601283431
1.299003363 5.300577641 1.052565336
1.304864168 5.316453934 1.253873825
1.298796177 5.283774853 1.446332932
1.1171 4.520754337 -1.236171842
1.3099159 5.293131351 -1.248924851
1.202457905 4.855269909 -0.9640299082
1.206228614 4.863229752 -0.7869169712
1.21759522 4.901733875 -0.6150093079
1.218531013 4.901844978 -0.4381936789
1.336079717 5.366712093 -0.2876395583
1.338622451 5.372925758 -0.09595153481
1.326843262 5.365547657 0.09577701241
1.33146441 5.380205154 0.2882675827
1.331099987 5.370693207 0.4803770781
1.326732635 5.345070362 0.6710692048
1.320312381 5.315247536 0.8607540131
1.315603495 5.28839016 1.051038861
1.326237082 5.323213577 1.2565732
1.317246795 5.283187389 1.447368264
1.131932497 4.513079643 -1.235136509
1.3255651 5.281198025 -1.247125268
1.22083354 4.856755257 -0.9651747346
1.221868515 4.85728693 -0.7866041064
1.232874632 4.893818855 -0.6145218015
1.236610413 4.901425362 -0.4385423064
1.353870511 5.362251759 -0.2876395583
1.359821916 5.377913952 -0.09612605721
1.345116735 5.363057613 0.09581191838
1.352184415 5.383272648 0.2886862755
1.351784706 5.37374258 0.4810743034
1.342026114 5.331016541 0.6698504686
1.34030807 5.316352367 0.861692667
1.33457303 5.289709568 1.052183747
1.341974139 5.311228275 1.254773617
1.335679412 5.278557301 1.447368264
1.148796082 4.51679039 -1.237207055
1.345436335 5.282203674 -1.248475075
1.235961437 4.848875046 -0.9644114971
1.24077177 4.860647678 -0.7878555655
1.248473644 4.88371563 -0.6137905717
1.254699111 4.900938988 -0.4388909042
1.373572946 5.361362934 -0.2878488898
1.376099944 5.363449097 -0.09595153481
1.365800977 5.366081238 0.09595153481
1.365046382 5.355296135 0.2874302268
1.371565938 5.376952648 0.4817715585
1.360625625 5.326299667 0.6698504686
1.360327721 5.317382812 0.8626312613
1.355462909 5.294528961 1.054091811
1.359539032 5.302735806 1.253873825
1.356981039 5.285089493 1.450474024
1.161477804 4.497585773 -1.233065963
1.250280857 4.831008434 -0.9617401958
1.259568691 4.859892368 -0.7884813547
1.264518142 4.87548542 -0.6133031249
1.269796729 4.888815403 -0.4381936789
1.393213034 5.356292725 -0.2878488898
1.39380765 5.354743004 -0.09588173032
1.385522723 5.36515379 0.09602134675
1.385733247 5.358232498 0.2878488898
1.390266776 5.368031979 0.4814229608
1.381203175 5.329204082 0.6708254814
1.374412894 5.295393467 0.8598154187
1.37535429 5.291424751 1.0544734
1.378964305 5.297717571 1.253873825
1.373472214 5.272843361 1.448403478
1.179619431 4.502848148 -1.235654235
1.32385695 5.046247005 -1.194486737
1.267137885 4.82661438 -0.9617401958
1.277528882 4.859287739 -0.7891070843
1.283896565 4.876576424 -0.6140343547
1.286345601 4.882427216 -0.4380193949
1.414450288 5.361052036 -0.2883722484
1.411890626 5.343798161 -0.09577701241
1.406193376 5.363908291 0.09609115869
1.404347181 5.349254131 0.2876395583
1.402922392 5.34002161 0.4793311954
1.401230097 5.326025486 0.6710692048
1.39481771 5.294141769 0.8604412079
1.393314958 5.284694195 1.054091811
1.398444772 5.296639919 1.254773617
1.392790318 5.267773628 1.448403478
