# .PCD v0.7 - Point Cloud Data file format
VERSION 0.7
FIELDS x y z
SIZE 4 4 4
TYPE F F F
COUNT 1 1 1
WIDTH 1252
HEIGHT 1
VIEWPOINT 0 0 0 1 0 0 0
POINTS 1252
DATA ascii
-2.463959455 1.487528682 -0.1486352682
-2.464645147 1.489116669 -0.04956303909
-2.455504656 1.477166772 0.04931870475
-2.452086449 1.476275563 0.1477978826
-2.467956781 1.487004161 0.2483685017
-2.441915035 1.471895099 0.3449468017
-2.453487158 1.480037212 0.4471412599
-2.473917246 1.492951155 0.5534089208
-2.453997135 1.482097745 0.6519047618
-2.451032162 1.481475949 0.7558037043
-2.414526463 1.463441849 -0.7449332476
-2.424488068 1.470636249 -0.6447063684
-2.440050125 1.480659127 -0.5465397835
-2.452461481 1.489361167 -0.4477669895
-2.461949348 1.496299744 -0.348602891
-2.450050831 1.489653707 -0.2471483052
-2.465577126 1.500272751 -0.1490539461
-2.45115304 1.492082834 -0.04938851297
-2.457173347 1.489875674 0.04945832118
-2.454008102 1.488542318 0.1482165605
-2.463012218 1.49518013 0.2483685017
-2.448637724 1.487624884 0.3466529846
-2.441813469 1.484061599 0.445889771
-2.472045422 1.50361836 0.5541720986
-2.458795786 1.496735096 0.6546041965
-2.446105957 1.489595652 0.7558037043
-2.402809381 1.467832327 -0.742862761
-2.43290019 1.486797452 -0.6483055353
-2.441566706 1.493264437 -0.5480661988
-2.444139242 1.495423913 -0.4471412599
-2.463745594 1.508601904 -0.3495778143
-2.444835663 1.498197436 -0.2471483052
-2.470805168 1.51470387 -0.1496819854
-2.452747583 1.504812837 -0.04952813312
-2.448806286 1.495931029 0.04938851297
-2.455612898 1.501267076 0.1486352682
-2.450979948 1.499609351 0.2476712167
-2.450463533 1.499881983 0.347627908
-2.443355799 1.496703386 0.4471412599
-2.470393419 1.513859153 0.5549353361
-2.457141638 1.506917596 0.6555039883
-2.437598944 1.496103644 0.7547684312
-2.404509544 1.479842544 -0.7449332476
-2.424376965 1.493237019 -0.6474057436
-2.443287134 1.505472422 -0.5495927334
-2.435541391 1.501872897 -0.4465155005
-2.465221643 1.521363139 -0.3505527973
-2.441549301 1.507343292 -0.247322619
-2.458706141 1.519120097 -0.1492632926
-2.455984116 1.518623233 -0.04970265925
-2.44356966 1.504469872 0.04938851297
-2.460560083 1.516115427 0.1492632926
-2.447689533 1.5087744 0.2478455603
-2.455350399 1.514679551 0.3490903676
-2.444839716 1.509374619 0.4483927488
-2.458412886 1.51834619 0.5534089208
-2.461812019 1.521633863 0.6582033634
-2.429075956 1.502570868 0.7537331581
-2.410821199 1.495354891 -0.7485567927
-2.409215927 1.49552393 -0.6447063684
-2.441352844 1.516063333 -0.5503559709
-2.431962013 1.511408091 -0.4468283951
-2.459896088 1.529958963 -0.3505527973
-2.448114634 1.523224115 -0.2485427856
-2.449997663 1.525582075 -0.1490539461
-2.4540627 1.529302359 -0.04977246746
-2.440002441 1.514045 0.04942341894
-2.453556061 1.523641586 0.1491586268
-2.454254866 1.524668932 0.249065727
-2.450048208 1.523241162 0.3490903676
-2.449619532 1.524160504 0.4502699375
-2.459764719 1.531068206 0.5549353361
-2.453177691 1.528156638 0.6573035717
-2.436930418 1.519217372 0.7578741908
-2.415415287 1.509905219 -0.7516625524
-2.417197227 1.512192845 -0.6483055353
-2.439374208 1.526659012 -0.5511191487
-2.441738129 1.529324889 -0.449644208
-2.447812319 1.534319162 -0.3495778143
-2.447846889 1.534935832 -0.249065727
-2.442965508 1.533063412 -0.1489492804
-2.452095985 1.539986253 -0.04984227568
-2.45335269 1.534214973 0.04980736971
-2.443143606 1.529018044 0.1488445997
-2.455672979 1.53745532 0.2497629821
-2.448080063 1.533891916 0.3495778143
-2.450978756 1.536899686 0.4515214264
-2.467710257 1.547991514 0.557988286
-2.441226482 1.532565951 0.6555039883
-2.441427708 1.533880472 0.7609800696
-2.405226707 1.515237689 -0.7501096129
-2.418498039 1.524778724 -0.6501051784
-2.434030771 1.535164237 -0.5511191487
-2.436384916 1.537838817 -0.449644208
-2.442441702 1.542854428 -0.3495778143
-2.440789461 1.542406797 -0.2488914132
-2.447727203 1.547986746 -0.1495773047
-2.441636324 1.54532814 -0.04973756149
-2.456440926 1.548101187 0.04998189583
-2.441170454 1.539667368 0.1490539461
-2.453660727 1.548144698 0.2501116097
-2.451103926 1.547726989 0.3507965207
-2.432239771 1.537003875 0.4490184784
-2.465610981 1.558693528 0.5587515235
-2.439155579 1.543161869 0.65640378
-2.432794333 1.540326715 0.7599447966
-2.396660805 1.521553636 -0.7490743995
-2.426319838 1.541571379 -0.6537043452
-2.435284138 1.547864556 -0.5526456833
-2.43100214 1.546333551 -0.449644208
-2.453787088 1.562030911 -0.3520152271
-2.437071562 1.551987052 -0.249065727
-2.449046135 1.560815215 -0.1499959975
-2.444657087 1.559218287 -0.04991208389
-2.447645903 1.554522276 0.04991208389
-2.445894241 1.554608226 0.1496819854
-2.444879293 1.55456233 0.2497629821
-2.454059601 1.561602712 0.3520152271
-2.433524847 1.549728274 0.4502699375
-2.46677804 1.571510792 0.5602779984
-2.446900129 1.560047269 0.6600030065
-2.42414546 1.546730995 0.7589095235
-2.423881054 1.550733089 -0.7594271302
-2.429129839 1.555285454 -0.6559538841
-2.467890024 1.58071053 -0.5614228845
-2.450535297 1.570800185 -0.4543372393
-2.478395462 1.589879394 -0.3564025164
-2.443376541 1.568017602 -0.2502858937
-2.451985836 1.574750543 -0.1505193561
-2.44929266 1.574229479 -0.05012151599
-2.440520763 1.56197834 0.04987718165
-2.448861837 1.568522692 0.150205344
-2.441115856 1.564161301 0.2499372661
-2.456948996 1.575517178 0.3532339036
-2.43475008 1.562481761 0.4515214264
-2.451364517 1.573748112 0.557988286
-2.447997332 1.572793245 0.6618025899
-2.428481579 1.561451674 0.7620153427
-2.426571608 1.564417839 -0.7620153427
-2.444972992 1.577490449 -0.6618025899
-2.473904133 1.596767545 -0.5640941858
-2.473245621 1.597566485 -0.4596560299
-2.486167192 1.607142329 -0.3583524227
-2.474695206 1.600339651 -0.2541207671
-2.4816854 1.606088042 -0.1527174562
-2.492457151 1.614293694 -0.05113375187
-2.461941242 1.587829113 0.05043565854
-2.453440428 1.583559275 0.1508333683
-2.475811958 1.598611116 0.2541207671
-2.443098068 1.578696609 0.3520152271
-2.435916185 1.57526195 0.4527728856
-2.455747128 1.588693261 0.5602779984
-2.439220667 1.579210758 0.6609027982
-2.423015594 1.569919825 0.7620153427
-2.447016239 1.589717865 -0.7702975273
-2.44271946 1.588139176 -0.6627023816
-2.463378191 1.60218215 -0.5629493594
-2.470965147 1.608344436 -0.4602817595
-2.477215052 1.6136446 -0.3578649461
-2.485786676 1.619845152 -0.2558638752
-2.476063728 1.614741683 -0.1527174562
-2.488481522 1.624077201 -0.05116865784
-2.481534481 1.612758636 0.05095922947
-2.474686384 1.609537125 0.1525081098
-2.488586903 1.619196057 0.2560381889
-2.445890427 1.592630982 0.3532339036
-2.427092791 1.581597686 0.452147156
-2.453475714 1.599400043 0.5610412359
-2.433693647 1.587714911 0.6609027982
-2.427226543 1.584704876 0.7651211619
-2.43498683 1.594017625 -0.7682270408
-2.451831579 1.606267452 -0.6667515039
-2.456128359 1.609695196 -0.5625677705
-2.475246668 1.623460174 -0.4621589482
-2.476546288 1.625549197 -0.3585961759
-2.473455191 1.624137998 -0.25516662
-2.473750353 1.625568748 -0.1529268175
-2.479455233 1.630556941 -0.05109884962
-2.485927105 1.627984405 0.05116865784
-2.46571207 1.615976095 0.1522987783
-2.486252069 1.630057931 0.2563868165
-2.440315962 1.601159096 0.3532339036
-2.421557188 1.590060353 0.452147156
-2.457723379 1.614421844 0.5633309484
-2.431393385 1.598341465 0.6618025899
-2.421680212 1.593167901 0.7651211619
-2.419732332 1.596124649 -0.7651211619
-2.451088667 1.618036985 -0.6681011915
-2.457047224 1.62258625 -0.5640941858
-2.462972641 1.627734184 -0.4609074891
-2.48079133 1.640754342 -0.3600585759
-2.464447737 1.630563259 -0.2548179924
-2.489710331 1.648527861 -0.1542875469
-2.477082253 1.641411185 -0.05116865784
-2.473553181 1.632246614 0.05102904141
-2.471722603 1.632277489 0.1530314833
-2.473897219 1.634333849 0.2556895614
-2.444647312 1.616236329 0.3546963632
-2.419286966 1.600683451 0.4527728856
-2.448798418 1.620824695 0.5625677705
-2.435547113 1.613275766 0.664501965
-2.416104555 1.601610899 0.7651211619
-2.422190189 1.6099087 -0.7677093744
-2.447048903 1.627661824 -0.668551147
-2.464444399 1.639853954 -0.5671471357
-2.453987837 1.634131312 -0.4602817595
-2.471745014 1.647202492 -0.3595711291
-2.465371609 1.643577456 -0.2555152476
-2.477294922 1.652774572 -0.153868854
-2.477990389 1.654488921 -0.05130828172
-2.466175079 1.639763951 0.05099413544
-2.472661018 1.645321488 0.1534501761
-2.474811554 1.647375464 0.2563868165
-2.438990831 1.624759912 0.3546963632
-2.431764126 1.621172547 0.4562144578
-2.443125963 1.629361987 0.5625677705
-2.442867517 1.630422711 0.6681011915
-2.410499096 1.610035062 0.7651211619
-2.427791834 1.625878692 -0.7713328004
-2.431638956 1.629684806 -0.6658517122
-2.465227842 1.652819633 -0.5686736107
-2.458110094 1.649291635 -0.4621589482
-2.464332581 1.654713392 -0.3593274057
-2.46954298 1.658838391 -0.2565611005
-2.468195915 1.659183025 -0.1536595076
-2.48381424 1.670942068 -0.05155261233
-2.470404387 1.655040026 0.05120356753
-2.471879482 1.657279134 0.1537641883
-2.478974104 1.662662268 0.2574326694
-2.426711559 1.628838658 0.35372141
-2.432649612 1.63405633 0.4574659169
-2.437423468 1.637880325 0.5625677705
-2.437161684 1.6389395 0.6681011915
-2.416082859 1.625990152 0.7687446475
-2.435486555 1.642137408 -0.7754738927
-2.432969093 1.641675591 -0.6676513553
-2.463278294 1.662752748 -0.5694368482
-2.466012001 1.665851474 -0.4646618962
-2.467344284 1.668006659 -0.3605460823
-2.467620611 1.668820381 -0.2569097579
-2.469586849 1.671407223 -0.1540782005
-2.471929789 1.674251199 -0.05141299218
-2.468508005 1.665029883 0.05127337575
-2.463350058 1.662801266 0.1535548419
-2.477040529 1.672672749 0.257781297
-2.426516771 1.639788151 0.35445261
-2.422595263 1.638370395 0.4565272927
-2.438770056 1.64993 0.5640941858
-2.422318697 1.640033007 0.6654018164
-2.415761232 1.636822939 0.7702975273
-2.416954994 1.641944766 -0.7713328004
-2.436892986 1.656732082 -0.6703507304
-2.454211473 1.669133306 -0.5686736107
-2.461815357 1.675560951 -0.4649747908
-2.46314764 1.67772603 -0.3607898057
-2.465073347 1.679667592 -0.2572583854
-2.473638058 1.686769009 -0.1547062248
-2.467721939 1.683997035 -0.05144789815
-2.470950842 1.679255843 0.05144789815
-2.460833549 1.673636913 0.1537641883
-2.474481821 1.683550119 0.2581299245
-2.428981781 1.653835058 0.3556712866
-2.411964655 1.643479943 0.4555887282
-2.449218035 1.669490814 0.5679103732
-2.423018932 1.652870536 0.6672013998
-2.413223743 1.647424102 0.7713328004
-2.42077446 1.656918049 -0.7744386792
-2.442349434 1.672937274 -0.673500061
-2.448370695 1.677689433 -0.5686736107
-2.452692747 1.681910396 -0.4643490613
-2.468733549 1.694176435 -0.3624959588
-2.455909491 1.6860075 -0.2569097579
-2.474320173 1.699916601 -0.1551249176
-2.470067739 1.698265433 -0.05162242055
-2.470024109 1.691260338 0.05155261233
-2.461566925 1.686731935 0.1541828662
-2.465303183 1.689924359 0.257781297
-2.439564228 1.673532844 0.3581086993
-2.419240713 1.660834074 0.4580916464
-2.436902285 1.673584342 0.5663838983
-2.423658133 1.665734053 0.6690009832
-2.401092052 1.651458263 0.7692622542
-2.414975882 1.665358067 -0.7744386792
-2.438098669 1.682559252 -0.6739499569
-2.455424547 1.695148945 -0.5717265606
-2.446806669 1.690461636 -0.4643490613
-2.469335794 1.707299471 -0.3634709418
-2.453286409 1.69683671 -0.2572583854
-2.468370914 1.708544016 -0.1551249176
-2.469056606 1.710292697 -0.05172713846
-2.455875397 1.694194555 0.05137808993
-2.467169523 1.703257322 0.1549155712
-2.46266818 1.700784206 0.2581299245
-2.425542355 1.676395059 0.356889993
-2.415053368 1.670392394 0.458404541
-2.427816629 1.67984581 0.5656206608
-2.427441597 1.680840373 0.671700418
-2.401663542 1.66423142 0.7713328004
-2.415493965 1.678186655 -0.7765091658
-2.427410364 1.687722206 -0.6726002097
-2.455939293 1.70819366 -0.5732530355
-2.440891504 1.698991776 -0.4643490613
-2.461731911 1.714774728 -0.3632271886
-2.45685792 1.712652683 -0.2583042383
-2.454200506 1.711437583 -0.154601559
-2.477830172 1.729200602 -0.05204127729
-2.454873085 1.706180096 0.05148280412
-2.456289768 1.708437562 0.154601559
-2.466528416 1.716198325 0.2591757774
-2.414788723 1.681448579 0.356158793
-2.409208298 1.678811789 0.458404541
-2.431601286 1.695046544 0.5679103732
-2.418363571 1.687073231 0.6708006263
-2.405344009 1.679239869 0.7744386792
-2.420404434 1.694785237 -0.7801327109
-2.421504259 1.69618535 -0.6726002097
-2.44966197 1.717183709 -0.5732530355
-2.447585583 1.717001796 -0.4668520093
-2.458981514 1.725637555 -0.363714695
-2.463907957 1.730379343 -0.2596987188
-2.454447985 1.725014329 -0.1550202519
-2.466871023 1.734389544 -0.0519365631
-2.458729982 1.721621037 0.05169223249
-2.447040558 1.714708328 0.1543922126
-2.468378544 1.730946422 0.2600473762
-2.413780212 1.693287134 0.356889993
-2.409800529 1.691751361 0.4596560299
-2.43501091 1.710719109 0.5702000856
-2.408975124 1.693684578 0.6699008346
-2.402628422 1.689848185 0.7754738927
-2.416052341 1.704337239 -0.7806503177
-2.426415443 1.712916374 -0.6757495999
-2.437238216 1.721194148 -0.5717265606
-2.4528687 1.733516216 -0.4690420926
-2.452640295 1.734638453 -0.363714695
-2.456226826 1.73781836 -0.2595244348
-2.463082075 1.743958831 -0.1559622884
-2.457538605 1.740677834 -0.05186675489
-2.460572958 1.736385703 0.05186675489
-2.445934772 1.726696014 0.1547062248
-2.465576172 1.741850734 0.2603959739
-2.41566205 1.707853198 0.3581086993
-2.394203663 1.693308949 0.4577788115
-2.441844463 1.728282213 0.5732530355
-2.409409761 1.70658803 0.671700418
-2.396715164 1.698224664 0.7754738927
-2.400640488 1.706045508 -0.7775444984
-2.430251598 1.727727652 -0.6784489751
-2.442413092 1.737658024 -0.574397862
-2.447106838 1.741640687 -0.4690420926
-2.454958916 1.748520374 -0.3649334013
-2.446900606 1.744068742 -0.2591757774
-2.462163687 1.755595803 -0.1562763005
-2.451447248 1.749245644 -0.05186675489
-2.451541424 1.742218971 0.05179694667
-2.457796335 1.747956276 0.1558576226
-2.449740887 1.743515491 0.2593500912
-2.418070793 1.721611023 0.3593274057
-2.397931337 1.708533764 0.4596560299
-2.426507473 1.729533195 0.5709633231
-2.413256168 1.721358538 0.6743998528
-2.384483099 1.702091098 0.7734034061
-2.420105457 1.731985807 -0.785826683
-2.452723265 1.756625175 -0.6865472198
-3.272597551 2.346407175 -0.6311082244
-3.305274487 2.371582031 -0.4943585992
-2.442193031 1.748437762 0.05172713846
-2.453303337 1.757688284 0.1559622884
-2.452043295 1.757432342 0.2602216601
-2.407207251 1.726570487 0.3585961759
-2.399976254 1.722653031 0.4612203836
-2.422050476 1.739137888 0.5713449717
-2.410397768 1.732046247 0.6752996445
-2.391074419 1.71942699 0.7775444984
-3.254137516 2.347821712 -0.9164472222
-3.277432442 2.365497589 -0.777418673
-3.270792723 2.362443209 -0.6323596835
-3.29053998 2.378454685 -0.4933836758
-3.286388159 2.378073931 -0.2103917003
-3.307299137 2.394963741 -0.07057573646
-3.525978565 2.543015242 0.07518316805
-3.499097824 2.526415348 0.373872757
-3.49369216 2.524366617 0.5240947008
-3.297223568 2.385036945 0.7827612758
-3.488808155 2.52547574 0.9843824506
-3.248902321 2.359598637 -1.064316034
-3.252228022 2.36374855 -0.9182468057
-3.272331238 2.379232645 -0.7781819105
-3.268915892 2.378494024 -0.6336111426
-3.279007673 2.387588978 -0.4928961694
-3.290400267 2.396762133 -0.3524324298
-3.289364815 2.397766829 -0.2111243904
-3.295687437 2.40413785 -0.07050593197
-3.50899148 2.549432278 0.07500864565
-3.568526506 2.594589233 0.2290232927
-3.5079813 2.551505566 0.3757901788
-3.486464262 2.537715197 0.5243384838
-3.537511587 2.576760769 0.6864860654
-3.301571369 2.405782461 0.7858142853
-3.467375517 2.528452396 0.9807832837
-3.504146814 2.557142019 1.150761604
-3.234409094 2.366363525 -1.062245488
-3.253391266 2.381994009 -0.9209462404
-3.27333951 2.399232626 -0.6361141801
-3.278657436 2.404890299 -0.4941148758
-3.278801203 2.405875921 -0.352083832
-3.289024353 2.415143967 -0.2116477489
-3.275995016 2.407338142 -0.07026159018
-3.506525993 2.566388369 0.07514826953
-3.54011178 2.592869043 0.2277672291
-3.494232655 2.560201406 0.3752672374
-3.49519372 2.562782288 0.5270196199
-3.525309801 2.586755514 0.6858602762
-3.30264926 2.424262762 0.7881039977
-3.467951536 2.547462463 0.9834825993
-3.488973618 2.564780235 1.148690939
-3.185696125 2.347839355 -1.048786879
-3.216826916 2.37251544 -0.9128480554
-3.211406708 2.369383574 -0.7674965858
-3.236339331 2.389524937 -0.6304824948
-3.24629426 2.398625374 -0.4904587865
-3.241542578 2.395990133 -0.3489461839
-3.250065804 2.404043674 -0.2096589953
-3.247097254 2.402725697 -0.06980782747
-3.262552977 2.405361176 0.07005216926
-3.283958673 2.422027349 0.2116477489
-3.48687768 2.573566675 0.375441581
-3.495807886 2.582043171 0.5284820795
-3.51989007 2.60078001 0.6864860654
-3.297324181 2.438110113 0.7888671756
-3.465303659 2.564190149 0.9852823019
-3.483554602 2.578634739 1.149726272
-3.169725418 2.353187323 -1.046198606
-3.190167665 2.369227409 -0.9074491858
-3.218873501 2.392290115 -0.7713127732
-3.214130878 2.389635801 -0.6276667118
-3.244693279 2.414117336 -0.4914337695
-3.229963779 2.404910326 -0.3485975862
-3.243677378 2.416001081 -0.209763661
-3.245104074 2.41882515 -0.06994745135
-3.230474472 2.398287058 0.06952859461
-3.26105547 2.422756433 0.2107057124
-3.476273775 2.584533453 0.3752672374
-3.485633135 2.59243679 0.5282383561
-3.523467064 2.622486115 0.6889889836
-3.282922268 2.444341421 0.7873407602
-3.469282389 2.584982157 0.9888814688
-3.468337774 2.586160183 1.147655725
-3.168093443 2.368312359 -1.048269153
-3.194361687 2.389686584 -0.9110483527
-3.218781948 2.408832788 -0.7732208967
-3.204188585 2.399656534 -0.6273537874
-3.234657764 2.424238205 -0.4911900163
-3.22515893 2.417998314 -0.3489461839
-3.228833914 2.422514677 -0.2093449831
-3.243037701 2.434940815 -0.07008706778
-3.225286245 2.411944389 0.06959840655
-3.23658824 2.422158241 0.2096589953
-3.48363328 2.607987404 0.3770103455
-3.481328726 2.608158827 0.5289695263
-3.523774385 2.64187932 0.6908662319
-3.280652285 2.460497856 0.7888671756
-3.468031645 2.602924824 0.9911310673
-3.484003782 2.616814137 1.155938029
-3.147461414 2.370060205 -1.04412806
-3.153317213 2.376194954 -0.9016004205
-3.17586422 2.394054413 -0.7648252845
-3.181599855 2.400120258 -0.6245380044
-3.194489717 2.41159296 -0.4863152206
-3.191455364 2.413677931 -0.06914464384
-3.226430893 2.430406094 0.06980782747
-3.226518154 2.432238817 0.2095543146
-3.484054089 2.627328873 0.3780562282
-3.475372314 2.622686625 0.5294569731
-3.511378288 2.651782751 0.6902404428
-3.284575701 2.481402397 0.7919201851
-3.449597836 2.607963562 0.9884315729
-3.471766233 2.626629591 1.154902697
-3.114542484 2.36235261 -1.035845876
-3.131033182 2.376583815 -0.8975512981
-3.13778019 2.382566929 -0.7575744987
-3.154328585 2.396869898 -0.6207835674
-3.162349939 2.404706717 -0.4826591909
-3.17489934 2.41512394 -0.3452856541
-3.17370224 2.415962458 -0.206832841
-3.159150124 2.406625748 -0.06862106174
-3.230671167 2.451324701 0.07008706778
-3.232325077 2.454356432 0.210496366
-3.473274231 2.63827014 0.3778819144
-3.482000113 2.646814108 0.5318943858
-3.511533499 2.671199322 0.692117691
-3.282143593 2.497606993 0.79344666
-3.443573475 2.622350216 0.989331305
-3.464113474 2.639902115 1.155420303
-3.084785938 2.356790543 -1.028599024
-3.111881971 2.379212618 -0.8944019675
-3.113850117 2.381578445 -0.7537583113
-3.120844603 2.388655186 -0.6157776713
-3.136601448 2.402452946 -0.4799780548
-3.141145945 2.406802654 -0.3424966633
-3.165249586 2.427026272 -0.206832841
-3.133278608 2.404248714 -0.06823711842
-3.228449821 2.467443943 0.07022668421
-3.23642993 2.475331545 0.2113337517
-3.46562624 2.651588917 0.3780562282
-3.472738981 2.65895319 0.5318943858
-3.499052763 2.681037188 0.6914919615
-3.279637337 2.513826847 0.7949730754
-3.449861765 2.646214247 0.9938303232
-3.465603828 2.660212278 1.15904367
-3.052044153 2.348694086 -1.02031672
-3.080398798 2.372225523 -0.88765347
-3.089964867 2.380452871 -0.7499421835
-3.084327936 2.377825022 -0.6101459861
-3.114051104 2.402473211 -0.4777843952
-3.104334354 2.39584136 -0.3393590748
-3.134628773 2.420968056 -0.205367431
-3.110626698 2.404165506 -0.06792297214
-3.216648579 2.476258039 0.07015687972
-3.240426302 2.496365786 0.2121711224
-3.461084366 2.667317867 0.3785791397
-3.46972394 2.675908327 0.532869339
-3.502183199 2.702890158 0.6939948797
-3.263072491 2.519261122 0.7930650711
-3.451397896 2.666581154 0.9969795942
-3.466996193 2.680564404 1.162667274
-3.025505066 2.345130682 -1.014105082
-3.044382811 2.3614645 -0.8795552254
-3.059922218 2.374373913 -0.7445995212
-3.054165363 2.371616364 -0.6057658792
-3.06802702 2.384095907 -0.4719346762
-3.092805624 2.404217958 -0.3390104473
-3.104089022 2.414726734 -0.203902036
-3.09590435 2.41009593 -0.06778335571
-3.214306593 2.492372751 0.07029649615
-3.253783941 2.524802685 0.2136365175
-3.454900503 2.68182683 0.3789277971
-3.455659866 2.684349775 0.5321381092
-3.489606619 2.712674379 0.6933691502
-3.263557911 2.537866354 0.7953546643
-3.432841063 2.671432018 0.9942803383
-3.468287706 2.700959206 1.16629076
-3.003595591 2.344977856 -1.009446383
-3.019229412 2.358879805 -0.8746063113
-3.026865721 2.365696907 -0.7384936213
-3.033420801 2.372526407 -0.6032629013
-3.044053793 2.382555723 -0.4694972932
-3.059295177 2.395346165 -0.3362214565
-3.057909012 2.395984173 -0.2013899088
-3.06229496 2.401144981 -0.06722487509
-3.218194723 2.513424397 0.07057573646
-3.26068759 2.548444271 0.2146832347
-3.442378521 2.691415787 0.3785791397
-3.450958729 2.700065613 0.532869339
-3.486338854 2.729709625 0.6946206689
-3.267044306 2.558927774 0.7984076738
-3.425029039 2.68460083 0.9947302341
-3.470997572 2.722588301 1.170431733
-2.963501692 2.330371141 -0.9985759258
-2.995662451 2.357353449 -0.8701072931
-2.993907452 2.356818438 -0.7323877215
-3.008051634 2.369654179 -0.5998213291
-3.017011404 2.378419399 -0.4665724039
-3.02588439 2.386270761 -0.3334324956
-3.032280922 2.393033266 -0.2002385259
-3.01623106 2.382074833 -0.06638715416
-3.214116573 2.528351784 0.07068044692
-3.270604134 2.574635506 0.2159393132
-3.458007336 2.723138094 0.3813681304
-3.457103968 2.724382162 0.5353066921
-3.473686695 2.739416361 0.6939948797
-3.268881083 2.578828096 0.8010789752
-3.412578583 2.694124222 0.9938303232
-3.455409288 2.729897499 1.168361306
-2.932633638 2.322709322 -0.990811348
-2.973670483 2.356901884 -0.8660581708
-2.967202187 2.352617502 -0.7278082967
-2.978097439 2.362950563 -0.5954411626
-2.988480568 2.37288928 -0.4634037912
-2.989453793 2.374512911 -0.3302948773
-3.005147219 2.38868928 -0.1989824474
-2.985987425 2.375162125 -0.06589849293
-3.214675426 2.547006845 0.07088988274
-3.310112715 2.624502182 0.2191841304
-3.454724789 2.74014473 0.3820653856
-3.453791857 2.741370678 0.5362817049
-3.476477623 2.761354208 0.6964978576
-3.262933016 2.592666626 0.8018422723
-3.415356159 2.715723038 0.9974296093
-3.441324949 2.738333225 1.166808367
-2.90940547 2.32088542 -0.9856349826
-2.934966087 2.342951536 -0.8570601344
-2.94056201 2.348260164 -0.7232289314
-2.946683884 2.354832888 -0.5907481313
-2.970877409 2.375867844 -0.4619413912
-2.962477922 2.369997263 -0.3282031417
-2.974962711 2.381689787 -0.1975170523
-2.962072611 2.373067141 -0.06554944068
-3.199512959 2.553223372 0.07075025886
-3.366479635 2.688387394 0.2235803455
-3.432685614 2.742239237 0.3806709051
-3.444202423 2.753409147 0.5362817049
-3.476073027 2.780875683 0.6983750463
-3.249265194 2.600359678 0.8006973863
-3.418023348 2.737374306 1.001028776
-3.445312262 2.761202335 1.171467066
-2.883214474 2.316507578 -0.9794233441
-2.902470112 2.333644867 -0.8498616815
-2.917048931 2.346205711 -0.719412744
-2.916901827 2.347764969 -0.5863679647
-2.942468882 2.370035172 -0.4587727785
-2.938672304 2.367823839 -0.3264600337
-2.938644886 2.369493961 -0.1956329495
-2.937065601 2.369066477 -0.06516548991
-3.20149231 2.573145151 0.0709945932
-3.426034689 2.75460124 0.2281859368
-3.444825411 2.771689892 0.3831112683
-3.437662363 2.767904997 0.5367691517
-3.477600574 2.801061153 0.7005650997
-3.252396822 2.621542454 0.8037503362
-3.417548895 2.75662899 1.003728271
-3.434633017 2.771399021 1.17094934
-2.864598751 2.318050385 -0.9757999182
-2.879568577 2.330995798 -0.8453626633
-2.88748455 2.339072466 -0.7140700817
-2.893753767 2.344987631 -0.5832393169
-2.905298471 2.35602355 -0.454141736
-2.918012381 2.368023634 -0.3250655234
-2.913713932 2.365378857 -0.1944815516
-2.917913437 2.370478392 -0.06492115557
-3.199159384 2.588778973 0.07113420963
-3.450545073 2.794196606 0.2304887027
-3.388690948 2.746065617 0.3778819144
-3.425380468 2.776789665 0.5362817049
-3.473938465 2.818161726 0.7018166184
-3.252831697 2.639735937 0.8060400486
-3.405362844 2.765489817 1.00282836
-3.436932087 2.793118715 1.175090551
-2.838923454 2.312894583 -0.9695882201
-2.850268364 2.323794365 -0.839064002
-2.849283695 2.323818445 -0.7064377069
-2.873306751 2.345082998 -0.5807363391
-2.877069712 2.349826336 -0.4509731233
-2.885457516 2.357517719 -0.3222765625
-2.888431549 2.361628056 -0.1933301687
-2.87866807 2.355323315 -0.06422305852
-3.205604553 2.61256361 0.07148326188
-3.474821806 2.833994627 0.2327914834
-3.41970396 2.790035486 0.3824140131
-3.435657024 2.805050373 0.5394502878
-3.474787235 2.839020252 0.7040067315
-3.260318995 2.664741516 0.8102378249
-3.40473938 2.784762859 1.005527854
-3.43314147 2.809992075 1.177161098
-2.803950548 2.300732851 -0.9602707028
-2.833103657 2.326308966 -0.8363646269
-2.835086346 2.328765392 -0.704911232
-2.845265388 2.338791609 -0.5766690373
-2.85965085 2.3522892 -0.4495107234
-2.858748674 2.352383852 -0.320184797
-2.874002695 2.366618633 -0.1929114759
-2.859626532 2.356455088 -0.06397872418
-3.196465492 2.623737574 0.07148326188
-3.492688417 2.86892581 0.2346755713
-3.409944057 2.8019557 0.3824140131
-3.441177845 2.829632998 0.5418877006
-3.461805582 2.848622322 0.7033809423
-3.250997782 2.676105022 0.8102378249
-3.401014328 2.801586628 1.007327437
-3.414367199 2.814587116 1.174055219
-2.778032541 2.295738935 -0.9540590644
-2.80394125 2.31879735 -0.8300659657
-2.811812639 2.32613349 -0.7010950446
-2.814260483 2.329813242 -0.571976006
-2.842250347 2.354658365 -0.4480482638
-2.832111597 2.347091913 -0.3180930614
-2.838051319 2.35368681 -0.191027388
-2.832917452 2.351098537 -0.06355986744
-3.187287331 2.634879589 0.07148326188
-3.507275105 2.901469946 0.2363503277
-3.446190357 2.851950645 0.3876433671
-3.425163507 2.83656311 0.5409126878
-3.459445953 2.866990566 0.7049453259
-3.235590935 2.682424784 0.80871135
-3.397214413 2.818418026 1.00912714
-3.414925814 2.835126162 1.177678704
-2.753668785 2.291827679 -0.9483650327
-2.765882254 2.303628206 -0.8210679293
-2.788593292 2.32336688 -0.6972788572
-2.790938616 2.326972961 -0.5688472986
-2.805053711 2.340401649 -0.4434172213
-2.81472373 2.349303246 -0.3170472085
-2.803759575 2.341812849 -0.1892479658
-2.810884714 2.349431038 -0.06324572861
-3.184217453 2.651107311 0.07162287831
-3.478713036 2.898352861 0.2350942791
-3.374994755 2.81293726 0.3806709051
-3.415240526 2.848502874 0.5409126878
-3.475198507 2.900567293 0.7102640867
-3.233742476 2.699995279 0.8106194735
-3.394832373 2.836506367 1.0113765
-3.418347836 2.858181477 1.182337523
-2.742690325 2.298944473 -0.9473297596
-2.74886632 2.305753946 -0.8183684945
-2.763922453 2.319205999 -0.6930810809
-2.772209644 2.327809095 -0.5666572452
-2.7771101 2.333577394 -0.4402486384
-2.782103777 2.338602304 -0.3142582178
-2.780283689 2.338728905 -0.1882012486
-2.784308672 2.343774557 -0.06282686442
-3.187202215 2.672484636 0.07190211862
-3.48081398 2.920749187 0.2359316349
-3.407883883 2.86056757 0.3855516016
-3.41287756 2.866790295 0.542131424
-3.455979347 2.905053854 0.7083868384
-3.23481679 2.720110655 0.8132907748
-3.393856049 2.855868578 1.014075994
-3.415738821 2.876318455 1.184925675
-2.705124855 2.283581018 -0.9369770288
-2.736334562 2.311563253 -0.8170188665
-2.736315966 2.312366247 -0.6881200671
-2.747475386 2.32344079 -0.563215673
-2.746217489 2.324022055 -0.4365925491
-2.754155159 2.331564188 -0.3119921684
-2.76295948 2.340673447 -0.1875732094
-2.768483639 2.347013712 -0.06265234202
-3.18396616 2.688754082 0.07204173505
-3.485852003 2.945773125 0.2369783521
-3.410050631 2.882736444 0.3869461119
-3.411942959 2.886378527 0.5435938835
-3.442802668 2.914547205 0.7077611089
-3.235789537 2.740267038 0.8159621358
-3.391301155 2.873996973 1.016325474
-3.405678034 2.888224125 1.184925675
-2.720687389 2.313030243 -0.9452592731
-2.723796129 2.317312717 -0.8156691194
-2.88521266 2.455508471 -0.7281899452
-2.788975954 2.375283957 -0.5735403299
-2.775859356 2.365784883 -0.4426860213
-2.755096436 2.348919392 -0.3130380213
-2.771485567 2.364563465 -0.1887246072
-2.76635766 2.361857176 -0.0627919659
-3.183701038 2.707624912 0.07225117087
-3.496841908 2.976045847 0.2384437621
-30.93150139 26.3340683 3.550350904
-3.418467999 2.912431955 0.54627496
-3.437117338 2.930391788 0.7086997032
-3.229191542 2.75409317 0.8167253137
-3.391623974 2.894672871 1.019474864
-3.389698744 2.895075798 1.18285501
-3.092668533 2.647928715 -1.079327583
-2.959864855 2.536015272 -0.8899029493
-3.140467644 2.691705227 -0.7957363725
-3.139024019 2.692370176 -0.6483160257
-2.815786362 2.416832685 -0.4504856467
-3.148974419 2.703767776 -0.3594049215
-3.160111427 2.715246916 -0.2161486596
-3.153841496 2.711773872 -0.07190211862
-3.171191692 2.71612072 0.07218135893
-3.492499113 2.993432522 0.2388624698
-3.411017656 2.924628496 0.3893864751
-3.405268431 2.921760798 0.5457874537
-3.443353653 2.956527472 0.712141335
-3.219558954 2.765347958 0.8167253137
-3.394799232 2.917926788 1.023523927
-3.408864737 2.932085991 1.193207979
-3.09364748 2.667538643 -1.08295095
-2.95984745 2.553969622 -0.8926023841
-3.139969826 2.710347891 -0.7980260253
-3.131101847 2.704601526 -0.6486288905
-2.810336351 2.429243326 -0.4509731233
-3.145546198 2.719955206 -0.3601021469
-3.152124166 2.72756815 -0.2162533253
-3.156449795 2.73323822 -0.07218135893
-3.170776606 2.735010624 0.0723907873
-3.472957134 2.997774839 0.2382344306
-3.421899796 2.954747438 0.3918268085
-3.387538195 2.92714119 0.5445687771
-3.43450737 2.969820023 0.7124541402
-3.217309952 2.782992125 0.8186334372
-3.374279737 2.920830488 1.020374537
-3.395688534 2.941437721 1.192172647
-3.103279114 2.694788456 -1.089680314
-2.971507549 2.582180977 -0.8989009857
-3.129007339 2.720005035 -0.7976444364
-3.139527082 2.731072664 -0.6523833275
-2.804834843 2.441644907 -0.4514606297
-3.148052931 2.741386175 -0.3614966273
-3.153124809 2.7477386 -0.2169860303
-3.152918577 2.749497175 -0.07232097536
-3.173287868 2.756552219 0.07267002016
-3.465485573 3.012501001 0.2384437621
-3.357441425 2.919607401 0.3855516016
-3.384787083 2.945463657 0.5457874537
-3.418160915 2.976601839 0.7112026811
-3.219418526 2.804522276 0.8216863275
-3.364063025 2.932591915 1.020374537
-3.397047043 2.963431358 1.19631362
-3.092399836 2.704332113 -1.089162588
-2.971274376 2.6002388 -0.9016004205
-3.122448683 2.733496666 -0.7984076738
-3.138888597 2.749825716 -0.6542605162
-2.799280167 2.454037666 -0.4519481063
-3.141459703 2.754986525 -0.3618452549
-3.152521372 2.766633272 -0.2176140547
-3.135789633 2.753887892 -0.07214645296
-3.175687075 2.77814579 0.07294926792
-3.47598815 3.042996883 0.239909187
-3.410182476 2.986439943 0.3928726912
-3.389415026 2.970343828 0.548224926
-3.407748938 2.988516092 0.7112026811
-3.224367857 2.828689337 0.8255025148
-3.362592697 2.952030897 1.023074031
-3.386681795 2.975271463 1.19631362
-3.080041647 2.712556839 -1.088127375
-2.94756031 2.597709179 -0.8971014023
-3.120250702 2.750870705 -0.8003157377
-3.138159037 2.768606186 -0.6561377048
-2.805577278 2.476932764 -0.4543854892
-3.134811163 2.768572807 -0.3621939123
-3.151823044 2.78555727 -0.2182420939
-3.141136885 2.778064966 -0.07249549776
-3.168970823 2.791857958 0.07301907241
-3.465344667 3.055111885 0.239909187
-3.390771389 2.990418434 0.3918268085
-3.393909454 2.995292664 0.5506622791
-3.381010056 2.986008167 0.7077611089
-3.21447444 2.839927435 0.8255025148
-3.361028194 2.971494436 1.025773406
-3.376274586 2.987075806 1.19631362
-3.082116604 2.733546257 -1.092268467
-2.935559511 2.605395317 -0.896201551
-3.122374773 2.772173643 -0.8033686876
-3.125522375 2.776919603 -0.6555120349
-2.810266495 2.498581409 -0.456579119
-3.134060144 2.787442684 -0.3632397354
-3.145065069 2.799197197 -0.2184514254
-3.142361641 2.797774076 -0.0727398321
-3.153223038 2.797594547 0.07287944853
-3.464157343 3.07454133 0.2405371964
-3.38925004 3.010174513 0.3928726912
-3.389368057 3.012396336 0.5516372323
-3.371089458 2.997203827 0.7077611089
-3.204541445 2.851130962 0.8255025148
-3.356456757 2.988391876 1.027572989
-3.367793322 2.999540806 1.196831346
-3.07976079 2.75072217 -1.09485662
-2.900746107 2.5917449 -0.8881033659
-3.125851154 2.794831991 -0.8068032265
-3.119241238 2.789902687 -0.6561377048
-2.801965237 2.507887125 -0.456579119
-3.133215666 2.80634141 -0.3642856181
-3.135765076 2.80961132 -0.2184514254
-3.142998457 2.818070889 -0.07298416644
-3.152877569 2.816027403 0.07308888435
-3.462338686 3.094600677 0.2411652356
-3.479705334 3.112308264 0.4047258794
-3.373442411 3.01832509 0.5506622791
-3.366493464 3.014223814 0.7090126276
-3.20530653 2.87091136 0.8281739354
-3.350882053 3.003408432 1.028922796
-3.371683836 3.024177313 1.202007771
-3.077804804 2.76737833 -1.097444773
-2.87429738 2.586212873 -0.882704556
-3.118025303 2.806496143 -0.807184875
-3.118289948 2.808706284 -0.6580149531
-2.807939291 2.530943155 -0.4590165019
-3.13868928 2.830058575 -0.3660287261
-3.137801409 2.83124423 -0.2192888111
-3.137594223 2.833045959 -0.07308888435
-3.151948452 2.835040331 0.07329831272
-3.454485178 3.109339476 0.2413745821
-3.519706488 3.169157982 0.4106524587
-3.373209953 3.039382935 0.5523684621
-3.344214439 3.015374184 0.7065096498
-3.206928492 2.892601013 0.8312268257
-3.334591389 3.009864092 1.027123094
-3.372576237 3.046286821 1.206148863
-3.066694021 2.776808739 -1.096927166
-2.859476566 2.590995789 -0.8809049129
-3.108209133 2.817363739 -0.807184875
-3.12309885 2.832845211 -0.6611436605
-2.822605133 2.56207633 -0.4629163444
-3.125842333 2.83831811 -0.3656801283
-3.139724731 2.852925062 -0.2201261818
-3.124727249 2.84128952 -0.07301907241
-3.155371666 2.858107567 0.073612459
-3.448049307 3.125403881 0.2416886091
-3.544045925 3.213544607 0.4148359299
-3.374339581 3.061811447 0.5543183684
-3.292721033 2.989846706 0.6977493167
-3.205530643 2.911698818 0.8335165381
-3.332717419 3.029349566 1.029822588
-3.346202374 3.043741941 1.200454831
-3.061264277 2.79140234 -1.098480105
-2.847535849 2.598334312 -0.8800051212
-3.105605602 2.834814072 -0.8090929389
-3.121942043 2.851722956 -0.6630208492
-2.834158182 2.590663433 -0.4663286805
-3.118855476 2.851901531 -0.3660287261
-3.135641336 2.869259834 -0.2205448598
-3.123638868 2.860282421 -0.07322850078
-3.151286125 2.874494314 0.07375207543
-3.454819679 3.153578758 0.2429446429
-3.521037579 3.215147734 0.4134414494
-3.378285646 3.086961985 0.5567557216
-3.276432753 2.99599123 0.6964978576
-3.204039335 2.930821419 0.8358062506
-3.335058689 3.052807093 1.033871651
-3.345529795 3.064537525 1.204078317
-3.060039759 2.809910059 -1.101585984
-2.847057343 2.616170406 -0.882704556
-3.110145569 2.858922958 -0.8129091263
-3.11196804 2.862604141 -0.6630208492
-2.902504921 2.671795368 -0.479246825
-3.117675066 2.87086916 -0.3670746088
-3.128544331 2.882894754 -0.2207542211
-3.132746935 2.888791561 -0.07368226349
-3.138287544 2.882771254 0.07368226349
-3.433498144 3.156156778 0.2422119528
-3.521525621 3.238207579 0.4148359299
-3.36310792 3.094702244 0.5560244918
-3.245610476 2.988676548 0.692117691
-3.188013792 2.936666012 0.834279716
-3.325815439 3.065751314 1.034321547
-3.331971169 3.073577642 1.203042984
-3.065814972 2.835001945 -1.107279897
-2.820744753 2.610209227 -0.8773057461
-3.107351065 2.876430511 -0.8148172498
-3.101957321 2.873448849 -0.6630208492
-2.949936867 2.73454237 -0.4887526333
-3.126627684 2.899345398 -0.3693406582
-3.116997242 2.892440319 -0.2206495553
-3.131436586 2.907872915 -0.07389169186
-3.135545731 2.900498152 0.07385679334
-3.413665771 3.159981966 0.2415839136
-3.49704361 3.238296986 0.4132671654
-3.362477064 3.115867853 0.5577306747
-3.226468086 2.991928101 0.6902404428
-3.192136288 2.961127996 0.8380959034
-3.322234154 3.083970785 1.036571026
-3.34103775 3.103597641 1.210289955
-3.06438303 2.853585958 -1.110385776
-2.81446743 2.622696877 -0.8782055378
-3.101599693 2.891276121 -0.8159621358
-3.104908228 2.896386623 -0.6658366919
-2.978101969 2.78004241 -0.495089829
-2.959218979 2.763380289 -0.350515008
-3.118555546 2.914212465 -0.2214869112
-3.124187708 2.921518564 -0.0739615038
-3.138570547 2.92369318 0.07417093217
-3.370474339 3.141917944 0.2392811477
-3.37789011 3.149932623 0.4003680944
-3.338518381 3.115397453 0.555537045
-3.218892097 3.005868435 0.6908662319
-3.196127415 2.985654831 0.8419120908
-3.290096045 3.075586557 1.029822588
-3.259643316 3.049253702 1.184407949
-3.05863142 2.868228674 -1.111938715
-2.812400579 2.639172792 -0.8804550171
-3.091488123 2.902085066 -0.8159621358
-3.106297016 2.918026924 -0.6683396101
-3.019002914 2.838008165 -0.5036206841
-2.94955492 2.773693323 -0.350515008
-3.114182711 2.930554628 -0.221905604
-3.113970757 2.932406425 -0.0739615038
-3.137095928 2.942839384 0.07438036054
-3.349292994 3.144095182 0.2385484427
-3.355254889 3.150793552 0.398973614
-3.311709642 3.112079382 0.5528559089
-3.202624083 3.011673689 0.6896147728
-3.197125196 3.007555485 0.8449650407
-3.198459864 3.010915041 1.004178047
-3.192733526 3.007626772 1.163702488
-3.052813768 2.882867813 -1.113491654
-2.803171396 2.648973227 -0.8804550171
-3.089899063 2.920950651 -0.8182518482
-3.106138229 2.938354015 -0.6705297232
-3.059534073 2.896293163 -0.5121515989
-2.896454573 2.742874622 -0.3452856541
-3.118431568 2.955145597 -0.2229523212
-3.109520197 2.948761463 -0.07410112023
-3.132619143 2.959264994 0.07451998442
-3.274435997 3.095397472 0.2339428663
-3.264616966 3.087194443 0.3893864751
-3.256129742 3.081322193 0.5453000069
-3.206433773 3.036417961 0.6927434206
-3.192308903 3.024097443 0.8464915156
-3.172373056 3.00731492 0.9992291927
-3.14577508 2.984184742 1.150243878
-3.048331738 2.898831844 -1.115562201
-2.785437107 2.650682449 -0.8777556419
-3.088215828 2.939840555 -0.8205414414
-3.093001366 2.946454525 -0.6699039936
-3.101132154 2.956264019 -0.5209261179
-2.883979082 2.750217676 -0.3449370265
-3.116766453 2.974286079 -0.2235803455
-3.116562366 2.976170301 -0.07451998442
-3.122270823 2.970180988 0.07451998442
-3.249144793 3.093037605 0.2328961492
-3.235064745 3.080708981 0.3871204257
-3.203679085 3.052955389 0.5382316113
-3.175801992 3.028505564 0.6883632541
-3.167527676 3.02167058 0.8426753283
-3.16608572 3.02240634 1.00057888
-3.149307251 3.008492708 1.155420303
-3.050752163 2.921479464 -1.1202209
-2.778981447 2.663085938 -0.8786554337
-3.086439133 2.958753586 -0.8228312135
-3.094101191 2.968173265 -0.6724069118
-3.099385262 2.975320101 -0.5223885775
-2.859991074 2.746467829 -0.3431939483
-3.097724676 2.976844311 -0.2229523212
-3.111920118 2.992575645 -0.07465960085
-3.123435974 2.992128372 0.07479921728
-3.215260267 3.08224535 0.2312213928
-3.211348772 3.079571247 0.3855516016
-3.184409142 3.055872917 0.5367691517
-3.178034306 3.051887035 0.6911790371
-3.178198576 3.053111076 0.8483996391
-3.162540436 3.040192366 1.00282836
-3.144356251 3.024824142 1.157490849
-3.054441929 2.945520878 -1.125397325
-2.772473574 2.675476074 -0.8795552254
-3.08456707 2.977690697 -0.8251209259
-3.095087528 2.989935398 -0.6749099493
-3.091835022 2.988880634 -0.5228760839
-2.84752202 2.753664255 -0.3428452909
-3.101666927 3.001528263 -0.2239990383
-3.113473177 3.014005661 -0.07493883371
-3.121607065 3.011344194 0.07500864565
-3.048299074 2.960202456 -1.126950264
-2.760790348 2.681939363 -0.8786554337
-3.076969385 2.991177559 -0.8258841634
-3.090819597 3.00569129 -0.6761614084
-3.093287706 3.010192633 -0.5248259306
-2.816482306 2.74273634 -0.3402306139
-3.103141785 3.022946835 -0.224836424
-3.102933884 3.024854422 -0.07493883371
-3.12308073 3.032823086 0.07528788596
-3.192773581 3.102667809 0.231116727
-3.201197386 3.113029003 0.3869461119
-3.153575182 3.067787647 0.5350629687
-3.138786316 3.055535793 0.6871117353
-3.147356033 3.067089081 1.004628062
-3.133375645 3.055598497 1.161114335
-3.032939911 2.964893103 -1.124879599
-2.754197836 2.69428587 -0.8795552254
-3.069839954 3.004109859 -0.8266473413
-3.088777781 3.024753809 -0.6780385971
-3.099774837 3.037644386 -0.5277508497
-2.9425354 2.884562016 -0.3567902148
-3.103976727 3.044949532 -0.2256737947
-3.098063231 3.041271448 -0.07507845014
-3.11676383 3.04790163 0.07539259642
-3.18335104 3.115190506 0.2312213928
-3.190856695 3.123627663 0.3869461119
-3.151355505 3.08711195 0.5365254283
-3.118227482 3.056792736 0.6849216819
-3.157804489 3.096672535 0.8514525294
-3.135240078 3.076690912 1.004178047
-3.117176533 3.061102629 1.15904367
-3.033586502 2.986303806 -1.12902081
-2.744776249 2.70388341 -0.8795552254
-3.073317766 3.028588295 -0.8304635286
-3.078200579 3.035517454 -0.6780385971
-3.100456715 3.059600115 -0.5297006965
-3.08841753 3.048783541 -0.3759644926
-3.09901309 3.061379671 -0.2260924727
-3.094539165 3.059096813 -0.07525297999
-3.104681492 3.05735898 0.0753576979
-3.176724672 3.130490303 0.2315354198
-3.177096128 3.131948233 0.3865974844
-3.143385887 3.100882292 0.5370129347
-3.137060165 3.096802235 0.6914919615
-3.138594151 3.099399328 0.849162817
-3.132797956 3.095834732 1.006877542
-3.107846975 3.07332325 1.159561396
-3.035490751 3.009115696 -1.133679509
-2.729787827 2.707957745 -0.8777556419
-3.076663494 3.053126097 -0.834279716
-3.080200911 3.058771133 -0.6808543801
-3.089757681 3.070404291 -0.5297006965
-3.089059353 3.070783377 -0.377358973
-3.088307858 3.072178841 -0.2260924727
-3.09801507 3.083987474 -0.07560203224
-3.099669933 3.073810101 0.07549731433
-3.170031548 3.145780087 0.231849432
-3.173214674 3.150038004 0.3874690533
-3.136768103 3.116032362 0.5377441049
-3.134635687 3.116090059 0.6933691502
-3.138893843 3.121410847 0.8522158265
-3.128878355 3.113625526 1.00912714
-3.112157583 3.099147558 1.165255427
-3.042742252 3.037436247 -1.140408874
-2.725832939 2.722979307 -0.8795552254
-3.071542501 3.069398642 -0.8358062506
-3.076488733 3.076488256 -0.6824187636
-3.07621479 3.078362703 -0.5292132497
-3.089586973 3.092823505 -0.3787534535
-3.083209276 3.088594675 -0.2265111804
-3.090055227 3.09761405 -0.07567184418
-3.105901957 3.101566553 0.07591617107
-3.157618761 3.155415058 0.2317447662
-3.180517197 3.179406881 0.3897351027
-3.137099504 3.138194561 0.5396940112
-3.134908915 3.138192892 0.695872128
-3.147400141 3.151797295 0.8575584292
-3.120744467 3.127286434 1.010026813
-3.112232924 3.120936632 1.169396639
-3.029395819 3.04529953 -1.139373541
-2.723180532 2.739388227 -0.8818047643
-3.058041573 3.077316284 -0.8350430131
-3.079650402 3.101225615 -0.685547471
-3.076636791 3.100354433 -0.531163156
-3.078772068 3.103589296 -0.3787534535
-3.08787632 3.114940882 -0.2276625633
-3.079766273 3.107844353 -0.07567184418
-3.106336594 3.123733044 0.07619541138
-3.166850567 3.185698986 0.2332101613
-3.184845448 3.206038475 0.3916525245
-3.141509771 3.164622545 0.5423751473
-3.121701717 3.145766973 0.6952463388
-3.148821115 3.175311327 0.8609930277
-3.134499788 3.163076878 1.018125176
-3.115463018 3.144963741 1.174572945
-3.016032696 3.053106308 -1.138338208
-2.719558477 2.753950119 -0.8836043477
-3.061071396 3.1019454 -0.8388591409
-3.072123528 3.114233732 -0.686173141
-3.08306241 3.127503633 -0.5340880156
-3.067919731 3.114317656 -0.3787534535
-3.09014225 3.137971401 -0.2286046147
-3.074509382 3.124276876 -0.07581146061
-3.095960855 3.134016991 0.07619541138
-3.197804689 3.239374876 0.2363503277
-3.263183832 3.307912588 0.4028084278
-3.222991228 3.268309832 0.5584619045
-3.125953913 3.172122002 0.6986879706
-3.146540403 3.194127083 0.8632826805
-3.13219595 3.181786537 1.020824552
-3.109884739 3.161328316 1.176643491
-3.01671648 3.07412219 -1.14247942
-2.711292982 2.764817715 -0.8840542436
-3.059014559 3.120491266 -0.8411489129
-3.058469772 3.122116327 -0.685547471
-3.086012363 3.152432442 -0.5365254283
-3.072356462 3.140673637 -0.3806709051
-3.080566168 3.15016675 -0.2287092805
-3.074766159 3.146430731 -0.07609069347
-3.085002184 3.144804716 0.07619541138
-3.389210939 3.45732379 0.2515277267
-3.422325611 3.492324591 0.424074471
-3.29767561 3.367473841 0.5735737085
-3.13282299 3.201368093 0.7027552724
-3.139490843 3.209300518 0.8644275665
-3.134692669 3.206635714 1.02532351
-3.117729902 3.191511154 1.183890343
-3.013516188 3.093461752 -1.145585179
-2.702985525 2.775660753 -0.8845041394
-3.061248064 3.145752907 -0.8449650407
-3.056646824 3.143217802 -0.6877375245
-3.074989557 3.163185596 -0.5365254283
-3.072479963 3.162812233 -0.3820653856
-3.066217899 3.158569813 -0.2284999192
-3.074904919 3.16862607 -0.07636994123
-3.082377195 3.164149523 0.07640483975
-3.379908562 3.471995831 0.251737088
-3.437289 3.533406258 0.4275607169
-3.288668394 3.381810665 0.5740612149
-3.139526606 3.230700254 0.7068225741
-3.338336945 3.437685728 0.923196733
-3.331916809 3.43347168 1.094608545
-3.241083384 3.34103632 1.235654235
-3.014788866 3.116457462 -1.150243878
-2.700920343 2.79395628 -0.8872035742
-3.052977562 3.159242392 -0.8457282186
-3.056633234 3.165236712 -0.6902404428
-3.060618401 3.171576738 -0.5360379219
-3.07110405 3.183555603 -0.3832855523
-3.070421696 3.185070992 -0.2296513319
-3.071594954 3.188514948 -0.07657936215
-3.087441444 3.192674637 0.07682370394
-3.364384174 3.481487989 0.2515277267
-3.44154501 3.56257844 0.4296524227
-3.281766176 3.399554253 0.5750361681
-3.123548985 3.237921 0.7058839202
-3.342671156 3.466275215 0.9277761579
-3.3347857 3.460516453 1.0995574
-3.25829649 3.38350606 1.247042179
-3.003891945 3.126962185 -1.150243878
-2.699249029 2.811801434 -0.8899029493
-3.047368765 3.175546408 -0.8472548127
-3.05787158 3.188718319 -0.6930562854
-3.060516119 3.193708181 -0.5379878879
-3.068243027 3.202888489 -0.384331435
-3.066189528 3.202983618 -0.2301746756
-3.063210964 3.202107668 -0.07664917409
-3.084588528 3.212086439 0.07703312486
-3.371571779 3.513386011 0.2529931664
-3.429087162 3.574570894 0.4296524227
-3.283616781 3.425319433 0.5774735212
-3.11359477 3.250230312 0.706196785
-3.341413736 3.48926568 0.9308290482
-3.336159945 3.486214638 1.104056358
-3.249136686 3.397651911 1.248077512
-2.979623795 3.123450518 -1.145067453
-2.697485209 2.829669714 -0.8926023841
-3.041682482 3.191848993 -0.8487812281
-3.04535985 3.197942019 -0.6927434206
-3.060297489 3.215875149 -0.5399377346
-3.054297686 3.210692167 -0.3839828372
-3.061871529 3.22090435 -0.2306980491
-3.063031912 3.224380016 -0.0769284144
-3.078877687 3.228623152 0.07717274874
-3.362042427 3.528024912 0.253202498
-3.427583933 3.598059177 0.4310469329
-3.282589674 3.448262691 0.5794234276
-3.110399246 3.269666195 0.7080740333
-3.331918478 3.503754616 0.9315923452
-3.342764139 3.517615557 1.11035502
-3.238586664 3.410373688 1.248595119
-2.985974789 3.152063847 -1.151796818
-2.692949772 2.844729185 -0.8944019675
-3.04131794 3.213855028 -0.8518341184
-3.040964603 3.215729237 -0.6943077445
-3.062687874 3.24096632 -0.5423751473
-3.056753397 3.235817432 -0.3857259452
-3.062948942 3.244644165 -0.2316401005
-3.059991121 3.243779659 -0.07713783532
-3.067588568 3.239350796 0.07717274874
-3.366180658 3.557147503 0.2544585466
-3.431433439 3.627370119 0.4331386387
-3.278714895 3.468355417 0.5808858275
-3.10710597 3.28911972 0.7099512219
-3.308885336 3.503944159 0.9285394549
-3.338489771 3.537766457 1.113054395
-3.234615564 3.430089951 1.251700997
-2.982895374 3.170911074 -1.154902697
-2.680334806 2.851272106 -0.8935022354
-3.038147688 3.233036041 -0.8541238904
-3.036483049 3.233524084 -0.695872128
-3.051923513 3.251104832 -0.5423751473
-3.050891161 3.252280951 -0.3864231706
-3.052970409 3.256773472 -0.2317447662
-3.060156345 3.265582561 -0.07741708308
-3.060372114 3.254409313 0.07727746665
-3.357103109 3.571200848 0.254667908
-3.418750525 3.639326096 0.4331386387
-3.263870716 3.476884842 0.5803983808
-3.105643988 3.309488535 0.712141335
-3.312749147 3.532657862 0.9331188202
