# .PCD v0.7 - Point Cloud Data file format
VERSION 0.7
FIELDS x y z
SIZE 4 4 4
TYPE F F F
COUNT 1 1 1
WIDTH 1163
HEIGHT 1
VIEWPOINT 0 0 0 1 0 0 0
POINTS 1163
DATA ascii
0.6034682393 -0.7138553858 0.07806616277
0.5821082592 -0.6888321042 0.1055953875
0.5962108374 -0.7062699795 0.1714092791
0.5819238424 -0.6898339987 0.1984033883
0.5883221626 -0.697912991 0.232989192
0.5787658095 -0.6882811189 -0.2293657213
0.5881204009 -0.6999016404 -0.2011028081
0.5906950235 -0.7032147646 -0.1702644229
0.5924893618 -0.7058510184 -0.1392782032
0.6012669802 -0.7168161869 -0.109738946
0.5813955069 -0.693371594 -0.07545149326
0.5991159081 -0.7150115967 -0.04668480158
0.5868151188 -0.7005797625 -0.01525160577
0.5970439911 -0.71026963 0.01549594011
0.5949741006 -0.7080579996 0.0462661162
0.5934104323 -0.7066978216 0.07702029496
0.5899081826 -0.7030251622 0.1075452939
0.5886971354 -0.7023284435 0.1698828042
0.5820149183 -0.6948488951 0.1993031949
0.578563273 -0.6909730434 0.2298833728
0.570168972 -0.6828826666 -0.2267775238
0.5832987428 -0.6988558769 -0.2002030015
0.5857217908 -0.7022570372 -0.1695012003
0.5800254941 -0.6956743002 -0.1367752552
0.6014279723 -0.7218563557 -0.1102264225
0.5827960968 -0.6999902129 -0.07597442716
0.595463872 -0.7154593468 -0.04658012837
0.5882021189 -0.7072361112 -0.01535631996
0.5831506848 -0.6984306574 0.01518179569
0.5937784314 -0.7116640806 0.04637078568
0.5909398794 -0.7087649107 0.07702029496
0.5761350989 -0.6912534833 0.1053516492
0.5763155818 -0.6922065616 0.1668298692
0.5797075629 -0.6967751384 0.1993031949
0.5736777186 -0.6900173426 0.2288480848
0.5703678131 -0.6877436638 -0.2278128117
0.5696643591 -0.6873837113 -0.1961538792
0.590780139 -0.7133696675 -0.1717908978
0.5750742555 -0.6946514845 -0.1361495107
0.5913125873 -0.7147740126 -0.1087639853
0.5905048251 -0.714305222 -0.07736892253
0.5775732398 -0.6991592646 -0.04532406852
0.583183229 -0.7062013149 -0.01528651174
0.5934718251 -0.7158565521 0.01553084422
0.5874680877 -0.7091183662 0.04605676979
0.5860447288 -0.7076516747 0.07667167485
0.5737746358 -0.6943142414 0.1668298692
0.5747895241 -0.6957895756 0.1984033883
0.5712655783 -0.6920157075 0.2288480848
0.5690710545 -0.691321075 -0.2283304334
0.5646651983 -0.6864569783 -0.1952540725
0.5781882405 -0.7033971548 -0.1687379628
0.5725243688 -0.6967545748 -0.1361495107
0.5861693621 -0.7138682604 -0.1082765162
0.5752445459 -0.7010621428 -0.0756257996
0.5775395632 -0.7043604851 -0.0455334112
0.5755203366 -0.7021477818 -0.01514689159
0.5857616663 -0.7118504047 0.01539122593
0.57344836 -0.6973826289 0.0451147221
0.5885078311 -0.7159514427 0.07736892253
0.573716104 -0.6994484067 0.1675930917
0.5648218393 -0.6888500452 0.1957039833
0.5711742043 -0.6970934272 0.2298833728
0.5604218841 -0.6859222054 -0.2257422507
0.5646103024 -0.6915410757 -0.1961538792
0.5695226192 -0.6978061795 -0.1668298692
0.5699667335 -0.6988483071 -0.1361495107
0.578656435 -0.7097557187 -0.107301563
0.5677601695 -0.6968873739 -0.07492855936
0.5775993466 -0.7094698548 -0.04574275389
0.5680168867 -0.6979485154 -0.01500727143
0.579353869 -0.7093462944 0.01528651174
0.5747998953 -0.7040214539 0.045428738
0.5758036375 -0.705753386 0.07597442716
0.5737506151 -0.7044913769 0.1683563292
0.5599532127 -0.6877949834 0.1948041767
0.5662990212 -0.6960858107 0.2288480848
0.5544922352 -0.6832766533 -0.2241893411
0.5635414124 -0.6949232221 -0.1966037899
0.5659691095 -0.698165834 -0.1664482504
0.5676462054 -0.7007344961 -0.1361495107
0.5787981153 -0.7147561908 -0.1077890396
0.5727318525 -0.7082752585 -0.0455334112
0.576998353 -0.711263597 0.01528651174
0.5724621415 -0.7059236765 0.045428738
0.5684424639 -0.7014671564 0.07527717948
0.5640029907 -0.6972318292 0.1660666317
0.5601199865 -0.69267869 0.1957039833
0.551845789 -0.6829338074 0.2236716896
0.5485864282 -0.6805993915 -0.2226364315
0.5636786819 -0.6998233795 -0.1975035816
0.5672215819 -0.7047253847 -0.1675930917
0.575055778 -0.7152251005 -0.1075452939
0.5677551627 -0.7071553469 -0.04532406852
0.5671086311 -0.7038302422 0.01507708151
0.5674893856 -0.7048062682 0.04521939531
0.5566482544 -0.6930735707 0.1645401567
0.5528184772 -0.6885513067 0.193904385
0.5494585633 -0.6848559976 0.2236716896
0.5533290505 -0.6916566491 -0.2257422507
0.5538088679 -0.6927518845 -0.1948041767
0.5634095073 -0.7052657604 -0.1672114879
0.56871593 -0.7126732469 -0.106814079
0.5631688833 -0.7069866061 -0.01507708151
0.5657741427 -0.7074657679 0.01511198562
0.5611617565 -0.7022007108 0.04490537941
0.5541042686 -0.695109129 0.1645401567
0.550291121 -0.6905729175 0.193904385
0.549351573 -0.6898877025 0.2247069776
0.5507903695 -0.6936799884 -0.2257422507
0.5476323366 -0.6901973486 -0.1934544742
0.5597242117 -0.7056899667 -0.1668298692
0.5552457571 -0.7005457282 -0.1348980367
0.5551298261 -0.7006507516 -0.1046204343
0.5589627028 -0.7065010071 -0.04501005262
0.5656636953 -0.7126672864 0.01518179569
0.5634179115 -0.7106016874 0.0756257996
0.5516744852 -0.6970391273 0.1645401567
0.5469399691 -0.6918011308 0.2247069776
0.5437019467 -0.6894350052 -0.2236716896
0.5566167831 -0.7083507776 -0.04501005262
0.5595833063 -0.7098280191 0.01507708151
0.5561277866 -0.7062049508 0.07492855936
0.5517866015 -0.701951623 0.1653033942
0.5398706198 -0.6875334978 0.2226364315
0.5527921915 -0.7075416446 -0.1051079109
0.5542647243 -0.7101926804 -0.04501005262
0.5446230769 -0.6975876093 0.1637769192
0.5527524352 -0.7126040459 -0.1055953875
0.541672945 -0.7023618221 -0.164158538
0.5454167128 -0.7082380652 -0.1046204343
0.5446889997 -0.7163023949 0.01500727143
-0.7703799009 -0.4534263015 -0.1046204343
-0.7787356377 -0.4548742771 -0.1055953875
-0.7671331167 -0.4452284873 -0.164158538
-0.7803187966 -0.4521529973 -0.1055953875
-0.775008142 -0.4454694092 -0.1046204343
-0.7633693814 -0.4377166927 0.2241893411
-0.7765583396 -0.4427615702 -0.1046204343
-0.7882150412 -0.4505020976 0.01514689159
-0.7723888755 -0.4400269091 0.1645401567
-0.7884665728 -0.4459114373 -0.1060828716
-0.7931679487 -0.4478394687 -0.0455334112
-0.783675015 -0.4422994554 -0.01500727143
-0.7845640779 -0.4447892904 0.0150421774
-0.7705774903 -0.4352620244 0.1637769192
-0.7767740488 -0.4362619221 -0.1649217755
-0.8004844785 -0.4488436878 -0.1075452939
-0.7982116342 -0.4470198452 -0.04574275389
-0.7870359421 -0.4404006302 -0.0150421774
-0.7844458222 -0.4409308732 0.01500727143
-0.7720921636 -0.4325695336 0.1637769192
-0.7773019075 -0.4351319373 0.1957039833
-0.7663000822 -0.4286216497 0.2236716896
-0.7701974511 -0.4295673668 -0.2247069776
-0.7954431176 -0.4431019723 -0.1687379628
-0.7916373014 -0.4402578473 -0.1060828716
-0.7892910242 -0.4384121001 -0.0451147221
-0.804304719 -0.4463839531 -0.01535631996
-0.7894734144 -0.4401374459 0.01507708151
-0.7852651477 -0.4374323189 0.04490537941
-0.7923118472 -0.4411762655 0.0756257996
-0.780461967 -0.433686018 0.1653033942
-0.7702974081 -0.4276862144 0.1934544742
-0.7677915096 -0.4259443283 0.2236716896
-0.7767637372 -0.4296814203 -0.2262599021
-0.7711170316 -0.4262066185 -0.1934544742
-0.7866744995 -0.4346260428 -0.1664482504
-0.7843093872 -0.4329622984 -0.1352109015
-0.7965689898 -0.4395483732 -0.1065703481
-0.787173748 -0.4340059161 -0.07492855936
-0.7978140712 -0.4395091534 -0.0455334112
-0.7935189009 -0.4369622171 -0.01511198562
-0.7997549772 -0.4422171712 0.01525160577
-0.8008233905 -0.4422606528 0.07632304728
-0.7854098678 -0.4328544438 0.1660666317
-0.7700045109 -0.4241890907 0.1930045784
-0.7861239314 -0.4327115417 0.2288480848
-0.7798777223 -0.4280328453 -0.2267775238
-0.7810695171 -0.4283322692 -0.1957039833
-0.7846682668 -0.4301276803 -0.1656850129
-0.7961361408 -0.4360526502 -0.13708812
-0.8084695339 -0.4426240921 -0.1080327779
-0.7903565168 -0.4323492944 -0.0751028657
-0.8027723432 -0.4387768805 -0.04574275389
-0.7967182398 -0.4352875352 -0.01514689159
-0.8099828959 -0.4443717599 0.01542613003
-0.7881490588 -0.4322146177 0.04490537941
-0.8022856116 -0.4396025538 0.07632304728
-0.8006213307 -0.4377827048 0.1691195667
-0.7731170058 -0.4225679636 0.1934544742
-0.7892499566 -0.4310281575 0.2293657213
-0.7762030363 -0.4226726592 -0.2252246141
-0.7927562594 -0.4313278794 -0.1984033883
-0.7930644155 -0.4311366081 -0.1672114879
-0.7975777388 -0.4334101081 -0.13708812
-0.8100096583 -0.4397993088 -0.1080327779
-0.8218579888 -0.4454898536 -0.04678947479
-0.8017493486 -0.4344089031 -0.01521670166
-0.8149648309 -0.44359532 0.01549594011
-0.800180316 -0.4351862073 0.0455334112
-0.7967371345 -0.4331332147 0.0756257996
-0.7952412963 -0.4312418103 0.1675930917
-0.7848666906 -0.4254386425 0.1961538792
-0.7856536508 -0.4255104661 0.2278128117
-0.7862469554 -0.4244131148 -0.2278128117
-0.7909015417 -0.4265690148 -0.1975035816
-0.8015522957 -0.4319525957 -0.1687379628
-0.7956827879 -0.4286100864 -0.1364623755
-0.8221039772 -0.4424725175 -0.1094952077
-0.7934302092 -0.4266823828 -0.0751028657
-0.8129289746 -0.4368024766 -0.04616143927
-0.8103827834 -0.4352521002 -0.01535631996
-0.8113055229 -0.4377568364 0.01539122593
-0.8070440888 -0.4350938499 0.0458474271
-0.7983192205 -0.4302102923 0.0756257996
-0.7898994684 -0.4246061742 0.1660666317
-0.7932872772 -0.42624861 0.1979534924
-0.7872078419 -0.4226282239 0.2278128117
-0.7946106791 -0.4251742065 -0.2298833728
-0.7941781878 -0.4245862961 -0.1979534924
-0.8065183163 -0.4310026467 -0.1695012003
-0.7972483039 -0.4256910682 -0.1364623755
-0.8288974166 -0.442404002 -0.1102264225
-0.8019468188 -0.4276604354 -0.07580011338
-0.8179740906 -0.4358405173 -0.04637078568
-0.8242518902 -0.4390011132 -0.0156006543
-0.8093779087 -0.4328940809 0.01532141585
-0.8050352335 -0.4303907454 0.04563808069
-0.8139497042 -0.4347913861 0.07702029496
-0.8017718196 -0.4273871481 0.1683563292
-0.79477036 -0.4234768748 0.1979534924
-0.8006151915 -0.4262324572 0.2314362824
-0.7960162163 -0.4225368202 -0.2298833728
-0.7955818176 -0.4219503701 -0.1979534924
-0.8114122748 -0.4301648438 -0.1702644229
-0.812620461 -0.430442065 -0.1389653385
-0.8303598166 -0.4396530092 -0.1102264225
-0.8174496293 -0.432452172 -0.07719460875
-0.8211807609 -0.4340589941 -0.04647545889
-0.816862762 -0.431594491 -0.01542613003
-0.8249405622 -0.4377057254 0.0156006543
-0.8011647463 -0.42491135 0.04532406852
-0.8259500265 -0.4376870692 0.07806616277
-0.8031845689 -0.4247261882 0.1683563292
-0.7892788053 -0.4171963036 0.1961538792
-0.8156901598 -0.4307925999 0.2355773747
-0.8076691031 -0.4252953231 -0.232989192
-0.8124982715 -0.4274760485 -0.2020026147
-0.805957675 -0.4236760139 -0.1687379628
-0.8227866888 -0.4323391616 -0.1405296773
-0.8248591423 -0.4330605865 -0.1092514694
-0.8207185864 -0.4305216372 -0.07736892253
-0.8315358162 -0.4358259439 -0.04699881747
-0.8095077276 -0.4241004586 -0.01525160577
-0.8352351189 -0.4396248758 0.01577517949
-0.8097139597 -0.4258307517 0.04574275389
-0.8309238553 -0.4368002415 0.07841478288
-0.791392386 -0.4156665802 0.1046204343
-0.8185722232 -0.4292132854 0.1714092791
-0.7976343632 -0.4180574417 0.1979534924
-0.8086320758 -0.4234615862 0.232989192
-0.7903834581 -0.4125001431 -0.2272951603
-0.8226990104 -0.4290005565 -0.2042521238
-0.8214340806 -0.4279760718 -0.1717908978
-0.8278697133 -0.431145668 -0.1411554217
-0.8405285478 -0.4373650849 -0.1112013832
-0.8134521842 -0.4229153097 -0.07649736106
-0.8473068476 -0.4401405156 -0.04783619195
-0.8323532939 -0.4321886003 -0.01567046531
-0.829749167 -0.4328608215 0.01563555934
-0.8218958974 -0.4283990562 0.04637078568
-0.8219176531 -0.4282280207 0.07736892253
-0.8069970608 -0.4200961292 0.1065703481
-0.8201397657 -0.4262104034 0.1714092791
-0.8129960299 -0.4223174751 0.201552704
-0.8050346375 -0.4178253412 0.2314362824
-0.8073331118 -0.4175885022 -0.231953904
-0.8121474981 -0.419719249 -0.2011028081
-0.8264114261 -0.4269084036 -0.1725541353
-0.8154016733 -0.4208602011 -0.1386524588
-0.8561632633 -0.4417096376 -0.1131512895
-0.8220073581 -0.4237248003 -0.07719460875
-0.8435112238 -0.4344368875 -0.04752217606
-0.8267452121 -0.4256193042 -0.01553084422
-0.8331063986 -0.4307350814 0.01567046531
-0.8340322375 -0.4310293198 0.04699881747
-0.8305628896 -0.4288690984 0.07806616277
-0.805003047 -0.415315181 0.1060828716
-0.7962360978 -0.4106162488 0.1352109015
-0.8146417141 -0.4197480083 0.1698828042
-0.8144651651 -0.4194771945 0.201552704
-0.8116414547 -0.4176644981 0.232989192
-0.8087133765 -0.4149089754 -0.231953904
-0.8170032501 -0.4188016355 -0.2020026147
-0.8383061886 -0.4295369685 -0.1748438478
-0.8203095198 -0.4199542403 -0.1392782032
-0.8576233387 -0.4388680458 -0.1131512895
-0.8305038214 -0.4246245623 -0.07789184898
-0.8324968815 -0.4252770841 -0.04678947479
-0.8459615707 -0.4319693148 -0.01587989368
-0.8309714198 -0.426145196 0.0156006543
-0.8301249743 -0.4255279005 0.04668480158
-0.8461671472 -0.433378607 0.07946065813
-0.8116773367 -0.4153562784 0.106814079
-0.8046280742 -0.4115718007 0.1364623755
-0.8195255399 -0.41883111 0.1706460416
-0.8175871372 -0.4176605344 0.2020026147
-0.819904685 -0.4184836745 0.2350597382
-0.8186936975 -0.4166055918 -0.2345421165
-0.8166504502 -0.4152068198 -0.201552704
-0.8362255692 -0.424975723 -0.1740806103
-0.8357883096 -0.4243864417 -0.1417811513
-0.8520687222 -0.4322793782 -0.1121763363
-0.8443461657 -0.428175956 -0.07911203057
-0.8481554389 -0.4297358394 -0.04762684926
-0.8421119452 -0.4263041615 -0.01577517949
-0.8555508852 -0.4351730049 0.01605441794
-0.8191415668 -0.4162935019 0.04595209658
-0.8475996256 -0.430570215 0.07946065813
-0.8112801313 -0.4117639065 0.1065703481
-0.8060598969 -0.4087606072 0.1364623755
-0.8244122267 -0.4178864062 0.1714092791
-0.822517097 -0.416565001 0.2029024214
-0.8265317082 -0.418235749 0.2366126478
-0.8253173232 -0.4163556099 -0.2360950261
-0.8285359144 -0.4176163673 -0.2042521238
-0.837703824 -0.4220543206 -0.1740806103
-0.8443222642 -0.4250190854 -0.1430326253
-0.853572607 -0.4293022454 -0.1121763363
-0.8387152553 -0.4216463566 -0.07841478288
-0.8514352441 -0.4276688695 -0.04773152247
-0.8453820348 -0.4242591858 -0.0158100836
-0.8534936309 -0.4303831458 0.01598460786
-0.8402100205 -0.4233169854 0.04710348696
-0.8544359207 -0.4302973449 0.07998359203
-0.8198054433 -0.4124986529 0.1075452939
-0.7951274514 -0.3997335434 0.1342722923
-0.8469164968 -0.4255844653 0.1759886891
-0.8309323788 -0.417188853 0.2047020197
-0.8314402103 -0.4170804918 0.2376479357
-0.8336768746 -0.4169285595 -0.2381655723
-0.8474208713 -0.4234323204 -0.208751142
-0.8461974859 -0.4226365089 -0.1756070852
-0.8458005786 -0.4220694602 -0.1430326253
-0.872831285 -0.4351775348 -0.1146137193
-0.8366153836 -0.4169389307 -0.07806616277
-0.8654381037 -0.4309258163 -0.04846422374
-0.8593905568 -0.4275403023 -0.01605441794
-0.8639342189 -0.431871742 0.01615913212
-0.8506165147 -0.4248436093 0.04762684926
-0.8505849838 -0.4246421456 0.07946065813
-0.8247931004 -0.4114065766 0.1080327779
-0.8088937998 -0.403123498 0.1364623755
-0.8413677216 -0.4191240072 0.1744622141
-0.8376173377 -0.4168909192 0.2060517371
-0.8294314146 -0.4124552906 0.2366126478
-0.8299345374 -0.4114419222 -0.2366126478
-0.8384162188 -0.4152819514 -0.2060517371
-0.8547053933 -0.4231642485 -0.1771335453
-0.8437275887 -0.4173628092 -0.1424068958
-0.8743448853 -0.4321283102 -0.1146137193
-0.8452109694 -0.417545855 -0.07876341045
-0.8687278628 -0.428786397 -0.04856889695
-0.8537038565 -0.4210000932 -0.01591479778
-0.8475186229 -0.4199747443 0.0158100836
-0.8592540622 -0.4254162908 0.04804553464
-0.8449192643 -0.418135792 0.07876341045
-0.833342135 -0.4120441675 0.1090077311
-0.8209223747 -0.405546993 0.138339594
-0.8410654068 -0.4153150618 0.1740806103
-0.8425627351 -0.4156889617 0.2069515437
-0.8343315721 -0.4112659991 0.2376479357
-0.8331711292 -0.4092487991 -0.2371302992
-0.8399326801 -0.4122062027 -0.2060517371
-0.8633009195 -0.4234874845 -0.1786600202
-0.8487992287 -0.4160062671 -0.1430326253
-0.8687172532 -0.4255802929 -0.1136387661
-0.8538937569 -0.417948842 -0.07946065813
-0.8649111986 -0.4229670167 -0.04825488105
-0.8659474254 -0.4232867658 -0.01612422802
-0.8598222733 -0.4221534729 0.01601951383
-0.8571477532 -0.4206546843 0.04783619195
-0.8679131269 -0.4255620539 0.08085514605
-0.8277159333 -0.4054939449 0.1080327779
-0.8329776525 -0.4078911245 0.1402168125
-0.8443453312 -0.4130925834 0.1744622141
-0.8440087438 -0.4127451181 0.2069515437
-0.8461765647 -0.4134396017 0.2407537699
-0.8466811776 -0.4124053419 -0.2407537699
-0.8447995186 -0.4111240506 -0.2069515437
-0.8647005558 -0.4206223488 -0.1786600202
-0.8608341217 -0.4183700383 -0.1449098438
-0.870123744 -0.4226971865 -0.1136387661
-0.8642371297 -0.4194647074 -0.08033221215
-0.8681060076 -0.4209681749 -0.04835955054
-0.8673463464 -0.4204128385 -0.01612422802
-0.8666113019 -0.4219259024 0.01612422802
-0.8549461961 -0.4160619676 0.04762684926
-0.8800704479 -0.4279088676 0.08190101385
-0.8326271772 -0.404481709 0.1085202545
-0.8325486779 -0.4042639732 0.1399039477
-0.8563088179 -0.4154319465 0.1767519265
-0.8383588791 -0.4065430164 0.2051519305
-0.8510200977 -0.4123159051 0.2417890429
-0.8515232801 -0.4112757444 -0.2417890429
-0.8566885591 -0.4134020805 -0.2096509486
-0.8590174317 -0.4143408239 -0.1771335453
-0.8693346977 -0.418943584 -0.1461613178
-0.8787483573 -0.4231019318 -0.1146137193
-0.8692140579 -0.4183245301 -0.08068083972
-0.8766971827 -0.4215490818 -0.04877823964
-0.8670061231 -0.4165167212 -0.01608932205
-0.8824122548 -0.4260048568 0.0164034646
-0.8563933372 -0.4130751193 0.04762684926
-0.8778952956 -0.4232575595 0.08155239373
-0.8446944356 -0.4068872333 0.1099826917
-0.8232749104 -0.3962154984 0.1380267292
-0.868296802 -0.417696476 0.179041639
-0.8503113389 -0.4086790681 0.2078513354
-0.8559370637 -0.4110152125 0.242824316
-0.8424986601 -0.403296113 -0.2386832088
-0.8651586771 -0.4137721062 -0.2114505619
-0.8710861802 -0.4164202511 -0.1794232577
-0.8707919121 -0.4159062207 -0.1461613178
-0.8909690976 -0.4251616299 -0.116076149
-0.8724672198 -0.4161455333 -0.08085514605
-0.8871782422 -0.4227825105 -0.04930159822
-0.8828987479 -0.4203647673 -0.01636856049
-0.8802861571 -0.4211960733 0.01633365639
-0.8686417341 -0.4152517021 0.04825488105
-0.8721764088 -0.4167547226 0.08085514605
-0.8532752991 -0.4073570967 0.1109576374
-0.8317847252 -0.3967410028 0.1392782032
-0.8662052751 -0.4129732251 0.1782784164
-0.8552514315 -0.407384485 0.208751142
-0.8538779616 -0.4063644111 0.2417890429
-0.8561190367 -0.4061492085 -0.2423066795
-0.8754024506 -0.4149228632 -0.213700071
-0.8796311617 -0.4167394638 -0.1809497327
-0.8686674833 -0.4111738205 -0.1455355883
-0.9032151699 -0.4271407127 -0.1175385863
-0.8775171041 -0.4148004353 -0.08120376617
-0.8958726525 -0.4230945408 -0.04972028732
-0.8988284469 -0.4241070747 -0.01664779894
-0.8835578561 -0.418977499 0.01636856049
-0.8809155226 -0.4173479378 0.04888291284
-0.8772273064 -0.4154129326 0.08120376617
-0.8546919227 -0.404376328 0.1109576374
-0.8581671715 -0.4056537747 0.1436583698
-0.8640913367 -0.4082698524 0.177515164
-0.8742908239 -0.4127154946 0.2132501751
-0.8587856293 -0.4050296247 0.242824316
-0.8697695136 -0.4089117944 -0.2459301353
-0.8662621975 -0.4068937898 -0.2110006511
-0.8846347928 -0.4153351188 -0.1817129552
-0.8736742139 -0.40981704 -0.1461613178
-0.9011057019 -0.4223005176 -0.1170511171
-0.8915893435 -0.4176511765 -0.08242394775
-0.888299346 -0.4157317579 -0.04919692874
-0.8984920382 -0.4201197624 -0.01661289483
-0.8832052946 -0.415040046 0.01633365639
-0.8841748834 -0.4151192009 0.04898758233
-0.8967086077 -0.4208125472 0.08294688165
-0.8453142047 -0.3963341713 0.1094952077
-0.8542114496 -0.4001420736 0.1427197605
-0.8726232648 -0.4085808694 0.179041639
-0.8721957803 -0.4080098569 0.2123503685
-0.8706950545 -0.4069372118 0.2459301353
-0.8711915612 -0.4058732092 -0.2459301353
-0.878277719 -0.408801496 -0.213700071
-0.8860792518 -0.4122444093 -0.1817129552
-0.8876386881 -0.4125933647 -0.1483514011
-0.89537251 -0.4158082008 -0.116076149
-0.8930417895 -0.4145363867 -0.08242394775
-0.8933688402 -0.4143092334 -0.04940627143
-0.8890666366 -0.4119367898 -0.0164034646
-0.9009635448 -0.4195521474 0.01664779894
-0.8747534156 -0.4069750905 0.04835955054
-0.9017851949 -0.4193603694 0.08329550922
-0.8574942946 -0.3983993828 0.1109576374
-0.8591864705 -0.3988212645 0.143345505
-0.8882914186 -0.4121426642 0.1820945889
-0.8630065322 -0.4000454247 0.2096509486
-0.8756161332 -0.4055193365 0.2469654083
-0.8778649569 -0.4052588046 -0.2474830449
-0.8938560486 -0.4122625589 -0.2172992826
-0.8857299685 -0.4083271623 -0.1813313514
-0.8944560289 -0.4119714797 -0.1492900103
-0.9040318727 -0.4159995317 -0.1170511171
-0.8854330182 -0.4072535634 -0.08155239373
-0.9056984782 -0.4161919355 -0.05003430322
-0.8941338658 -0.410499543 -0.01647327468
-0.9096855521 -0.4197559357 0.0167874191
-0.8834238052 -0.407264024 0.04877823964
-0.9032435417 -0.4162099659 0.08329550922
-0.8624860048 -0.3970641792 0.111445114
-0.8516002893 -0.391692251 0.1417811513
-0.8932920694 -0.4106797278 0.1828578115
-0.8785648346 -0.4035373926 0.2132501751
-0.8770263791 -0.4024603665 0.2469654083
-0.8827878833 -0.403799206 -0.2485183477
-0.8952897191 -0.4091398716 -0.2172992826
-0.8996503353 -0.4109428525 -0.1840026677
-0.9012799859 -0.4113070965 -0.1502286196
-0.9163157344 -0.4177823961 -0.1185135394
-0.8869196177 -0.4040057659 -0.08155239373
-0.9180520773 -0.4179936051 -0.05066233128
-0.9028421044 -0.4106880426 -0.01661289483
-0.912963748 -0.4174093902 0.0168223232
-0.8957402706 -0.4091568291 0.04940627143
-0.9010660052 -0.4113994837 0.08294688165
-0.8819274902 -0.4022894502 0.1138825119
-0.8637472987 -0.3936324716 0.1436583698
-0.8982934952 -0.4091867507 0.1836210638
-0.8870628476 -0.4036969244 0.2150497735
-0.8766673207 -0.3985966742 0.2464477718
-0.8877812624 -0.4021553397 -0.2495536208
-0.9038134217 -0.409227401 -0.2190988958
-0.9083055258 -0.4108793437 -0.1855291426
-0.8955810666 -0.4047468305 -0.1489771307
-0.9213865995 -0.416215688 -0.119001016
-0.9046685696 -0.4082835615 -0.08312119544
-0.9213987589 -0.4154469669 -0.05076700822
-0.9188549519 -0.4141070247 -0.01689213328
-0.9089506865 -0.411744833 0.01671760902
-0.9117198586 -0.4126155674 0.05024364963
-0.9025678635 -0.4080941379 0.08294688165
-0.8815174103 -0.3983909488 0.1136387661
-0.868716836 -0.3922407925 0.1442840993
-0.8926289082 -0.4026622176 0.1820945889
-0.900973022 -0.4060480595 0.2181991041
-0.879814744 -0.3963275552 0.2469654083
-0.8979921937 -0.4030086398 -0.2521418035
-0.8981944323 -0.402723074 -0.2172992826
-0.9169005156 -0.4109178483 -0.1870556176
-0.9096087813 -0.4072690606 -0.1511672139
-0.9265301228 -0.4144570231 -0.1194885001
-0.9133637547 -0.4083758593 -0.08381844312
-0.9264904261 -0.4138572812 -0.0509763509
-0.9221209288 -0.4117121696 -0.01692703739
-0.9177519083 -0.4116841555 0.01685722917
-0.9167993665 -0.4110649526 0.05045299232
-0.929443121 -0.4163441658 0.08538724482
-0.873912096 -0.39110291 0.1124200746
-0.8808999062 -0.3940456212 0.1461613178
-0.9047833681 -0.404350251 0.1843842864
-0.9023849964 -0.402900368 0.2181991041
-0.8988342285 -0.4011271298 0.2521418035
-0.9099849463 -0.4045805633 -0.2552476227
-0.9030866623 -0.4013251066 -0.2181991041
-0.9237122536 -0.4101046622 -0.1882004589
-0.914565444 -0.4058529437 -0.1517929733
-0.9278994203 -0.4113821983 -0.1194885001
-0.9257137179 -0.4100266397 -0.08486431092
-0.9278577566 -0.4107826054 -0.0509763509
-0.929038763 -0.4109176695 -0.01703175157
-0.9337299466 -0.4151376188 0.01713646762
-0.9127528071 -0.4054296613 0.0501389727
-0.9272482395 -0.4114811122 0.08503861725
-0.8897209764 -0.3946417272 0.114369981
-0.8931058645 -0.3957703412 0.1480385363
-0.9132995009 -0.404527992 0.1859107614
-0.9001517296 -0.3983289301 0.2172992826
-0.9072964787 -0.4011116922 0.2542123497
-0.9042503834 -0.3984448314 -0.2531770766
-0.9223178029 -0.406021893 -0.2226981223
-0.9214732647 -0.4054578841 -0.1874372363
-0.9268268347 -0.4074276686 -0.1536701769
-0.9329647422 -0.4097373784 -0.1199759692
-0.923419714 -0.4053529203 -0.0845156908
-0.9384315014 -0.411552012 -0.05149970949
-0.9212390184 -0.4038205147 -0.01685722917
-0.9424935579 -0.4151000082 0.01727608778
-0.9177482724 -0.4040102959 0.05034831911
-0.9395505786 -0.4132166505 0.0860844925
-0.8965454102 -0.3939292133 0.1151012033
-0.8871788383 -0.389629215 0.1467870474
-0.9254928827 -0.4060703218 0.1882004589
-0.9104607701 -0.3990959227 0.2195487916
-0.9050828218 -0.3965502381 0.2531770766
-0.9074060917 -0.3960589468 -0.2536947131
-0.9308037758 -0.4060780704 -0.2244977355
-0.93368119 -0.4069454968 -0.1897269338
-0.9281728268 -0.4043519497 -0.1536701769
-0.9434192777 -0.410602212 -0.1211946607
-0.9211747646 -0.4005381465 -0.08416706324
-0.9507816434 -0.4132142961 -0.052127745
-0.9318143129 -0.404584378 -0.01703175157
-0.943864882 -0.4119722545 0.01727608778
-0.9374606609 -0.4087872505 0.05139504001
-0.9300276637 -0.4051599801 0.08503861725
-0.9051268697 -0.3941239715 0.116076149
-0.8957791328 -0.3896819949 0.1480385363
-0.9304352999 -0.4045647681 0.1889637113
-0.9153540134 -0.3976276219 0.2204486132
-0.9153223634 -0.3972338736 0.2557652891
-0.9158069491 -0.3961153924 -0.2557652891
-0.9357933402 -0.4043724239 -0.2253975272
-0.9386303425 -0.4054040015 -0.1904901862
-0.9313923717 -0.4018918574 -0.1539830416
-0.9630759954 -0.4151647985 -0.1236320436
-0.9335467815 -0.402048707 -0.08521293849
-0.9558871388 -0.4114724994 -0.05233708769
-0.9460800886 -0.4068593383 -0.01727608778
-0.9379551411 -0.4055008888 0.01713646762
-0.9388818741 -0.4055126309 0.05139504001
-0.9386829734 -0.4052323699 0.08573586494
-0.9192566276 -0.3964650631 0.1177823171
-0.9025763869 -0.3888975084 0.1489771307
-0.924629271 -0.3982082009 0.1874372363
-0.9274770021 -0.3990509212 0.2231480181
-0.9220277667 -0.3963252604 0.2573181689
-0.9314598441 -0.3988394439 -0.2599063516
-0.9228666425 -0.3949693739 -0.2217983007
-0.9473305941 -0.4050483406 -0.1920166612
-0.9364923239 -0.4000276327 -0.1546087861
-0.9681707025 -0.4133594632 -0.1241195351
-0.9459402561 -0.4034778774 -0.08625880629
-0.9537141919 -0.4064001143 -0.052127745
-0.9585331082 -0.4082561731 -0.01748551428
-0.9430413842 -0.4037985504 0.01720627584
-0.9476368427 -0.4053749144 0.05181372538
-0.9548188448 -0.4080527127 0.08713036031
-0.909681797 -0.3885754049 0.1163198948
-0.916646421 -0.3911718726 0.1511672139
-0.9333065152 -0.3978963494 0.1889637113
-0.9325190187 -0.3971763253 0.2240478396
-0.9269607663 -0.3946175575 0.2583534718
-0.9399604201 -0.3986026645 -0.2619769275
-0.9314855337 -0.3946249783 -0.223597914
-0.9523544908 -0.4032698274 -0.1927798837
-0.9469793439 -0.4006042778 -0.1561731249
-0.9660221338 -0.4082625508 -0.1236320436
-0.95835495 -0.4048251212 -0.08730467409
-0.9661675692 -0.4077279568 -0.05275577307
-0.9673224092 -0.4080164135 -0.01762513444
-0.9555619955 -0.4050217271 0.01741570607
-0.9416899681 -0.3989481032 0.05139504001
-0.9635766745 -0.407823801 0.08782760799
-0.9202418923 -0.3891038299 0.1175385863
-0.9107279778 -0.3848940134 0.1499157399
-0.9563934803 -0.4037996233 0.1935431212
-0.9267175794 -0.3908893168 0.2222482264
-0.9354530573 -0.3943814039 0.2604240179
-0.9431272745 -0.3960669041 -0.2624945343
-0.9471639991 -0.3975676894 -0.2271971405
-0.9501353502 -0.3984248638 -0.1920166612
-0.959233582 -0.4020432532 -0.1580503434
-0.9637086391 -0.4035234749 -0.1231445819
-0.956086278 -0.399939388 -0.08695605397
-0.9675143957 -0.4045217633 -0.05275577307
-0.9576696157 -0.4000127316 -0.01741570607
-0.9679622054 -0.4064963162 0.01762513444
-0.9541271329 -0.4002948403 0.05202306807
-0.9686693549 -0.4059980512 0.08817622811
-0.9306815267 -0.3898855448 0.1187572777
-0.9120659828 -0.3817126155 0.1499157399
-0.9649720788 -0.4036563933 0.1950695962
-0.9387970567 -0.3923224807 0.2249476314
-0.9332583547 -0.3896252513 0.259388715
-0.9390846491 -0.3907109201 -0.2609416544
-0.9593427777 -0.3987469375 -0.2298965454
-0.9641424417 -0.400544256 -0.1946879774
-0.9551576376 -0.396420747 -0.1571117193
-0.983448565 -0.4077600539 -0.1255819649
-0.9574764371 -0.3965997696 -0.08695605397
-0.9855287671 -0.4080179632 -0.05369782075
-0.9664514661 -0.3997246921 -0.01755532436
-0.9656823277 -0.4015793204 0.01755532436
-0.9665853381 -0.4015591741 0.05265110359
-0.9663302898 -0.4012554586 0.08782760799
-0.9393712878 -0.3896767199 0.1197322309
-0.9225171804 -0.3823078871 0.1514800787
-0.9591198564 -0.3972805142 0.1935431212
-0.9473634958 -0.3920235336 0.2267472446
-0.9381834269 -0.3878412843 0.2604240179
-0.9440829754 -0.3887376487 -0.2619769275
-0.9571247697 -0.3939124048 -0.2289967537
-0.9710513353 -0.3992474675 -0.1958328336
-0.9584315419 -0.3936678171 -0.1574246138
-0.9885386825 -0.4058324397 -0.1260694414
-0.9588549733 -0.3932551146 -0.08695605397
-0.9851694703 -0.4036458433 -0.05359315127
-0.9752430916 -0.3993799984 -0.01769494265
-0.9670781493 -0.3982061744 0.01755532436
-0.9753693938 -0.4012218416 0.05306978524
-0.9714800715 -0.3992255628 0.08817622811
-0.9407258034 -0.3863953352 0.1197322309
-0.9366387725 -0.3843345642 0.1536701769
-0.956936419 -0.3922731876 0.1927798837
-0.9560074806 -0.3915026784 0.2285468578
-0.94668293 -0.3874911964 0.2624945343
-0.9543787241 -0.3890863657 -0.2645651102
-0.954952538 -0.3889313936 -0.2280969322
-0.9851674438 -0.4010370672 -0.1985041499
-0.9671191573 -0.393296361 -0.158676073
-0.9936976433 -0.4037008584 -0.126556918
-0.9749898314 -0.3959023356 -0.08835053444
-0.981020093 -0.3979521692 -0.05327913165
-0.9877502322 -0.4004815221 -0.01790437289
-0.972235024 -0.3961679935 0.01762513444
-0.9767640233 -0.3978147209 0.05306978524
-0.9876317382 -0.4018390477 0.08957072347
-0.9384576678 -0.381450057 0.1192447618
-0.9471251965 -0.3847802579 0.1552345157
-0.9655764103 -0.3918836713 0.1943063587
-0.9609801173 -0.3896276057 0.2294466496
-0.9641435742 -0.3907143176 0.2671532929
-0.9682711363 -0.3908139765 -0.2681885958
-0.959851563 -0.3872205913 -0.2289967537
-0.9829196334 -0.39612782 -0.1977409273
-0.9794120789 -0.3945155442 -0.1605532914
-0.9950309396 -0.4004033506 -0.126556918
-0.9948520064 -0.3999281824 -0.09009365737
-0.9767745733 -0.3924628496 -0.05296511576
-0.9928536415 -0.3985211551 -0.01797418296
-0.9902324677 -0.3996780217 0.01793927886
-0.9707373381 -0.3914154172 0.05265110359
-0.9927244782 -0.399877876 0.08991934359
-0.9507661462 -0.382784158 0.1207071841
-0.9466299415 -0.3807346821 0.1549216509
-0.9741569161 -0.3916088343 0.1958328336
-0.9586502314 -0.3849862814 0.2285468578
-0.967294693 -0.3880657852 0.2676709592
-0.9695618153 -0.3876008987 -0.2681885958
-0.9756753445 -0.3896499574 -0.2325959653
-0.9878743291 -0.3943219483 -0.1985041499
-0.9881225824 -0.3940212429 -0.1618047804
-0.9964225292 -0.3969275653 -0.126556918
-0.9887684584 -0.3936788738 -0.08939640969
-1.002264619 -0.3986468911 -0.05432585254
-0.9830203056 -0.3907940984 -0.01776475459
-0.9897646904 -0.3954767883 0.01790437289
-0.9794491529 -0.3911570907 0.05306978524
-0.9977462292 -0.3980602622 0.09026797116
-0.963160634 -0.383872658 0.1221696138
-0.946052134 -0.3768623769 0.1546087861
-0.9937593341 -0.3954648077 0.199649021
-0.9672317505 -0.3845174611 0.2303464562
-0.9739621878 -0.3869960308 0.269223839
-0.9709089994 -0.3842138648 -0.2681885958
-0.98058635 -0.3878458142 -0.233495757
-1.000200391 -0.3951996863 -0.2007938772
-0.9930983186 -0.3921934366 -0.1624305099
-1.016199231 -0.4009061754 -0.128994301
-0.9827221632 -0.3873028755 -0.08869916201
-1.011014223 -0.3982490003 -0.05474454165
-0.9992648959 -0.3932182491 -0.01804399118
-1.002227068 -0.3966072798 0.01811380126
-0.9993825555 -0.3950784802 0.05411650985
-0.995423317 -0.3931116164 0.08991934359
-0.9792000055 -0.3865072131 0.1241195351
-0.9473617673 -0.373557955 0.1546087861
-0.9968916178 -0.3928872347 0.2000306249
-0.9793810844 -0.3855912387 0.2330458611
-0.9681158066 -0.3807654679 0.2671532929
-0.9776405096 -0.3829363585 -0.2697415054
-0.9820013046 -0.3842491508 -0.233495757
-1.003402114 -0.392421186 -0.201175496
-0.9908493757 -0.3871130049 -0.1618047804
-1.021360278 -0.398622632 -0.1294817924
-0.9952052236 -0.3882142901 -0.08974502981
-1.01618886 -0.3959913552 -0.05495388061
-1.00442636 -0.3910039663 -0.01811380126
-0.9925014377 -0.3885575235 0.01790437289
-1.008264184 -0.3943226933 0.05453519896
-1.004212022 -0.3925358951 0.09061658382
-0.9750626683 -0.3807494342 0.1233883053
-0.9800100327 -0.3822869062 0.159927547
-0.9891792536 -0.3856650591 0.1981225461
-0.9916830659 -0.3862422705 0.2357452661
-0.9695048332 -0.3772148192 0.2671532929
-0.9879773855 -0.383012861 -0.2723296881
-0.9833366275 -0.3808189929 -0.233495757
-1.013920188 -0.3924596906 -0.2030835748
-0.99956429 -0.3865018189 -0.1630562544
-1.024597168 -0.3957702518 -0.1297255158
-1.007706285 -0.3890436888 -0.09079090506
-1.013838172 -0.3910041749 -0.05474454165
-1.015115142 -0.391089946 -0.01828832552
-1.00131011 -0.3879805505 0.01804399118
-1.005909204 -0.3893588483 0.05432585254
-1.020441651 -0.3947791755 0.09201107919
-0.980089128 -0.3787747324 0.1238757968
-0.9868668318 -0.380998224 0.1608661562
-0.9886878729 -0.3815030158 0.1977409273
-0.9912068844 -0.3820776045 0.2352953702
-0.9906467795 -0.3814643025 0.2728473246
-0.9893083572 -0.3795617819 -0.2723296881
-0.991938591 -0.3801738024 -0.2352953702
-1.015284061 -0.3889180124 -0.2030835748
-1.013821721 -0.3879521489 -0.1652463228
-1.022264004 -0.3907736242 -0.1292380393
-1.016502738 -0.3883680403 -0.09148814529
-1.026392579 -0.3917360604 -0.05537256971
-1.018342614 -0.3882565498 -0.01832322963
-1.021329522 -0.3916429579 0.01839304157
-1.00726223 -0.3858451545 0.05432585254
-1.029256225 -0.3940642774 0.09270832688
-0.9906759262 -0.3788968921 0.1250944883
-0.9937266111 -0.3796661198 0.1618047804
-1.013856649 -0.3871543109 0.2027019709
-0.9870722294 -0.3765316308 0.2339456528
-0.9937773943 -0.3786920905 0.2733649611
-1.001463532 -0.3802205324 -0.2754355073
-1.006014228 -0.3815463185 -0.238444671
-1.022142649 -0.3874595165 -0.2042284459
-1.026253939 -0.3886080384 -0.1671235412
-1.029191971 -0.3893098831 -0.1299692541
-1.01412499 -0.3834082484 -0.09113952518
-1.03896451 -0.3923848271 -0.05600060523
-1.021562696 -0.3854050636 -0.01835813373
-1.039517045 -0.3944602907 0.01870718412
-1.016073227 -0.3851587772 0.05474454165
-1.030625463 -0.3904690742 0.09270832688
-1.004988313 -0.3803552091 0.1268006563
-0.980264008 -0.370606482 0.1593018174
-1.02254796 -0.3863887787 0.2042284459
-1.006612301 -0.3799656928 0.238444671
-1.002323627 -0.3779472113 0.2754355073
-0.9991677999 -0.3753634393 -0.2744002342
-1.025584936 -0.3848795295 -0.2429437339
-1.030841708 -0.3866467774 -0.205754891
-1.027604103 -0.3850235939 -0.1671235412
-1.04349041 -0.3907679617 -0.1316754371
-1.019189239 -0.3812622726 -0.09148814529
-1.051553249 -0.3929504752 -0.05662863702
-1.0284549 -0.3841147125 -0.01846284978
-1.031527162 -0.3873146474 0.018532658
-1.028564334 -0.385997653 0.05537256971
-1.026385307 -0.3847709596 0.09218539298
-1.011887074 -0.3789331019 0.1275318712
-0.9870377779 -0.3694310486 0.1602404267
-1.023890495 -0.3828170002 0.2042284459
-1.00969243 -0.3773076832 0.2388945967
-0.9963320494 -0.3719188869 0.2733649611
-1.016703248 -0.3781086802 -0.2790589631
-1.023202062 -0.3801190853 -0.2420439124
-1.037639618 -0.3852766156 -0.2068997473
-1.028875232 -0.381613791 -0.1671235412
-1.061532378 -0.3935154378 -0.1338690817
-1.024184823 -0.3792642057 -0.09183677286
-1.052850485 -0.3894612193 -0.05662863702
-1.040976644 -0.3848627508 -0.01867227815
-1.025308371 -0.3811049759 0.01839304157
-1.044816613 -0.3881489038 0.05620994791
-1.035127401 -0.3841379583 0.09288264066
-1.018722177 -0.3776454329 0.128263101
-1.001223683 -0.3709599078 0.1624305099
-1.025154352 -0.3794195056 0.2042284459
-1.025559545 -0.3793660104 0.2424938083
-1.004808307 -0.3712912202 0.2754355073
-1.034267664 -0.3807415068 -0.2837177217
-1.024456978 -0.3767239153 -0.2420439124
-1.053653598 -0.3872516453 -0.2099526972
-1.033843875 -0.3795613945 -0.1677492857
-1.06289959 -0.3898075819 -0.1338690817
-1.036661029 -0.3799798787 -0.09288264066
-1.054136276 -0.3859676719 -0.05662863702
-1.062972188 -0.388782233 -0.01905623265
-1.037826777 -0.3818457425 0.01860246994
-1.038666606 -0.3817434311 0.05579125881
-1.05509758 -0.3875730932 0.09462574869
-1.021832347 -0.374949187 0.1285068244
-1.006221771 -0.3688226342 0.1630562544
-1.033780456 -0.3787194192 0.205754891
-1.034197688 -0.378462851 0.2442934215
-1.016984701 -0.3717610836 0.2785413265
-1.044666529 -0.3804341257 -0.2863059044
-1.031259775 -0.3751441538 -0.2433936298
-1.051308751 -0.382229656 -0.2091894597
-1.057443023 -0.384042114 -0.1715036929
-1.067985892 -0.3874491751 -0.1343565583
-1.04921937 -0.380433768 -0.09392850101
-1.059232712 -0.38364622 -0.05683797598
-1.068083644 -0.3864299655 -0.01912604086
-1.067339778 -0.3884799778 0.01912604086
-1.039992809 -0.3781154752 0.05579125881
-1.063934326 -0.3866097927 0.09532299638
-1.030598998 -0.3740890324 0.1294817924
-1.016788483 -0.3686747253 0.1646205932
-1.046171069 -0.3791216612 0.2080446184
-1.035512447 -0.3748504817 0.2442934215
-1.029176593 -0.3721504211 0.2816471457
-1.045988202 -0.3767851889 -0.2863059044
-1.050899506 -0.3781399727 -0.247892648
-1.052636504 -0.378557533 -0.2091894597
-1.066213369 -0.3830199242 -0.1727551818
-1.0730685 -0.3850596845 -0.1348440349
-1.050540924 -0.3767689466 -0.09392850101
-1.071846962 -0.3839880228 -0.05746601149
-1.056246638 -0.3779830039 -0.01888170838
-1.072452307 -0.3861066401 0.01919585094
-1.048823953 -0.3771864474 0.05620994791
-1.065277338 -0.3828935921 0.09532299638
-1.03937161 -0.3731726706 0.1304567456
-1.023647428 -0.3671237826 0.1655591875
-1.069665313 -0.3834170997 0.2126240134
-1.045988083 -0.374517858 0.2465429306
-1.034107327 -0.369857043 0.2826824486
-1.040017962 -0.3705382943 -0.284235388
-1.059556842 -0.3770828843 -0.2496922314
-1.061350465 -0.3775125742 -0.2107159346
-1.067543864 -0.3792957962 -0.1727551818
-1.089372277 -0.386623174 -0.1367939413
-1.051849723 -0.3730992973 -0.09392850101
-1.084476352 -0.3842463791 -0.05809404328
-1.065099835 -0.3769626021 -0.01902132668
-1.070025802 -0.3810190856 0.01912604086
-1.057661295 -0.3762003779 0.05662863702
-1.059098244 -0.3765032291 0.09462574869
-1.050021172 -0.3728636503 0.1316754371
-1.02864635 -0.3648688495 0.1661849469
-1.067296386 -0.3783689439 0.2118607908
-1.052800059 -0.372815907 0.247892648
-1.035392046 -0.3662450612 0.2826824486
-1.052237272 -0.3707576692 -0.2873412073
-1.070057631 -0.3766168654 -0.2519417405
-1.077477813 -0.3790171742 -0.2137688845
-1.070725083 -0.3762218356 -0.1730680466
-1.09446156 -0.3841327429 -0.1372814327
-1.073826551 -0.3766801059 -0.09584593773
-1.093350649 -0.383100003 -0.05851273239
-1.081508636 -0.3785272241 -0.01930056512
-1.069463015 -0.3766176701 0.01909113675
-1.066504478 -0.3751571178 0.05704732239
-1.075442791 -0.3780907393 0.09602024406
-1.056935191 -0.3711692691 0.1324066371
-1.046689749 -0.3671610057 0.1690007597
-1.064905167 -0.3733419478 0.2110975385
-1.072487116 -0.3755797446 0.2523916364
-1.047605395 -0.366455555 0.2857882679
-1.069943547 -0.3728034198 -0.2919999361
-1.062163472 -0.36967659 -0.2496922314
-1.089919806 -0.3791239858 -0.2160585821
-1.077629685 -0.3744270504 -0.1740066558
-1.095795631 -0.3803102672 -0.1372814327
-1.086429 -0.3768470287 -0.09689180553
-1.087132335 -0.3766659498 -0.05809404328
-1.094161987 -0.3786735237 -0.01950999536
-1.080213666 -0.3761701584 0.01926566102
-1.067807436 -0.3714322746 0.05704732239
-1.091811538 -0.3795681 0.09741473943
-1.052598596 -0.365524292 0.1316754371
-1.04796505 -0.363505125 0.1690007597
-1.073621631 -0.372194916 0.2126240134
-1.073791623 -0.3718337715 0.2523916364
-1.056180954 -0.3653227091 0.287858814
-1.073064804 -0.369695574 -0.2925175726
-1.07634604 -0.3704057932 -0.2528415322
-1.098662734 -0.3778712451 -0.217585057
-1.092007637 -0.3751561046 -0.176196754
-1.104627013 -0.3790601194 -0.138256371
-1.102814794 -0.378223449 -0.0982863009
-1.088440537 -0.3728688061 -0.05809404328
-1.095477104 -0.3748520911 -0.01950999536
-1.092864513 -0.3763033748 0.01947508939
-1.065320015 -0.3664034605 0.05683797598
-1.108203173 -0.380935967 0.09880922735
-1.061378121 -0.3644260764 0.1326503754
-1.058570147 -0.3630492091 0.1705650985
-1.082343102 -0.3709910512 0.2141504884
-1.075083017 -0.3680832386 0.2523916364
-1.073900938 -0.3672598004 0.2925175726
-1.087149739 -0.3703075945 -0.2961410582
-1.088701844 -0.3704124987 -0.255540967
-1.088822842 -0.3702413738 -0.2152953595
-1.102662563 -0.3745183945 -0.1777610928
-1.105943322 -0.3752019107 -0.138256371
-1.106015325 -0.3750113845 -0.09846060723
-1.101085782 -0.372911185 -0.05872207135
-1.094884515 -0.3703849912 -0.01947508939
-1.109315515 -0.3776419759 0.01975432783
-1.085501909 -0.369112134 0.05788469315
-1.113298893 -0.3783477545 0.09915785491
-1.081441283 -0.3670998216 0.1350877732
-1.05421865 -0.3574489355 0.1696264893
-1.098506808 -0.372251451 0.2172034383
-1.087436438 -0.3680769503 0.2550910413
-1.07883656 -0.3647463918 0.2935528457
-1.068296313 -0.359729141 -0.2904470265
-1.11584723 -0.3753071725 -0.2618395984
-1.10871768 -0.3726941049 -0.219111532
-1.107708573 -0.3719243109 -0.1783868223
-1.118538737 -0.3751265705 -0.1397188157
-1.103539467 -0.3698817194 -0.09811198711
-1.125107884 -0.3766745031 -0.05997813866
-1.113173962 -0.3724627793 -0.01978923194
-1.110626936 -0.3737674057 0.01975432783
-1.094292164 -0.3680572808 0.05830338225
-1.103280902 -0.3706522882 0.09811198711
-1.090243936 -0.3658486903 0.1360627413
-1.064762473 -0.3570915163 0.1711908281
-1.103522658 -0.3696618378 0.2179666758
-1.096106887 -0.3667522073 0.2568906546
-1.083704591 -0.3623921573 0.2945881188
-1.086042404 -0.3614888489 -0.2951057553
-1.105990767 -0.3679142892 -0.2591401637
-1.117464304 -0.3712978363 -0.2206380069
-1.101436853 -0.3657590151 -0.1771353483
-1.134849787 -0.3764148653 -0.141668722
-1.116171718 -0.3697868586 -0.09915785491
-1.128246903 -0.3735691607 -0.06008280814
-1.129655957 -0.3735979199 -0.02006847039
-1.108065724 -0.3688192964 0.01968451962
-1.110732317 -0.3692762852 0.05914076045
-1.112131476 -0.3693104088 0.09880922735
-1.097103238 -0.3641071022 0.1367939413
-1.075377703 -0.3564801514 0.1727551818
-1.101015091 -0.3647654951 0.2172034383
-1.104717374 -0.3655641675 0.2586902678
-1.092299819 -0.3610323966 0.2966586947
-1.105584979 -0.363925606 -0.3002821207
-1.105417132 -0.3634424508 -0.2586902678
-1.126150012 -0.3700416088 -0.2221644819
-1.113968372 -0.3656077683 -0.1790125668
-1.139929414 -0.373687923 -0.1421561986
-1.12496531 -0.3685646653 -0.0998551026
-1.121951222 -0.3671438992 -0.05966411904
-1.142357349 -0.3733801842 -0.02027789876
-1.122643113 -0.3693234622 0.0199288521
-1.115809441 -0.3666437864 0.05935010314
-1.128493428 -0.3705934286 0.1002037227
-1.092708826 -0.3584193885 0.1360627413
-1.091633201 -0.3576442897 0.1752581298
-1.113476396 -0.3645857573 0.2194931507
-1.113395452 -0.3641287386 0.260489881
-1.104571581 -0.3608162403 0.299764514
-1.105011582 -0.3594665527 -0.299764514
-1.121505976 -0.3643994331 -0.2622894943
-1.131169438 -0.3673210442 -0.2229277045
-1.126511812 -0.3653739393 -0.1808897704
-1.133673191 -0.367259115 -0.1411812454
-1.137617946 -0.3683179915 -0.1009009704
-1.142229557 -0.3693703413 -0.0607108362
-1.14365375 -0.3693902791 -0.02027789876
-1.139139175 -0.3703489006 0.02020809054
-1.113283277 -0.3615129292 0.05914076045
-1.144940853 -0.3715724051 0.1015982181
-1.099618435 -0.3564392328 0.1367939413
-1.092874885 -0.3538318574 0.1752581298
-1.129685521 -0.3655319512 0.2225461006
-1.107242465 -0.3578431606 0.2586902678
-1.118693471 -0.3611124456 0.3033879697
-1.111777067 -0.3573809862 -0.3013174236
-1.133903742 -0.3640567064 -0.2649888992
-1.136183381 -0.3645702004 -0.2236909568
-1.146591544 -0.3674681783 -0.1840184629
-1.144401073 -0.3663257957 -0.1423999369
-1.138896704 -0.3643446863 -0.1009009704
-1.151121974 -0.3678127825 -0.06112952903
-1.152556539 -0.3678275347 -0.02041751891
-1.149944305 -0.369428128 0.02038261481
-1.127850652 -0.3618964553 0.05987346545
-1.142436624 -0.3663564622 0.101249598
-1.127322674 -0.3610758483 0.1402062774
-1.092221856 -0.3494129181 0.1749452651
-1.145914674 -0.3663693368 0.2255990505
-1.119623184 -0.3575327992 0.2613897026
-1.125468612 -0.358966589 0.3049408793
-1.120382667 -0.3558370471 -0.3033879697
-1.146312833 -0.3636321127 -0.267688334
-1.148677945 -0.3641614318 -0.2259806544
-1.151633739 -0.3646561503 -0.1846441925
-1.158921719 -0.3665188551 -0.144106105
-1.140161633 -0.3603669703 -0.1009009704
-1.163826466 -0.3673998713 -0.06175755337
-1.167183399 -0.3680116236 -0.02066185325
-1.151226878 -0.3654117882 0.02038261481
-1.146242023 -0.363389194 0.06081551686
-1.143708467 -0.3623663485 0.101249598
-1.134254098 -0.3589352667 0.1409375072
-1.100969076 -0.3479795158 0.176196754
-1.150930643 -0.3635497987 0.2263622731
-1.132015109 -0.3571403027 0.2640891075
-1.115659595 -0.3515521586 0.3018350601
-1.132677555 -0.3553937972 -0.306493789
-1.151294231 -0.360793978 -0.2685881257
-1.157436252 -0.3624966145 -0.2275071293
-1.149128914 -0.3594548106 -0.1840184629
-1.175352216 -0.3672069609 -0.1460560113
-1.152823567 -0.3599477112 -0.1019468307
-1.1612885 -0.3621459007 -0.06154821441
-1.16655159 -0.3633404374 -0.02062694728
-1.148679256 -0.3601943552 0.02031280659
-1.153221369 -0.3611765802 0.06112952903
-1.148769259 -0.359562099 0.1015982181
-1.144973516 -0.3579352796 0.1421561986
-1.104062557 -0.3447229564 0.1765096188
-1.144696236 -0.3571908176 0.2248357981
-1.140696764 -0.3555059731 0.2658887208
-1.129791856 -0.3516747653 0.3054585159
-1.146828055 -0.3554411829 -0.3101172447
-1.156269908 -0.3579252064 -0.2694879174
-1.186827779 -0.3671574891 -0.2332313955
-1.165475488 -0.3601062894 -0.1865214258
-1.176626801 -0.3631022274 -0.1460560113
-1.165496588 -0.3594444096 -0.102992706
-1.162545562 -0.3580902815 -0.06154821441
-1.186925888 -0.3651461005 -0.02097599767
-1.159480333 -0.3591410816 0.02048732899
-1.162107229 -0.3595099449 0.06154821441
-1.172859192 -0.3626122177 0.1036899537
-1.134835601 -0.3504222631 0.1406937689
-1.124135613 -0.346688509 0.1796382964
-1.153440714 -0.3555058837 0.2263622731
-1.145655632 -0.352668643 0.2667885125
-1.140245318 -0.3505674899 0.3080467284
-1.155450702 -0.3536979556 -0.3121878207
-1.166830182 -0.3567356467 -0.2717374265
-1.178714275 -0.360144347 -0.2313233167
-1.174282789 -0.3583419919 -0.1877728999
-1.181684971 -0.3601499796 -0.1465434879
-1.174367905 -0.3576959372 -0.1036899537
-1.179074883 -0.3586799502 -0.06238559261
-1.188193083 -0.3610009849 -0.02097599767
-1.176024556 -0.3597714305 0.02076656744
-1.163355112 -0.3554515243 0.06154821441
-1.185551047 -0.3620070517 0.1047358215
-1.153140664 -0.351670593 0.1428874135
-1.125339031 -0.3427624106 0.1796382964
-1.173456192 -0.3571947515 0.2301784456
-1.150608778 -0.3498010337 0.267688334
-1.156250238 -0.3510752618 0.3121878207
-1.164075017 -0.3518985212 -0.3142583668
-1.168068171 -0.3526607156 -0.2717374265
-1.172445893 -0.3537591696 -0.2297968417
-1.183091879 -0.3565208614 -0.189024359
-1.190538406 -0.3583112955 -0.147518456
-1.18324101 -0.3558901548 -0.1043871939
-1.19179666 -0.3580095768 -0.06301362813
-1.185615301 -0.3557015955 -0.02090618573
-1.190673113 -0.3597120047 0.02101090178
-1.172237158 -0.3536961973 0.06196689978
-1.194437742 -0.3601669967 0.1054330692
-1.169567227 -0.3522226214 0.1448373199
-1.13220346 -0.3405393064 0.1805769056
-1.193497419 -0.3587478995 0.2339946181
-1.155555606 -0.3469034135 0.2685881257
-1.166720986 -0.3498111069 0.3147760034
-1.15789175 -0.3456227481 -0.3121878207
-1.186099768 -0.3535918295 -0.2757865489
-1.184962869 -0.3530274332 -0.2320865393
-1.191902518 -0.354642272 -0.190275833
-1.207004547 -0.3586772084 -0.1494683474
-1.18829608 -0.352892071 -0.1047358215
-1.208357573 -0.3583908975 -0.06385099888
-1.202188611 -0.3561044037 -0.02118542604
-1.190005183 -0.3549821675 0.02097599767
-1.194519997 -0.3558746874 0.06311829388
-1.191868424 -0.3548586071 0.1050844416
-1.176498055 -0.3498349786 0.1455685347
-1.139066219 -0.3382721245 0.1815155149
-1.187214136 -0.3523450196 0.2324681729
-1.177311778 -0.3489593863 0.2735370398
-1.158672929 -0.3429948688 0.3121878207
-1.177621722 -0.3470396698 -0.317364186
-1.194804668 -0.3516502082 -0.2775861621
-1.201255679 -0.3533210754 -0.2351394892
-1.195028543 -0.35103634 -0.1905887276
-1.215868473 -0.3566970527 -0.1504433006
-1.193344593 -0.3498627543 -0.1050844416
