# .PCD v0.7 - Point Cloud Data file format
VERSION 0.7
FIELDS x y z
SIZE 4 4 4
TYPE F F F
COUNT 1 1 1
WIDTH 1308
HEIGHT 1
VIEWPOINT 0 0 0 1 0 0 0
POINTS 1308
DATA ascii
7.008251667 4.139717579 -1.282501459
7.091680527 4.185660362 -1.005966187
7.094198704 4.185477257 -0.7169178128
7.109380722 4.191090107 -0.4303073585
7.128044128 4.198740482 -0.1437013149
7.10447979 4.20325613 0.1433871835
7.097379684 4.195707321 0.4298886955
7.127296448 4.211714268 0.7205783129
7.087531567 4.184879303 1.00547874
7.076770306 4.17519474 1.294703364
7.078481197 4.174539089 1.589120269
7.008007526 4.12968111 1.867990255
6.095338821 3.588997602 1.883737087
7.046178341 4.133965969 -1.876088381
7.092046738 4.159217834 -1.589883447
7.05674696 4.135201454 -1.288758874
7.123377323 4.170911789 -1.00840354
7.143157005 4.180814743 -0.7204040289
7.156724453 4.185407639 -0.4322961271
7.166827679 4.187959194 -0.1441899836
7.141528606 4.191587925 0.1438409388
7.136099815 4.185053349 0.4313541055
7.176329136 4.206963539 0.7240645289
7.134638786 4.179178238 1.010109663
7.115170479 4.164434433 1.299083471
7.133678436 4.173600197 1.598278999
7.019015789 4.103223801 1.867090344
6.117837906 3.57354641 1.886842966
7.036983967 4.098911285 -2.170508623
7.07235527 4.11620903 -1.87923789
7.126887321 4.146282196 -1.594462991
7.098462105 4.126429081 -1.29376471
7.167075634 4.162969112 -1.012547135
7.174935818 4.165860176 -0.7221471071
7.205842972 4.18044281 -0.4343895614
7.205624104 4.176955223 -0.1446786523
7.192406178 4.187765121 0.1445739418
7.185194016 4.180203915 0.4334475398
7.215084553 4.195908546 0.7265049219
7.180079937 4.172198772 1.014497042
7.139912605 4.145525455 1.300960779
7.178768158 4.166410446 1.605148196
7.029923916 4.076744556 1.866190553
6.123589516 3.548293829 1.88477242
7.069648266 4.084956169 -2.176202536
7.140202045 4.117416382 -1.298770666
7.209082127 4.153784275 -1.016446829
7.217058182 4.156702042 -0.7249361277
7.251549721 4.173197746 -0.436273694
7.266967297 4.178689957 -0.1456210911
7.229492664 4.175633907 0.1450276971
7.234336853 4.175065041 0.4355409741
7.246944904 4.180655479 0.7282480597
7.230715275 4.167929649 1.019615531
7.185150146 4.138324261 1.306592226
7.213686943 4.15307951 1.609727621
7.054245949 4.058012486 1.868890047
6.132587433 3.524972677 1.883737087
7.177013874 4.110318661 -1.899483323
7.036392212 4.028148651 -1.567749619
7.261455536 4.150263309 -1.02180922
7.266121864 4.151252747 -0.7284223437
7.293827057 4.163700581 -0.4379484653
7.307563305 4.168160915 -0.1461446583
7.268316269 4.164288044 0.1455163658
7.278335571 4.166654587 0.4373204112
7.292620659 4.17314291 0.7313855886
7.265900612 4.154486656 1.022540331
7.237285137 4.1347785 1.31347549
7.248596668 4.139558315 1.614307046
7.075137138 4.037228584 1.87068975
6.144855499 3.503542662 1.883737087
7.175246716 4.079421997 -2.200013876
7.204874992 4.092939854 -1.903082728
7.270640373 4.128621578 -1.616978407
7.158463955 4.061618805 -1.296893477
7.30698204 4.142515182 -1.026196599
7.311770439 4.14354372 -0.7315599918
7.330909729 4.151010036 -0.4393092096
7.349915981 4.158380508 -0.146703124
7.317578793 4.158653736 0.1462144703
7.322359085 4.157990456 0.4390998185
7.345263481 4.169301033 0.7352204919
7.31143856 4.146728039 1.02692771
7.296359539 4.134810448 1.321610093
7.297166348 4.133585453 1.621939421
7.08240366 4.008665562 1.868890047
6.160409927 3.483975172 1.88477242
7.216364861 4.069535255 -2.208296061
7.253074646 4.08689642 -1.912080765
7.315796375 4.120560646 -1.623847365
7.203585148 4.054042816 -1.302524924
7.342161179 4.128656864 -1.02912128
7.357452869 4.135566235 -0.7346975207
7.364510536 4.136150837 -0.4404605627
7.395052433 4.15160656 -0.1473314166
7.361665249 4.149776459 0.1468078494
7.35698843 4.145449162 0.4403558969
7.397967339 4.165137768 0.7390553355
7.350089073 4.13480854 1.030340075
7.337580681 4.126081467 1.32661593
7.345781326 4.127323151 1.629571795
7.09295702 3.982009411 1.867990255
6.178667545 3.46731019 1.886842966
7.238957882 4.049034119 -2.210884333
7.286995411 4.0742383 -1.917479396
7.141103268 3.98775816 -1.288758874
7.154315472 3.988586903 -0.712908566
7.1775527 3.999899626 -0.4284233153
7.168397427 3.991519213 -0.1425145566
7.44377327 4.156775951 0.7421929836
7.398427963 4.129760265 1.035214782
7.367465496 4.109100819 1.329431653
7.393723488 4.122058868 1.63720417
7.112933159 3.962257624 1.86978972
6.187358379 3.443840981 1.885807753
7.159946918 3.968821764 -1.583014369
7.134242058 3.951323271 -1.285004377
7.427408695 4.110307217 -1.037164688
7.442963123 4.117218494 -0.7404497862
7.416966438 4.099452972 -0.4419259429
7.488624096 4.135647297 -0.1486229002
7.118700981 3.949212074 0.1413975954
7.446889877 4.127876759 0.4440193772
7.481914043 4.145588875 0.744633317
7.449270248 4.124099255 1.040333271
7.435346603 4.113005161 1.33913064
7.438993931 4.113322735 1.644073129
7.126717567 3.937409639 1.86978972
6.195960045 3.420353174 1.88477242
7.430096149 4.084734917 -1.639875531
7.390383244 4.059539318 -1.328806043
7.483477592 4.10727644 -1.043014407
7.490479946 4.109418869 -0.7437617183
7.531073093 4.124856472 -0.149181366
7.125436306 3.920481443 0.1412579864
7.519007206 4.13361454 0.4474735558
7.520785809 4.132878304 0.7470736504
7.493198872 4.114318371 1.044476867
7.460050583 4.0927248 1.341007948
7.470519066 4.096776485 1.647889376
7.150672913 3.918125153 1.872489214
6.216333866 3.403344393 1.887360573
7.383701324 4.030743599 -2.242460251
7.438752651 4.057426453 -1.946273208
7.089226723 3.865173817 -1.561262012
7.428792953 4.04694891 -1.33318615
7.534384727 4.101057053 -1.048132896
7.539780617 4.102293015 -0.7472479343
7.584084988 4.119539261 -0.1499492675
7.545666695 4.114033222 0.4482062757
7.570155621 4.125667095 0.7505598664
7.531923294 4.101425648 1.047889233
7.515934944 4.089319229 1.348516822
7.526167393 4.093184471 1.657048345
7.164305687 3.893142223 1.872489214
6.233269691 3.384388208 1.888913512
7.450392723 4.033454895 -2.258507013
7.468298912 4.039778709 -1.95032239
7.555143833 4.085050583 -1.661245942
7.420282364 4.008784771 -1.329118848
7.576601028 4.089824677 -1.052032828
7.585616589 4.092977047 -0.7503855824
7.608920097 4.102127075 -0.4508230686
7.621305943 4.105367184 -0.1504030377
7.585270405 4.104767323 0.1498445719
7.586336136 4.101916313 0.4497763813
7.6300807 4.12385273 0.7550919652
7.577635288 4.092086315 1.052276492
7.564934254 4.08181715 1.354774237
7.574969292 4.085525036 1.664680719
7.155551434 3.856090546 1.866640449
6.248445034 3.364445448 1.889948726
7.467829704 4.009252548 -2.259542227
7.044449329 3.778785467 -1.835597277
7.578007221 4.063293934 -1.663154125
7.446419716 3.989386559 -1.331308961
7.618833542 4.0783391 -1.055932641
7.6226964 4.078691006 -0.7526516318
7.65313673 4.091547966 -0.4526025057
7.654991627 4.089104652 -0.1507869959
7.641841888 4.10095644 0.1506822854
7.635811329 4.094287872 0.4518698156
7.676039219 4.114133358 0.7582296133
7.633871555 4.088103294 1.058126211
7.601778984 4.067498684 1.358841538
7.627270222 4.07943058 1.673076153
7.165532112 3.829251051 1.865740776
6.263560295 3.344432116 1.890984058
7.490306854 3.987698078 -2.262130499
7.585782528 4.035134315 -1.973717093
7.626815319 4.055248737 -1.6707865
7.516120911 3.993031502 -1.341320753
7.668089867 4.070335865 -1.060807347
7.668564796 4.068872452 -0.7557892799
7.702664852 4.083516598 -0.45469594
7.715164661 4.086693764 -0.1516945213
7.680822849 4.087409496 0.1511709541
7.695907593 4.091985703 0.4545912743
7.711465359 4.098536968 0.7603213787
7.681407452 4.079118252 1.062757254
7.642102718 4.054831982 1.363534451
7.669214249 4.067497253 1.679182053
7.180576324 3.805129051 1.866190553
6.264953613 3.317122459 1.887878299
7.297461987 3.85240078 -2.199496031
7.625677109 4.022265434 -1.98046577
7.677393436 4.047831535 -1.678800464
7.638371944 4.023851395 -1.360718727
7.717384815 4.06203413 -1.065682173
7.717986107 4.060630798 -0.759275496
7.745157242 4.071475029 -0.4563706815
7.76832962 4.080195904 -0.1524624228
7.716269016 4.071771145 0.1515898108
7.747245312 4.08466053 0.4567893744
7.760977268 4.090169907 0.7638075948
7.728971481 4.069855213 1.067388296
7.689426422 4.045604706 1.36947906
7.707692146 4.053497314 1.684524775
7.204164028 3.785481215 1.868890047
6.281624794 3.29792881 1.889431238
7.639481544 3.99892211 -2.298882961
7.653484344 4.002849102 -1.984065056
7.731491089 4.041929245 -1.687577724
7.673381329 4.008140087 -1.364473224
7.763195515 4.051600933 -1.070069432
7.772741318 4.054862022 -0.7632846236
7.785890579 4.058259964 -0.4579407871
7.816224098 4.070602417 -0.1531256139
7.780046463 4.070766926 0.1525671482
7.775614738 4.064996719 0.45762676
7.806992531 4.079660892 0.7669451237
7.764247417 4.053874493 1.070313215
7.756042004 4.046150208 1.378865004
7.760092735 4.046535969 1.692920327
7.203507423 3.75310874 1.86529088
6.308521748 3.284008026 1.894089818
7.672255516 3.982017994 -2.304576635
7.715850353 4.001225948 -1.99666214
7.776928902 4.031177998 -1.694446921
7.732932568 4.004948139 -1.372607589
7.809024334 4.040901184 -1.074456811
7.82401228 4.046925545 -0.7669451237
7.831945896 4.047564983 -0.4598248601
7.867697239 4.062561989 -0.1538586169
7.826158524 4.060162544 0.1531954408
7.823448658 4.055291176 0.4596155286
7.870718956 4.07805109 0.7718259096
7.824184895 4.050477505 1.076650381
7.806966782 4.038108826 1.385435343
7.819512844 4.042868614 1.702842474
7.209639549 3.72436142 1.863491178
6.32337904 3.263740778 1.895125151
7.718745232 3.972008944 -2.314411879
7.771363735 3.995655775 -2.007459879
7.806666851 4.012084961 -1.697881341
7.799584389 4.004999161 -1.381993771
7.863706112 4.034457207 -1.080062747
7.896595955 4.049590588 -0.7726973891
7.917128563 4.056630135 -0.4640117288
7.915649414 4.052389622 -0.154521808
7.900744438 4.06391573 0.154382199
7.89440012 4.057173729 0.4629650414
7.916806221 4.066937447 0.7749634385
7.877128601 4.043084621 1.082012653
7.840349674 4.020745754 1.388876796
7.865024567 4.031671047 1.709711552
7.219129086 3.697394133 1.862591386
6.33129406 3.239886284 1.894089818
7.760098457 3.959086895 -2.322694302
7.823461056 3.987972498 -2.017357588
7.864357948 4.007090569 -1.707421899
7.86280632 4.002843857 -1.390754104
7.93435812 4.035787582 -1.087862372
7.935548306 4.034645081 -0.7751378417
7.975756645 4.051585197 -0.4666285217
7.965410709 4.042832851 -0.1552198976
7.943382263 4.050853252 0.1549406648
7.944107533 4.047725201 0.4650584757
7.959358692 4.053750992 0.7777525187
7.926578045 4.033567429 1.08688736
7.886032104 4.009469986 1.394508481
7.914054394 4.021979332 1.717343926
7.235464573 3.673937798 1.863491178
6.330504417 3.211649179 1.890466332
7.806623459 3.948543072 -2.332529306
7.868641853 3.976458311 -2.025455952
7.920352459 4.000860214 -1.716580629
7.915529728 3.994952202 -1.397637248
7.994482517 4.031303406 -1.094199538
7.990504742 4.027544022 -0.7791469693
8.016607285 4.037197113 -0.468198657
8.018773079 4.034779549 -0.1559878141
7.994950771 4.042045593 0.1556736678
8.000972748 4.041584492 0.4675706029
8.009031296 4.043900967 0.7812387347
7.970738411 4.021075249 1.091030955
7.93878746 4.001476288 1.401391625
7.956097603 4.008464813 1.723449707
7.244765759 3.646905184 1.862591386
6.367563725 3.202553749 1.89823103
7.861805439 3.942048311 -2.344952583
7.898152351 3.956828833 -2.029505014
7.972890854 3.992526054 -1.724976301
7.978888988 3.992051601 -1.406397581
8.040468216 4.019348145 -1.098586917
8.043722153 4.019224644 -0.782981813
8.064602852 4.026136875 -0.470187366
8.081124306 4.030861855 -0.1569302529
8.04476738 4.032031536 0.1563717574
8.047177315 4.029726028 0.4694546759
8.065859795 4.037320614 0.7854222059
8.016685486 4.009208202 1.095418334
8.000415802 3.997585773 1.409839153
8.008682251 3.999964952 1.73184526
7.250473499 3.618118286 1.860791683
6.378705502 3.180305481 1.89823103
7.918767929 3.936076641 -2.357893467
7.946824551 3.946568489 -2.03850317
8.01491642 3.978636026 -1.731082082
8.038786888 3.986993551 -1.414532185
8.079349518 4.003598213 -1.101999283
8.100553513 4.012344837 -0.7871652842
8.112617493 4.014794827 -0.4721761346
8.130996704 4.02035284 -0.1576283425
8.101772308 4.025281429 0.1572094858
8.093397141 4.017594337 0.4713387787
8.119167328 4.028625488 0.7892570496
8.064425468 3.997950792 1.100049376
8.062115669 3.993305922 1.418286562
8.064823151 3.992889404 1.741004229
7.249086857 3.585873127 1.857192516
7.967114925 3.92549324 -2.368246317
8.021744728 3.948930502 -2.054249763
8.058699608 3.965375662 -1.73756969
8.102292061 3.983309031 -1.423292398
8.132474899 3.994623423 -1.107361436
8.148490906 4.000725746 -0.7904772162
8.15886116 4.002283096 -0.4740602374
8.169420242 4.005694389 -0.1581170112
8.157035828 4.017295361 0.1580123007
8.142511368 4.008381844 0.4734322131
8.168938637 4.0178442 0.7927432656
8.131775856 3.996046782 1.107361436
8.093043327 3.975255251 1.42141521
8.121007919 3.985477686 1.750163078
7.265058994 3.562260866 1.858092308
6.38979578 3.131715298 1.895125151
8.001600266 3.907829762 -2.374458075
8.075072289 3.94197154 -2.064597368
8.116607666 3.958734989 -1.747110128
8.143866539 3.970271111 -1.428298473
8.188508034 3.988497496 -1.113211274
8.192861557 3.987080574 -0.7934405804
8.215192795 3.996175051 -0.4765723944
8.230114937 3.999881506 -0.1590245366
8.202653885 4.006020546 0.1586405784
8.203124046 4.002704144 0.4761536717
8.211566925 4.003276348 0.7955322266
8.186027527 3.989057302 1.112967491
8.153048515 3.969465256 1.429549813
8.176548004 3.979141712 1.759321809
7.276833057 3.538147449 1.858092308
6.39373827 3.106013298 1.893054605
8.047551155 3.897269964 -2.384293079
8.115097046 3.926489592 -2.071345806
8.179178238 3.955729246 -1.757795453
8.186132431 3.955572128 -1.43330431
8.248859406 3.982331038 -1.11954844
8.249102592 3.980673552 -0.797623992
8.272268295 3.988293171 -0.4790844917
8.289067268 3.992821932 -0.1598971486
8.241786003 3.989563227 0.1591292322
8.260199547 3.994913816 0.4786658287
8.260671616 3.99336791 0.7990184426
8.226715088 3.973406076 1.116623521
8.198876381 3.956436634 1.435181499
8.215146065 3.962514877 1.76466465
7.292648792 3.514422417 1.858992219
6.397578716 3.080325365 1.890984058
8.108129501 3.891727448 -2.398269415
8.153354645 3.909933567 -2.077644825
8.22834301 3.944128036 -1.765427828
8.246213913 3.949154615 -1.441438913
8.294942856 3.968932629 -1.123935819
8.302492142 3.97076416 -0.8014588952
8.316776276 3.974029779 -0.4808639288
8.348068237 3.985403538 -0.1607697755
8.307948112 3.985852003 0.1601414829
8.310114861 3.983324051 0.480759263
8.328466415 3.990333319 0.8042478561
8.274554253 3.960952282 1.121254563
8.26609993 3.953359604 1.444567442
8.264352798 3.950751543 1.772296906
7.297838688 3.485583305 1.857192516
6.413523197 3.060469151 1.892536998
8.170510292 3.886638403 -2.412763119
8.210954666 3.9023633 -2.088891983
8.272206306 3.929704428 -1.771915197
8.30277729 3.940675735 -1.448947787
8.337445259 3.953560114 -1.127835512
8.366711617 3.965654612 -0.8063395619
8.377531052 3.96719718 -0.4835853875
8.389041901 3.969068527 -0.1612933427
8.359737396 3.974858046 0.160874486
8.352831841 3.968005657 0.4824340045
8.381940842 3.980035782 0.8080826402
8.329579353 3.951615572 1.126860499
8.315547943 3.941404104 1.450824857
8.320672035 3.942054272 1.781455636
7.299391747 3.455086946 1.854493141
6.429406643 3.040538788 1.894089818
8.222470284 3.876218796 -2.424151182
8.273891449 3.896925926 -2.101489544
8.317845345 3.915858984 -1.778784394
8.352233887 3.928482771 -1.455205202
8.387126923 3.941319704 -1.132710338
8.412964821 3.951669693 -0.80947721
8.427489281 3.954901934 -0.4856788516
8.433625221 3.954190016 -0.1618867218
8.418784142 3.966964006 0.1617471129
8.413614273 3.960944653 0.4851554632
8.435442924 3.969418049 0.8119175434
8.393625259 3.946162224 1.13368535
8.356077194 3.924948692 1.455518007
8.38769722 3.938014507 1.792904258
7.314937115 3.431239367 1.855392933
6.436481953 3.016439199 1.893054605
8.265707016 3.861391544 -2.432950974
8.33688736 3.89109993 -2.114086628
8.379501343 3.909208298 -1.789088011
8.405284882 3.917665005 -1.462088227
8.458417892 3.938837051 -1.140509963
8.455607414 3.935732603 -0.812266171
8.493760109 3.949884892 -0.4887143075
8.499968529 3.949163914 -0.1628989726
8.470628738 3.95532155 0.162480101
8.467209816 3.950126171 0.4874582887
8.474527359 3.951739073 0.8143579364
8.450532913 3.93696022 1.13953495
8.421661377 3.919932127 1.464591146
8.44411087 3.928589106 1.802062988
7.330405712 3.407325745 1.856292844
6.432955742 2.987442255 1.888913512
8.310692787 3.847121 -2.44226861
8.382257462 3.876697063 -2.122184992
8.439430237 3.901351452 -1.799010158
8.451189995 3.903207779 -1.467719913
8.515374184 3.929250956 -1.146359682
8.516335487 3.927886724 -0.8167982697
8.541960716 3.936095476 -0.4907030761
8.559114456 3.940373421 -0.1637715995
8.517049789 3.940846443 0.1631083935
8.528082848 3.94233346 0.4901797175
8.535293579 3.943863392 0.8188900352
8.496666908 3.922412157 1.143922329
8.467582703 3.90540123 1.470222831
8.482736588 3.910595179 1.807405829
7.352874756 3.38661027 1.858992219
6.450362682 2.968203545 1.890984058
8.374992371 3.841446877 -2.457279921
8.420539856 3.858781815 -2.128483534
8.497619629 3.892309904 -1.808550596
8.51505661 3.896701574 -1.476480246
8.561534882 3.914357662 -1.150746942
8.577110291 3.919663906 -0.8213303685
8.588353157 3.921183586 -0.4925871789
8.623757362 3.933711052 -0.164748922
8.578017235 3.932758331 0.164015919
8.585371971 3.932504416 0.4926918447
8.59610939 3.93560791 0.8234221339
8.546409607 3.909245968 1.148797035
8.542250633 3.903733492 1.480860353
8.532049179 3.897276878 1.815038204
7.361105442 3.359302759 1.858092308
6.464200497 2.947270632 1.892019272
8.439354897 3.835366249 -2.472291708
8.478317261 3.849508047 -2.139731169
8.550486565 3.88047123 -1.816946149
8.571784019 3.886533737 -1.48398912
8.611311913 3.900827885 -1.155621648
8.639742851 3.911895275 -0.8260367513
8.649301529 3.912580967 -0.4953086674
8.668416023 3.91758275 -0.165342316
8.642671585 3.925945997 0.1649932563
8.628147125 3.915716171 0.494366616
8.660599709 3.928621054 0.8283028007
8.607014656 3.900691986 1.15513432
8.595411301 3.891822815 1.487743378
8.59926033 3.891752005 1.826486588
7.362131119 3.328775167 1.855392933
6.470929146 2.923095942 1.890984058
8.484395981 3.820165873 -2.481608868
8.543242455 3.843071461 -2.152778387
8.597997665 3.865903139 -1.824196935
8.628545761 3.876013041 -1.491497874
8.668340683 3.890254259 -1.161471486
8.691521645 3.898834944 -0.8296973109
8.710294724 3.903604746 -0.4980301559
8.718540192 3.903641462 -0.1660404056
8.700087547 3.915451765 0.1658309698
8.6891222 3.906875134 0.4970881045
8.710605621 3.914702654 0.8317890167
8.671285629 3.893388987 1.161958933
8.64318943 3.87715435 1.493687987
8.659370422 3.882592678 1.836408734
7.380820751 3.306241274 1.857192516
6.479329109 2.899702549 1.890466332
8.525909424 3.80311656 -2.489891291
8.59932518 3.832266092 -2.163576126
8.659862518 3.857433558 -1.834500551
8.692554474 3.868360519 -1.500258327
8.739912987 3.885776758 -1.169271111
8.737850189 3.883038282 -0.8328348994
8.769504547 3.893435001 -0.5006469488
8.78329277 3.89589262 -0.167017743
8.755709648 3.903785467 0.1666337848
8.757440567 3.900898695 0.5002282858
8.767902374 3.903719664 0.8359725475
8.731977463 3.884078503 1.168296099
8.703603745 3.867819309 1.501822472
8.667486191 3.849957705 1.835263968
7.403004646 3.285197735 1.859892011
6.480582237 2.873151541 1.887878299
8.586843491 3.794412136 -2.503867388
8.651870728 3.819538116 -2.173473835
8.716383934 3.846200943 -1.843659401
8.738540649 3.852334499 -1.505889773
8.799980164 3.877585888 -1.175608397
8.802410126 3.874988079 -0.8377156258
8.825088501 3.881299734 -0.5030543804
8.841930389 3.886860609 -0.167890355
8.800376892 3.886939287 0.1672271639
8.817834854 3.892806292 0.5029497147
8.825222969 3.892392635 0.8401559591
8.781815529 3.869581461 1.173170924
8.765192986 3.860435247 1.51027
8.673685074 3.816513538 1.833737373
7.417423725 3.262204647 1.860791683
6.482998848 2.848537922 1.885807753
8.641850471 3.784513235 -2.516290903
8.701980591 3.807231188 -2.182921648
8.779458046 3.839298248 -1.854344726
8.798331261 3.843899012 -1.514024377
8.849176407 3.864268541 -1.180483103
8.868170738 3.868883371 -0.8427706957
8.87635994 3.868768454 -0.5052524805
8.906103134 3.879882574 -0.1688676924
8.864512444 3.88018465 0.1682045013
8.870949745 3.881157637 0.5052524805
8.885548592 3.883850336 0.8446880579
8.841898918 3.86109066 1.17950809
8.825017929 3.851890564 1.518404603
8.693492889 3.790866613 1.835263968
7.431774616 3.239144802 1.861691713
6.495952129 2.828564405 1.886842966
8.69333744 3.77276063 -2.527678728
8.76640892 3.800831795 -2.195968866
8.831770897 3.827339649 -1.862740397
8.858163834 3.835105181 -1.52215898
8.906333923 3.852274895 -1.186332822
8.923687935 3.856078625 -0.8467798233
8.940480232 3.861488581 -0.5081833601
8.967329979 3.869366884 -0.1697752178
8.926861763 3.872255087 0.1691469252
8.913766861 3.862873316 0.5069272518
8.953227043 3.878123045 0.8499174714
8.889267921 3.846729755 1.184139132
8.887366295 3.842224598 1.526852012
8.7168293 3.766691446 1.83755362
7.432302475 3.208547354 1.858992219
6.516428947 2.810464144 1.889948726
8.751482964 3.759935141 -2.54061985
8.826178551 3.790202618 -2.207666397
8.887235641 3.812748432 -1.871517539
8.919364929 3.822846889 -1.530293584
8.950749397 3.834449291 -1.190476418
8.977390289 3.842154026 -0.8506146669
9.00599575 3.850672722 -0.5111141205
9.021235466 3.855331659 -0.1705431193
8.986258507 3.86080265 0.1700195521
8.982254982 3.855369568 0.5100674033
9.007665634 3.862553835 0.8537522554
8.961027145 3.840703249 1.191938758
8.935228348 3.825949907 1.532796502
8.72335434 3.731630325 1.836027145
7.454762936 3.185881138 1.861691713
6.511987209 2.781630754 1.885807753
8.80899334 3.74827528 -2.553560734
8.893814087 3.780696154 -2.221163273
8.945661545 3.800898075 -1.881057978
8.976297379 3.81021142 -1.537802577
9.030535698 3.82951498 -1.199251056
9.035440445 3.827879429 -0.8547981381
9.081913948 3.845693588 -0.5146729946
9.085031509 3.843274832 -0.1714855433
9.048192978 3.848191261 0.1709270775
9.055147171 3.847417116 0.5134168863
9.057771683 3.846665859 0.8572384715
9.035347939 3.833420992 1.199982166
8.996477127 3.813219786 1.540931106
8.736326218 3.701159477 1.836027145
7.469428539 3.161357164 1.862591386
6.515021801 2.754733324 1.883737087
8.863621712 3.733208179 -2.565466404
8.939286232 3.763239861 -2.229261637
9.004776955 3.787110567 -1.890598536
9.028445244 3.79335618 -1.544372797
9.060319901 3.804888487 -1.201444626
9.065282822 3.803251028 -0.8563669324
9.095947266 3.812382698 -0.5146729946
9.100234985 3.812312841 -0.1715204418
9.089214325 3.828223705 0.1714506447
9.103500366 3.830500603 0.5154056549
9.092013359 3.821932316 0.8591559529
9.055994987 3.804931641 1.200957179
9.060732841 3.803202152 1.549691558
8.742591858 3.666074991 1.834500551
7.49174881 3.138478279 1.86529088
6.524596691 2.731976271 1.883737087
8.835589409 3.685143471 -2.553560734
8.863077164 3.692971945 -2.206766605
9.07049942 3.777545691 -1.90166533
9.090875626 3.782303572 -1.552820206
9.069879532 3.771716356 -1.200957179
9.096904755 3.779226065 -0.8581100702
9.09997654 3.776778221 -0.5141496062
9.131959915 3.788184166 -0.1718695015
9.106876373 3.796421051 0.1715204418
9.102068901 3.792551994 0.5145683289
9.114497185 3.793998003 0.8600275517
9.060714722 3.767905474 1.199738503
9.132325172 3.795809984 1.559703231
8.766213417 3.640054703 1.836790323
7.505715847 3.115109682 1.866190553
6.535878181 2.70992589 1.884254813
8.815625191 3.642542362 -2.544243336
8.844652176 3.650922537 -2.199118376
9.130163193 3.766911507 -1.911587477
9.158158302 3.774721384 -1.562206388
9.124552727 3.759007692 -1.206563115
9.155447006 3.767997503 -0.862467885
9.16601944 3.768607855 -0.5171851516
9.190711021 3.776884556 -0.1727421284
9.156381607 3.781469107 0.1722185612
9.155209541 3.7791152 0.5168710947
9.182284355 3.786540508 0.865256846
9.128223419 3.760519981 1.207050562
9.196005821 3.786566496 1.568463683
8.774605751 3.609468699 1.836027145
7.512399197 3.088721991 1.86529088
6.551976681 2.691171169 1.886325359
8.802624702 3.603044987 -2.536996365
8.835064888 3.612723112 -2.193719387
9.186220169 3.754441977 -1.920746326
9.229144096 3.768226385 -1.57221806
9.23503685 3.766866922 -1.21948123
9.306097984 3.790169954 -0.5244074464
9.318676949 3.791506767 -0.174906224
9.248456001 3.783640623 0.1737194508
9.262634277 3.785672903 0.5222093463
9.312836647 3.804288864 0.8764128089
9.263785362 3.780483961 1.223381162
9.24209404 3.767864227 1.574095249
8.7937994 3.583316565 1.83755362
7.533966064 3.066886663 1.867990255
6.5523839 2.664643764 1.883737087
8.796073914 3.562781572 -2.531302214
8.847622871 3.581858635 -2.193719387
9.245419502 3.739151955 -1.930286884
9.277694702 3.748432398 -1.578162551
9.332798004 3.768806458 -1.230693221
9.209244728 3.715169191 -0.8650825024
9.373648643 3.77768898 -0.5274429917
9.406050682 3.788839102 -0.1763024032
9.354275703 3.78887701 0.1754647046
9.360959053 3.787775755 0.5270242691
9.380283356 3.791785479 0.8814677596
9.343186378 3.774892807 1.232155681
9.315637589 3.759980679 1.584419966
8.81051445 3.552531719 1.838316798
7.548769951 3.040710211 1.868890047
6.561644554 2.641756773 1.883737087
8.801285744 3.529177427 -2.529231548
8.851646423 3.545785189 -2.191469908
9.314916611 3.729475498 -1.942116857
9.334740639 3.733632326 -1.585671425
9.377889633 3.747089386 -1.234836817
9.220948219 3.680654287 -0.8649082184
9.397910118 3.749384165 -0.5280710459
9.423589706 3.755822182 -0.1763722301
9.405226707 3.76943779 0.1761627942
9.421133041 3.772001982 0.5296410918
9.408262253 3.764938831 0.8828623295
9.371704102 3.746519804 1.234105587
9.353204727 3.735338211 1.588487267
8.819215775 3.520298004 1.83755362
7.573818207 3.020117521 1.872489214
6.564105034 2.61482811 1.881666541
8.826730728 3.50188446 -2.532855034
8.863969803 3.514863253 -2.191469908
9.310270309 3.688081503 -1.938300729
9.329996109 3.692122936 -1.582542896
9.372449875 3.707036734 -1.232399464
9.37271595 3.703353882 -0.8779815435
9.385579109 3.70464921 -0.5266055465
9.410599709 3.712627411 -0.1758835465
9.412748337 3.734378815 0.1760580838
9.413818359 3.730995417 0.5284896493
9.403471947 3.72309804 0.8811191916
9.351501465 3.700633526 1.229718328
9.344143867 3.693949938 1.58473289
8.839362144 3.490836382 1.839079976
7.595714569 2.996627092 1.875188589
6.578582287 2.594029665 1.883219481
8.883246422 3.490253448 -2.545796156
8.916093826 3.499562025 -2.201367617
9.289551735 3.644278526 -1.931431651
9.318279266 3.651790619 -1.578475595
9.352060318 3.661269426 -1.228012085
9.371957779 3.667167902 -0.8767613769
9.379209518 3.666235924 -0.5255588889
9.398646355 3.671937704 -0.1754297912
9.405252457 3.693456411 0.1756741405
9.390815735 3.685890436 0.5265008807
9.400927544 3.686077833 0.879724741
9.347725868 3.661453962 1.227524638
9.325070381 3.650702953 1.579414129
8.861861229 3.465792894 1.841369748
7.563863277 2.955109835 1.864840984
6.594347 2.575008869 1.885290027
8.933187485 3.473925114 -2.556666374
8.962158203 3.483395815 -2.209915876
9.272935867 3.600457907 -1.925325751
9.315603256 3.615159035 -1.575972438
9.341941833 3.621624231 -1.225087285
9.362404823 3.625803471 -0.8746696115
9.38386631 3.632226706 -0.5251401663
9.38156414 3.627575874 -0.1748713106
9.406267166 3.657895803 0.1754647046
9.385005951 3.645862341 0.5254542232
9.395161629 3.646033764 0.8779815435
9.239516258 3.583776712 1.211681604
9.310129166 3.607422113 1.574721098
8.880627632 3.439224482 1.842896223
7.577255249 2.931418896 1.865740776
6.596087933 2.549187422 1.883219481
8.96989727 3.454003334 -2.563913584
9.02155304 3.47027874 -2.221613169
9.270162582 3.564053535 -1.922272682
9.309725761 3.575534821 -1.572843909
9.343406677 3.584728241 -1.223624825
9.341516495 3.580263138 -0.8715320826
9.374105453 3.590877295 -0.5238841176
9.377361298 3.588371277 -0.1745571792
9.389115334 3.613553762 0.174906224
9.388355255 3.609493971 0.5249308348
9.371865273 3.601277351 0.8746696115
9.226026535 3.541540861 1.208269238
9.307907104 3.569244862 1.57221806
8.89991188 3.411012173 1.844422579
7.598360062 2.909133434 1.868440151
6.606751442 2.526835442 1.883737087
9.112480164 3.470612049 -2.601183414
9.071858406 3.453323364 -2.23106122
9.286833763 3.53145051 -1.923036098
9.307994843 3.535778999 -1.570340991
9.359572411 3.553502798 -1.224112272
9.363269806 3.551167965 -0.8724035621
9.392808914 3.558615923 -0.5241981149
9.412270546 3.564116478 -0.174976036
9.377379417 3.571502447 0.1744524539
9.39529705 3.574572325 0.5246168375
9.366378784 3.559822559 0.8729265332
9.214206696 3.500152349 1.205100656
9.270445824 3.517808199 1.563770533
8.881145477 3.366541624 1.837935209
7.614438057 2.883336544 1.86978972
6.610109329 2.501711369 1.882184148
9.218542099 3.474206686 -2.628100395
9.285069466 3.495578289 -2.28055048
9.359742165 3.52182579 -1.935629487
9.372055054 3.522724628 -1.579101205
9.426428795 3.53940773 -1.231180668
9.442764282 3.543661356 -0.8786788583
9.492688179 3.554838419 -0.1762326062
9.446548462 3.558253288 0.1754996032
9.445721626 3.554177523 0.5267102718
9.363827705 3.521497726 0.8715320826
9.197242737 3.455184937 1.201200962
9.224094391 3.46159935 1.55375886
8.863432884 3.324486256 1.83182919
7.620807648 2.855370045 1.868890047
6.624662876 2.479497194 1.883737087
9.299397469 3.467657804 -2.647770882
9.326435089 3.474027634 -2.287749052
9.370137215 3.488449097 -1.93524766
9.408364296 3.498937607 -1.583168507
9.425700188 3.50164485 -1.229474545
9.445737839 3.50720787 -0.8778072596
9.46049118 3.508934021 -0.5266055465
9.473160744 3.509872437 -0.1756392121
9.481395721 3.533638954 0.1759184748
9.459941864 3.521882772 0.5268149376
9.361124039 3.48323369 0.8701375127
9.183196068 3.413378954 1.197788596
9.263898849 3.439691067 1.558451891
8.895228386 3.30104208 1.836027145
6.644147396 2.460381031 1.886842966
9.27700901 3.422468901 -2.637935638
9.349475861 3.445496559 -2.290448427
9.393311501 3.459789038 -1.937537432
9.435351372 3.471533537 -1.585671425
9.46707058 3.481328249 -1.233374357
9.495326042 3.487956762 -0.8812934756
9.495182991 3.484143019 -0.5278616548
9.518543243 3.490829706 -0.1762675047
9.51618576 3.508824587 0.1763373166
9.465947151 3.488418818 0.5265008807
9.35078907 3.442278624 0.8680458665
9.200645447 3.383355618 1.198519707
9.27154541 3.407590866 1.557826042
8.917756081 3.274029493 1.838316798
7.808377743 2.865190268 1.910281062
6.64864254 2.437006235 1.885807753
9.308267593 3.398977518 -2.643629789
9.375494957 3.419817686 -2.294047594
9.425022125 3.436019421 -1.941735268
9.463515282 3.446310997 -1.588487267
9.519600868 3.464853764 -1.238736629
9.518074036 3.46053648 -0.8823393583
9.564880371 3.473774433 -0.531106472
9.578937531 3.476987362 -0.1771750301
9.544677734 3.48341608 0.1766514629
9.462451935 3.45153594 0.5256635547
9.335945129 3.401699305 0.8656055331
9.277101517 3.376591206 1.207050562
9.267943382 3.371426344 1.555323124
8.92118454 3.241754532 1.836790323
7.858132839 2.853917599 1.920178771
6.649423122 2.412308216 1.883737087
9.341291428 3.375968218 -2.649841547
9.416111946 3.399292946 -2.301245928
9.464659691 3.413090706 -1.947459459
9.487900734 3.41959548 -1.590677261
9.531636238 3.431605339 -1.238736629
9.539470673 3.430659771 -0.8832109571
9.576948166 3.440363169 -0.531106472
9.557139397 3.431363821 -0.1765467376
9.565580368 3.455144644 0.1768260002
9.463171005 3.414414883 0.5250355005
9.328431129 3.363964319 0.8638623357
9.299454689 3.349842548 1.208513021
9.270363808 3.335708141 1.55375886
8.932443619 3.210600138 1.836790323
7.945075512 2.854139328 1.939074874
6.657801628 2.3890872 1.883737087
9.348142624 3.339759827 -2.648288488
9.397305489 3.353625774 -2.293597698
9.454917908 3.37046051 -1.942880273
9.474319458 3.37551856 -1.586297154
9.525450706 3.389984369 -1.236299276
9.523821831 3.385664463 -0.8805962801
9.534912109 3.385859251 -0.5280710459
9.569651604 3.396314144 -0.1765467376
9.563113213 3.414679527 0.1765467376
9.453046799 3.371658325 0.5237794518
9.321932793 3.323054552 0.8621191978
9.276137352 3.303085566 1.203881979
9.26205349 3.294428349 1.550317287
8.951553345 3.18046236 1.838316798
7.883863449 2.799569607 1.921528578
6.681081295 2.369830847 1.887878299
9.34392643 3.299687862 -2.643629789
9.392994881 3.313323259 -2.289548397
9.455513954 3.333526611 -1.940590501
9.477313042 3.337487698 -1.58473289
9.511009216 3.347493649 -1.23288691
9.558807373 3.354940176 -0.1761278957
9.55670929 3.37294817 0.1761977077
9.436507225 3.328671932 0.5222093463
9.322774887 3.28489542 0.8610734344
9.267583847 3.261817694 1.201200962
9.254862785 3.255520344 1.54718852
8.955189705 3.146598816 1.836790323
7.842106342 2.753951311 1.908931375
6.698425293 2.349696875 1.890466332
6.29634428 2.197552919 -1.52966392
6.317058086 2.203542471 -1.292221427
6.361938953 2.216711044 -1.060364485
6.376354218 2.220482111 -0.8238933682
6.390878201 2.223035812 -0.5882759094
6.391985416 2.220923662 -0.3524314761
9.556513786 3.337284803 0.1759882718
9.438061714 3.294076681 0.5216860175
9.31480217 3.247404575 0.8593302369
9.274600029 3.229758739 1.200713396
9.241353989 3.216372967 1.543121219
8.982265472 3.122684717 1.840224981
6.706181526 2.327469349 1.890466332
6.044416904 2.089525223 -1.702046156
9.474959373 3.26619339 -1.580665588
9.501667023 3.271684885 -1.228743315
9.490351677 3.264088631 -0.8743210435
9.532811165 3.276827097 -0.5260822177
9.524682045 3.270320415 -0.1750807464
9.440063477 3.257850885 0.5211626291
9.295384407 3.206100702 0.856541276
9.258983612 3.189934731 1.19730103
9.230110168 3.176383495 1.539366961
8.99071312 3.092244387 1.839843154
7.809063911 2.682783127 1.896334052
6.714265347 2.304044247 1.890466332
6.073971748 2.074852228 -1.708257794
9.451340675 3.219340324 -1.574721098
9.499873161 3.23402667 -1.227037191
9.49037075 3.227090597 -0.8732751608
9.520172119 3.233517647 -0.5247215033
9.528465271 3.234479189 -0.1749411225
9.527914047 3.254709482 0.1750458479
9.44948864 3.22423172 0.5210579634
9.28821373 3.165584564 0.8547981381
9.253151894 3.151832819 1.19510746
9.235531807 3.142233849 1.538428187
8.994551659 3.056746244 1.838316798
7.840989113 2.661658049 1.901732922
6.722266674 2.280594587 1.890466332
6.088499069 2.056108236 -1.710328341
6.04941988 2.040559053 -1.463978052
9.443799019 3.180027008 -1.571592331
9.489086151 3.191584826 -1.224112272
9.495911598 3.192040682 -0.8727522492
9.501107216 3.190091848 -0.5230467319
9.528880119 3.195721149 -0.1747316867
9.51515007 3.211446047 0.1745920777
9.451780319 3.186388254 0.5205346346
9.29165554 3.130596399 0.854100883
9.236419678 3.108401537 1.19145143
9.232006073 3.103329182 1.535925269
9.012610435 3.02782917 1.839843154
7.920435905 2.657831907 1.918829203
6.74157095 2.259622812 1.893572211
6.117628098 2.04218483 -1.716539979
6.163730145 2.055180311 -1.490072489
6.451512337 2.149884939 -1.313591957
9.443595886 3.143297195 -1.569715142
9.470030785 3.148424625 -1.220212579
9.49187088 3.153846264 -0.8713577986
9.493228912 3.150618076 -0.5220000148
9.519098282 3.155515909 -0.1743477434
9.518712044 3.175687313 0.1744524539
9.438213348 3.145164967 0.5191739202
9.287402153 3.093113184 0.8527063727
9.23402977 3.071753025 1.189745188
9.218413353 3.062985182 1.531857967
9.038031578 3.001298189 1.842896223
7.850131035 2.603785038 1.899483323
6.756752014 2.238508224 1.895642757
6.088028431 2.008709908 -1.706187248
9.382850647 3.090371132 -1.911969066
9.439498901 3.105377436 -1.567212224
9.461559296 3.110805035 -1.217775106
9.474429131 3.111366987 -0.868743062
9.496576309 3.114973545 -0.5215813518
9.504808426 3.115831137 -0.1738939881
9.522144318 3.139934301 0.1743128449
9.433414459 3.108849764 0.5183364749
9.279218674 3.054443598 0.8509633541
9.225836754 3.033303261 1.187307715
9.183479309 3.017601013 1.524349093
9.044722557 2.968508959 1.842132926
7.808726788 2.561341763 1.887336016
6.764138222 2.216091156 1.895642757
9.360746384 3.050528526 -2.263004303
9.383714676 3.056196928 -1.910060883
9.427202225 3.066726446 -1.563457727
9.464272499 3.076954126 -1.216800094
9.465743065 3.07378459 -0.8669999838
9.491656303 3.078532696 -0.5207439661
9.488455772 3.07566905 -0.1734053195
9.509690285 3.100898266 0.1738939881
9.434176445 3.074458122 0.5178131461
9.266562462 3.016253233 0.8488715887
9.226406097 2.999620914 1.186089039
9.20095253 2.989570141 1.525600672
9.054516792 2.938496828 1.842132926
6.767775059 2.192455769 1.894607544
9.350410461 3.012894154 -2.258055449
9.396194458 3.024027109 -1.91044271
9.409113884 3.026372671 -1.558764696
9.463615417 3.040258169 -1.215337753
9.465032578 3.037069559 -0.8659541011
9.479519844 3.038068771 -0.5194879174
9.491516113 3.040086746 -0.1732656956
9.48566246 3.058302879 0.1732656956
9.425840378 3.035383463 0.5167664289
9.257546425 2.979405165 0.8471283913
9.217404366 2.962935448 1.183651686
9.192523003 2.951397896 1.522471905
9.060979843 2.905675888 1.841369748
6.775386333 2.168819904 1.894607544
6.123115063 1.950605392 -1.710328341
9.382891655 2.981835365 -1.905481577
9.40320015 2.986482382 -1.555948973
9.455774307 2.999547482 -1.212900281
9.449509621 2.993935108 -0.8635137677
9.463934898 2.994865894 -0.5180224776
9.487341881 3.00045681 -0.1729864627
9.481565475 3.01865983 0.1729864627
9.421675682 2.995975971 0.5159290433
9.260810852 2.943038702 0.8464311957
9.201712608 2.920726538 1.180239439
9.193863869 2.914698839 1.52090764
9.08654213 2.877184629 1.844422579
7.931734085 2.510000467 1.910730958
6.790658474 2.146299362 1.89667809
6.100738049 1.918877244 -1.702046156
9.329483032 2.93083787 -2.247707605
9.374511719 2.943186045 -1.90166533
9.43260479 2.954192638 -1.208513021
9.463706017 2.962119579 -0.8638623357
9.459079742 2.957046986 -0.5171851516
9.480579376 2.961951733 -0.1726723015
9.484934807 2.981491566 0.1728468388
9.409211159 2.955884218 0.5146729946
9.252524376 2.903113604 0.8446880579
9.199097633 2.882823229 1.178533196
9.177589417 2.874324322 1.516527295
9.100276947 2.846623421 1.845185995
6.807328224 2.125462532 1.899266243
6.118467808 1.901007414 -1.705151916
9.32798481 2.896414042 -2.24500823
8.199267387 2.541232109 -1.352896929
9.427179337 2.918202639 -1.206563115
9.44162941 2.919059992 -0.8608990312
9.46119976 2.923306465 -0.5167664289
9.460289955 2.919403315 -0.1721138358
9.479492188 2.945277214 0.172567606
9.404211998 2.918288708 0.513835609
9.243572235 2.864897966 0.8429449797
9.193435669 2.847605228 1.176583171
9.164922714 2.835263252 1.512773037
9.117170334 2.818747282 1.846712351
7.952787399 2.455715179 1.91163063
6.799937725 2.09713459 1.895125151
6.073030472 1.864827752 -1.690658092
8.164288521 2.503870487 -1.961569786
8.194881439 2.511683941 -1.657811522
8.185419083 2.505662918 -1.349142551
9.425918579 2.881793022 -1.205100656
9.426485062 2.880172253 -0.8586329818
9.46561718 2.888511658 -0.5164524317
9.446964264 2.881022692 -0.1716949791
9.46677494 2.905127287 0.1721487343
9.406197548 2.884746075 0.5134168863
9.226351738 2.826062202 0.8405046463
9.199523926 2.814332724 1.176095843
9.159161568 2.800237179 1.51027
9.123197556 2.785760403 1.845949173
6.803159237 2.07344532 1.894089818
6.149754047 1.864919543 -1.710328341
8.180007935 2.479041815 -1.963369489
8.16721344 2.470495939 -1.344762325
9.424022675 2.847072601 -1.203638196
9.428853035 2.844945669 -0.8579357862
9.463670731 2.853644371 -0.5158243775
9.476111412 2.853792906 -0.1720440388
9.461048126 2.869073153 0.1718695015
9.406652451 2.848997593 0.5128935575
9.220901489 2.789225578 0.8391100764
9.182202339 2.775770664 1.172683477
9.155641556 2.764253616 1.508079886
9.124866486 2.753224611 1.844422579
8.086867332 2.436952353 1.939974546
6.82330513 2.053580761 1.897713423
9.299440384 2.782890081 -2.23106122
8.164430618 2.438577652 -1.342885137
9.414878845 2.808491468 -1.201200962
9.426779747 2.810245037 -0.8568899035
12.54945946 3.757862806 0.2279615253
9.389752388 2.80813098 0.5114281178
9.218646049 2.755211353 0.8380641937
9.159500122 2.734047174 1.168539882
9.163342476 2.731711149 1.507767081
9.138185501 2.722475052 1.845185995
8.085986137 2.405928135 1.937724948
6.837837696 2.031956196 1.899783969
9.297883034 2.74710536 -2.228361845
9.340630531 2.757958412 -1.884874105
8.165314674 2.407826424 -1.341633558
9.401774406 2.768877745 -1.198276043
9.425064087 2.773944378 -0.8558440208
12.55502224 3.69038558 -0.6836134791
9.44591713 2.772922993 -0.1711365134
12.53181934 3.704959631 0.2274030596
9.378426552 2.769118071 0.5102767944
9.216743469 2.719630241 0.8370184302
9.165179253 2.70093751 1.168052435
9.14629364 2.691898108 1.503386855
9.138216019 2.687792301 1.843277812
7.90362215 2.321664333 1.891835093
6.850450993 2.009705067 1.901336908
9.288707733 2.709174156 -2.223862886
9.316275597 2.715445757 -1.878005147
8.16797924 2.377659321 -1.340695024
9.396132469 2.73161149 -1.196326137
9.407901764 2.733252525 -0.8534036875
9.423979759 2.734352112 -0.5120561719
9.422886848 2.730469465 -0.1705431193
9.425305367 2.750799656 0.1706827432
9.378448486 2.733567476 0.509753406
9.207050323 2.681870937 0.8352752924
9.155490875 2.663381338 1.165615082
9.130971909 2.652796745 1.499319553
9.136230469 2.652590752 1.840988159
7.917291164 2.295694828 1.893184662
6.855568886 1.985240936 1.900819182
9.284999847 2.672957897 -2.220713615
9.314376831 2.67965436 -1.875715375
8.153447151 2.342585087 -1.336940646
9.390346527 2.694413662 -1.194376111
9.39248848 2.693254232 -0.8511376381
9.423867226 2.69869256 -0.5115328431
9.418902397 2.693713903 -0.170298785
9.427164078 2.715665579 0.1705431193
9.376416206 2.697502613 0.5091253519
9.189549446 2.642006397 0.8328348994
9.155191422 2.628669262 1.164396405
9.124986649 2.616549253 1.496816635
9.128448486 2.615818024 1.83755362
7.992704391 2.287344456 1.90938127
6.849454403 1.957583904 1.897195697
9.27365303 2.634674311 -2.215764523
9.31611824 2.644981861 -1.8741889
8.140668869 2.308184385 -1.333498955
9.392054558 2.659452915 -1.193401217
9.386494637 2.656114101 -0.8497431278
9.415932655 2.660889626 -0.5105907917
9.437405586 2.665184259 -0.1704733074
9.419276237 2.677818298 0.170228973
9.389151573 2.66748786 0.5093346834
9.187216759 2.606647491 0.8317890167
9.149031639 2.592368126 1.162446499
9.127910614 2.584657907 1.495877981
9.114851952 2.577528715 1.832974195
6.867063522 1.938009262 1.900301576
8.60138607 2.414501429 -2.382222414
9.196029663 2.579692841 -2.195069075
9.104109764 2.55047965 -1.829539537
8.136865616 2.277978897 -1.331621885
9.173319817 2.564689875 -1.164396405
9.167349815 2.559571028 -0.8290001154
9.186155319 2.563093662 -0.4976114333
9.194304466 2.561908722 -0.1659007818
9.349167824 2.624411583 0.1687978804
9.261865616 2.596417904 0.5019030571
9.18091011 2.5702672 0.8303945661
9.125080109 2.552920103 1.158302903
9.104534149 2.543745518 1.49055934
9.115786552 2.545174122 1.831447601
8.060648918 2.247541904 1.921978474
6.877509594 1.915061474 1.901336908
8.482751846 2.350882769 -2.347023249
9.030310631 2.499237776 -2.153228045
9.076563835 2.510333776 -1.822288752
8.133341789 2.246407986 -1.329744697
9.132461548 2.518932104 -1.15805912
9.158941269 2.522790909 -0.8274312615
9.166160583 2.523063421 -0.4960413575
9.189694405 2.52608633 -0.1656564474
9.190608025 2.545328856 0.1657611579
9.166920662 2.535324097 0.496250689
9.177859306 2.536625147 0.8293486834
9.126282692 2.518936872 1.15732789
9.115262032 2.512475967 1.490872145
9.117045403 2.511250973 1.829921246
8.055293083 2.21577096 1.918829203
6.889740467 1.892579198 1.902889729
8.467084885 2.313155413 -2.340293884
9.033340454 2.466163397 -2.151878595
9.059187889 2.469818115 -1.816946149
8.130085945 2.213467121 -1.327867508
9.127791405 2.483387947 -1.156352997
9.154144287 2.483695507 -0.4948899448
9.163715363 2.484575748 -0.1650281549
9.184005737 2.509013653 0.165481925
9.16415596 2.50015378 0.4956226349
9.167870522 2.49773407 0.8276055455
9.123526573 2.483937502 1.155865431
9.091570854 2.471834183 1.485553384
9.111029625 2.473705053 1.826868176
8.099095345 2.19592309 1.927377343
6.890711308 1.867000818 1.901336908
8.45831871 2.279063702 -2.335634947
9.040436745 2.432529211 -2.151428699
9.060170174 2.43614316 -1.815419793
8.12250042 2.180974007 -1.325364351
8.655573845 2.320875645 -1.095174551
9.102947235 2.435724735 -0.4916451573
9.162672997 2.44998765 -0.1648536325
9.177692413 2.47117877 0.1652026922
9.168968201 2.467113495 0.4954133332
9.153445244 2.459510803 0.8255138397
9.128734589 2.449455023 1.155377984
9.090604782 2.437523365 1.48398912
9.104437828 2.437826157 1.823815346
8.091650963 2.163609266 1.923778176
6.885987282 1.839945436 1.89823103
8.456889153 2.247042656 -2.333046913
9.020201683 2.395032644 -2.144680023
9.02686882 2.393430233 -1.807024002
8.112502098 2.149475098 -1.322548628
8.657465935 2.290634155 -1.094443321
8.726398468 2.305618048 -0.7859451175
9.114836693 2.406541824 -0.4918544888
9.149898529 2.412387848 -0.1644696891
9.154914856 2.432511806 0.1646441966
9.164011955 2.431509495 0.4946806133
9.146567345 2.42345953 0.8241193295
9.109940529 2.412057877 1.151965618
9.078052521 2.400219679 1.480547547
9.074508667 2.397593021 1.816182971
8.062979698 2.127320528 1.915230036
6.897973061 1.817372322 1.899783969
8.454949379 2.216538191 -2.330458641
8.919163704 2.334909201 -2.118585587
8.973978043 2.347585201 -1.794812441
8.102755547 2.116652727 -1.319732904
8.628913879 2.250877619 -1.089812279
8.734394073 2.275141001 -0.7859451175
9.080659866 2.363639593 -0.489551723
9.158265114 2.380431652 -0.1644696891
9.145939827 2.395981312 0.1643300653
9.147324562 2.392932653 0.493319869
9.150699615 2.392104626 0.8237707019
9.095256805 2.374224663 1.149040818
9.08446312 2.368020296 1.480234623
9.079024315 2.364910364 1.815419793
6.902404785 1.792795181 1.899266243
8.455533981 2.183604002 -2.328387976
8.997076988 2.321775675 -2.13523221
8.106631279 2.085953474 -1.319107056
8.621336937 2.216794491 -1.087862372
8.665091515 2.224816799 -0.7789726853
9.151021004 2.344475985 -0.1641904563
9.154247284 2.364043474 0.1643300653
9.138216019 2.356501579 0.4923778474
9.147828102 2.355570555 0.8227248192
9.090031624 2.33899641 1.147334576
9.077368736 2.332360268 1.477731705
9.080022812 2.329668522 1.813893199
8.028914452 2.0569942 1.903532505
6.912363529 1.769653559 1.900301576
8.444383621 2.149307966 -2.323211908
8.997970581 2.28686595 -2.133432388
9.032409668 2.293940544 -1.803207994
8.111948967 2.057159424 -1.318794131
8.63325119 2.186157227 -1.088349819
8.699845314 2.201400757 -0.7814130187
9.120577812 2.304470539 -0.4908077419
9.141698837 2.308114767 -0.1638762951
9.149284363 2.327027321 0.1640857309
9.134772301 2.321634531 0.4917498231
9.136681557 2.318729639 0.820981741
9.086997986 2.302740335 1.145872116
9.056728363 2.29339242 1.473038554
9.080487251 2.296031713 1.812366843
8.17019558 2.062827587 1.935475707
6.912879467 1.744094372 1.898748636
8.421854019 2.112300634 -2.314929485
8.997943878 2.255121946 -2.131632805
9.028934479 2.259539843 -1.800918221
8.107227325 2.027374268 -1.316916943
9.135919571 2.276150465 -0.4912264347
9.124473572 2.269912004 -0.1634225398
9.143373489 2.293266535 0.1638413966
9.131196022 2.286820173 0.491121769
9.121525764 2.281019926 0.8188900352
9.086881638 2.270666838 1.144897342
9.060846329 2.260805845 1.472412944
9.065192223 2.26020503 1.807787418
8.190228462 2.039020061 1.938624978
6.90767622 1.717158556 1.895642757
8.423185349 2.082971573 -2.313376665
8.98116684 2.217624187 -2.125784159
9.023035049 2.226296186 -1.79824698
8.091239929 1.993390083 -1.313162684
9.039674759 2.22203064 -0.8106973767
9.108895302 2.23567462 -0.4893423319
9.105150223 2.231386185 -0.1629338712
9.106673241 2.250300646 0.1630385816
9.115852356 2.249197483 0.4898657203
9.113565445 2.246941328 0.8174955249
9.075475693 2.234194756 1.142459869
9.059092522 2.226803541 1.47084856
9.052053452 2.223398447 1.803589582
8.193511009 2.009487867 1.937724948
6.90987587 1.692115068 1.894607544
8.422897339 2.051725388 -2.311306
8.966129303 2.180735826 -2.120385408
8.080870628 1.960943222 -1.310346723
9.037301064 2.189690828 -1.136610031
8.969917297 2.171711445 -0.8037249446
9.081701279 2.195415258 -0.4874582887
9.116770744 2.200529814 -0.1630036682
9.106701851 2.21660471 0.1628989726
9.10229969 2.212172508 0.4887143075
9.113609314 2.21323204 0.8167982697
