# .PCD v0.7 - Point Cloud Data file format
VERSION 0.7
FIELDS x y z
SIZE 4 4 4
TYPE F F F
COUNT 1 1 1
WIDTH 1251
HEIGHT 1
VIEWPOINT 0 0 0 1 0 0 0
POINTS 1251
DATA ascii
-2.733977795 5.935902119 1.262073517
-2.729086876 5.93073082 1.497270942
-2.708532333 5.891477108 1.725857496
-2.269151688 4.951686382 -1.447885752
-2.254487753 4.9242239 -1.240376711
-2.284847021 4.992836475 -1.059052825
-2.290412903 5.009619713 -0.8657599688
-2.246959686 4.91912365 -0.6588822603
-2.240167379 4.906513214 -0.4681752324
-2.223114729 4.873672009 -0.2785331011
-2.307006836 5.062264919 -0.09640529752
-2.565713644 5.60142374 0.1068418324
-2.749340773 6.007845879 0.344057709
-2.740846395 5.992054462 0.5727621913
-2.654592991 5.808839321 0.7790454626
-2.711132288 5.93804121 1.027200341
-2.710793972 5.940051556 1.26092875
-2.696239948 5.913624763 1.490522265
-2.676737785 5.876283169 1.718610525
-2.250254869 4.956059456 -1.446850657
-2.255799532 4.972881794 -1.250724435
-2.264160395 4.993629456 -1.05752635
-2.268020153 5.006788731 -0.8638827205
-2.257604122 4.988425732 -0.6671693921
-2.238627672 4.948794365 -0.4714871645
-2.217605591 4.906882286 -0.2799985111
-2.279448509 5.048416615 -0.09598644078
-2.556063414 5.632196426 0.1072606966
-2.705257893 5.966474533 0.3411269188
-2.705933332 5.970734596 0.5697988868
-2.66213727 5.879555225 0.7873325348
-2.655377865 5.870078087 1.013746977
-2.657690525 5.877922058 1.245664001
-2.645097256 5.855513573 1.473426104
-2.63554883 5.839808464 1.705151916
-2.221054554 4.937456608 -1.43908596
-2.233635426 4.970060349 -1.24802506
-2.240280867 4.987174988 -1.0544734
-2.248910666 5.011071205 -0.8632570505
-2.246675491 5.010766029 -0.6691192389
-2.225412369 4.965670109 -0.4723587334
-2.211891174 4.940113068 -0.2814638913
-2.258544445 5.049041271 -0.0958468169
-2.556889772 5.686679363 0.1081333086
-2.676231623 5.957661629 0.3400802016
-2.676915407 5.961967468 0.5680558085
-2.637533426 5.879755974 0.7861138582
-2.622751713 5.852272511 1.009053946
-2.637957573 5.88895607 1.246045709
-2.626232147 5.868268967 1.474325895
-2.605686903 5.827808857 1.698940396
-1.37103796 3.076511145 -0.890907228
-2.236879826 5.024114132 -1.259722471
-2.214875221 4.977028847 -1.050657272
-2.221776009 4.997230053 -0.8595025539
-2.230781555 5.022206783 -0.6696067452
-2.229895115 5.022573948 -0.477065146
-2.209208965 4.980667591 -0.2833480239
-2.235306263 5.041878223 -0.09556758404
-2.576078892 5.783250809 0.109808743
-2.667019606 5.990223885 0.3414409459
-2.657705784 5.974916458 0.5684043765
-2.649240494 5.96148777 0.7958634496
-2.631397486 5.924122334 1.020004392
-2.630924225 5.928634644 1.252533197
-2.623899221 5.918374538 1.484673619
-2.601216316 5.869976521 1.70877552
-1.358730793 3.077743292 -0.8898719549
-1.370554209 3.105992556 -0.7738282084
-2.19986558 4.99011898 -1.051802039
-2.202004671 4.997340202 -0.8582510948
-2.214915752 5.031393051 -0.6698504686
-2.209142208 5.023031712 -0.4763679206
-2.20714879 5.020876408 -0.2852320969
-2.216086149 5.045988083 -0.0954977721
-2.567386627 5.815542698 0.1102625057
-2.637228966 5.97939539 0.3402895331
-2.633617878 5.976864815 0.5677071214
-2.619856358 5.948439121 0.7929385304
-2.612292051 5.936889172 1.020630121
-2.605718136 5.92474556 1.249861836
-2.605824947 5.930612087 1.485573411
-2.579158545 5.875482559 1.707740188
-1.350839257 3.087542057 -0.8914248347
-1.35658133 3.103615761 -0.772028625
-2.556686878 5.846455097 0.1106813699
-2.621136904 5.999546051 0.3409175575
-2.614585161 5.987390041 0.567881465
-2.593518496 5.944812298 0.7912324071
-2.589185953 5.940538406 1.019691467
-2.585019588 5.933805943 1.249861836
-2.575776339 5.91822958 1.480174541
-2.559402227 5.886221886 1.708257794
-1.337211013 3.08715415 -0.8898719549
-1.344965696 3.106543303 -0.7715787292
-1.415203094 3.271906614 -0.6846854687
-2.574327707 5.957473278 0.7917198539
-2.564520359 5.940471172 1.018127084
-2.57336235 5.966675282 1.25482285
-2.554069042 5.927629471 1.480174541
-2.54571867 5.911088467 1.712916493
-1.317285895 3.070498943 -0.8836602569
-1.330500603 3.104287386 -0.7697791457
-1.397587776 3.262389898 -0.6816325188
-1.95670104 4.571936607 -0.7809724808
-1.940364361 4.538143158 -0.600872457
-2.565746069 5.997896194 0.7958634496
-2.549979925 5.963918209 1.020630121
-2.569484234 6.015342236 1.263218403
-2.547128439 5.968772411 1.488272905
-2.537952662 5.950147152 1.721716404
-1.301272273 3.062632084 -0.8800368309
-1.321721673 3.112270117 -0.7706789374
-1.380057812 3.252789974 -0.6785796285
-1.941530108 4.578399658 -0.7809724808
-1.925305605 4.544552803 -0.600872457
-1.948636532 4.595157623 0.4329643548
-2.570633173 6.064857006 0.8036630154
-2.556876898 6.038267612 1.031893373
-2.558706045 6.045525074 1.267797828
-2.541742086 6.011288643 1.496820927
-2.520927429 5.967867851 1.724304676
-1.291857839 3.068711281 -0.8805544972
-1.303295612 3.098901033 -0.7661799192
-1.366980314 3.25191927 -0.6774347425
-1.905649543 4.537796021 -0.7728378773
-1.909431338 4.551245213 -0.600872457
-1.950118184 4.6596241 -0.08746965975
-1.933388591 4.601593971 0.4329643548
-2.547140598 6.068303108 0.8029317856
-2.539601564 6.056264877 1.033457756
-2.53379178 6.045367241 1.265889764
-2.526010275 6.032707214 1.499970317
-2.501572609 5.980194569 1.72533977
-1.275935411 3.060719728 -0.8769309521
-1.29172051 3.101632833 -0.7657299638
-1.88221395 4.526180267 -0.7697092295
-1.89353168 4.557882786 -0.600872457
-1.917313099 4.608314991 0.4329643548
-2.513753891 6.047827721 0.7990320325
-2.510114431 6.045024395 1.030016184
-2.516438007 6.063241005 1.267797828
-2.498966932 6.027086258 1.496371031
-2.489552498 6.010308743 1.731551528
-1.269667149 3.075869083 -0.8800368309
-1.277171969 3.097114801 -0.7634804845
-1.843254089 4.472066402 -0.9319739342
-1.8558743 4.507149696 -0.7653290033
-1.877608895 4.564465046 -0.600872457
-2.489606857 6.049221992 0.7980570197
-2.479984999 6.031824589 1.026261687
-2.490782022 6.061092377 1.265508175
-2.46903348 6.014139652 1.490972281
-2.464890242 6.010025501 1.728963256
-1.255998254 3.073129654 -0.8779662848
-1.261932611 3.090729713 -0.7607811093
-1.827631354 4.47847414 -0.9319739342
-1.802842021 4.422141075 -0.7496855259
-1.861665606 4.570991039 -0.600872457
-1.83533299 4.492862701 0.08401408792
-2.464728832 6.048684597 0.7968384027
-2.452955246 6.025809288 1.023758769
-2.46664834 6.062476158 1.2639817
-2.445088387 6.015500546 1.489172578
-2.435176134 5.997113705 1.722751737
-1.232945442 3.047050953 -0.8691664338
-1.25259757 3.098728895 -0.7616809011
-1.811988354 4.484826088 -0.9319739342
-1.824363232 4.519996643 -0.7653290033
-1.84569943 4.577461243 -0.600872457
-2.44360137 6.057250977 0.7968384027
-2.425261974 6.0178442 1.020942926
-2.435203075 6.045554161 1.258639097
-2.421164036 6.016767979 1.487372994
-2.404140949 5.980483055 1.715504766
-1.221582651 3.049543381 -0.8686488271
-1.240326047 3.099463701 -0.7607811093
-1.771925569 4.434619427 -0.7496855259
-1.829708695 4.58387661 -0.600872457
-1.803922057 4.50556612 0.08401408792
-2.415814877 6.049152851 0.7946447134
-2.405703545 6.029943943 1.021568775
-2.403176069 6.026664257 1.252914786
-2.395820856 6.014319897 1.484673619
-2.376820326 5.97268486 1.710846066
-1.215203404 3.064563513 -0.8717545867
-1.216579914 3.071162939 -0.7526828647
-1.782591581 4.506906509 -0.7609488368
-1.813697815 4.590235233 -0.600872457
-1.788184643 4.511835098 0.08401408792
-2.383739233 6.029857635 0.7909886837
-2.377385855 6.01993084 1.018440008
-2.377079964 6.022232533 1.250243425
-2.367665291 6.004517078 1.480174541
-2.350291252 5.966566086 1.706704855
-1.198852658 3.054399967 -0.8676134944
-1.206562638 3.07720542 -0.7531327009
-1.76036644 4.496546745 -0.7581329942
-1.797662497 4.596539021 -0.600872457
-1.772423267 4.518050194 0.08401408792
-2.359061003 6.028897285 0.7897699475
-2.354198694 6.022674084 1.017501473
-2.354616165 6.026835442 1.249480128
-2.340312958 5.996407509 1.476125479
-2.329451084 5.974733353 1.706704855
-1.188182712 3.05856657 -0.8676134944
-1.197929621 3.086848259 -0.7544824481
-1.783200741 4.602128506 -0.7750279903
-1.781607628 4.602785587 -0.600872457
-2.338000298 6.037096024 0.7897699475
-2.321046114 5.999535084 1.012182593
-2.332146645 6.031356335 1.24871695
-2.314453125 5.991814613 1.472976089
-2.301627636 5.964804649 1.70152843
-1.170565724 3.044664145 -0.862437129
-1.181558371 3.076457262 -0.7508832216
-1.755810142 4.57881403 -0.7700220346
-1.765531063 4.608975887 -0.600872457
-2.313358784 6.035952568 0.7885512114
-2.29726553 6.000220776 1.010931134
-2.301254272 6.013790607 1.243374228
-2.290738821 5.992576599 1.471176505
-2.273899555 5.954755306 1.696352124
-1.152374983 3.028870106 -0.8567431569
-1.172888637 3.086028099 -0.7522329092
-1.717666984 4.521790028 -0.9319739342
-1.765044928 4.651403427 -0.7812853456
-1.749430776 4.615111351 -0.600872457
-2.283829212 6.021717548 0.7856264114
-2.274205923 6.002662182 1.00999248
-2.274687767 6.007098198 1.240321398
-2.267050505 5.993245125 1.469376922
-2.248320818 5.950006008 1.692728639
-1.143157005 3.036489725 -0.8577783704
-1.245111823 3.310809374 -0.806671083
-1.660428286 4.417494774 -0.9090768695
-1.761297345 4.690823078 -0.7869169712
-1.733311296 4.621189594 -0.600872457
-2.255822182 6.01106739 0.7831889987
-2.251850367 6.006865501 1.00936687
-2.249573469 6.003970623 1.238031626
-2.237917423 5.979221344 1.463978052
-2.226183176 5.954199791 1.691693425
-1.136596084 3.051324129 -0.8608842492
-1.262769103 3.393671036 -0.8260169029
-1.644997001 4.423264503 -0.9090768695
-1.742159843 4.689536572 -0.7856655121
-1.717168689 4.627212048 -0.600872457
-2.227914572 6.000296116 0.7807516456
-2.222626686 5.992464066 1.005612373
-2.227235794 6.008105755 1.237268448
-2.210266352 5.96872139 1.459479094
-2.203376055 5.956498623 1.690140486
-1.117254496 3.031708002 -0.8541549444
-1.253608704 3.405372858 -0.8278164864
-1.610566497 4.377388954 -0.8983915448
-1.724417686 4.691880703 -0.7850397825
-1.673641324 4.558638573 -0.5911228657
-2.207638979 6.009900093 0.780995369
-2.193531036 5.977931023 1.001857877
-2.204896212 6.01215744 1.236505151
-2.185397387 5.9654212 1.456779599
-2.177924633 5.951453209 1.686517
-1.100708961 3.019254446 -0.8494961858
-1.240381241 3.406065464 -0.8269166946
-1.660427809 4.571917057 -0.5920978189
-2.183258533 6.008241177 0.7797766924
-2.168299198 5.970319271 0.9993549585
-2.177202463 6.001361847 1.232689023
-2.163231373 5.969349861 1.455879927
-2.149622679 5.93503046 1.679787755
-1.088853121 3.019443512 -0.8484609127
-1.225114107 3.399160624 -0.8242172599
-2.155934095 5.99489975 0.7770954967
-2.146111488 5.974133492 0.998729229
-2.151983023 5.993765831 1.229636073
-2.139478445 5.965483665 1.453180432
-2.124984503 5.931585789 1.676681876
-1.08078146 3.028496265 -0.8500138521
-1.209315896 3.392402649 -0.8215178847
-1.517963767 4.260586739 -0.8709151149
-2.130336523 5.989296913 0.7753893733
-2.123261929 5.976003647 0.997790575
-2.128418446 5.993841171 1.228109598
-2.114080191 5.96006012 1.450031161
-2.103619814 5.937146187 1.67616415
-1.068918109 3.028606892 -0.848978579
-1.196170092 3.392927647 -0.8206180334
-1.499168515 4.254748344 -0.8686254025
-1.511348248 4.29409647 -0.7143313885
-1.51713717 4.31535387 -0.5565119982
-2.106124878 5.987333775 0.7741706967
-2.095838785 5.964742184 0.9946619272
-2.10488224 5.993824482 1.226583123
-2.088748932 5.954530716 1.44688189
-2.08160615 5.940806389 1.675128937
-1.054520845 3.021375656 -0.8458727002
-1.183035254 3.393402576 -0.8197182417
-1.52694273 4.382315636 -0.8938121796
-1.502277732 4.32854557 -0.2379204184
-1.493396044 4.307801723 -0.07888308167
-1.499274492 4.305325985 0.3951387405
-2.082604647 5.987148762 0.773195684
-2.066575289 5.947764874 0.9905946255
-2.081372261 5.99371624 1.225056648
-2.061563015 5.943374634 1.442382812
-2.054529905 5.929783344 1.669952631
-1.038295031 3.008602858 -0.8412139416
-1.169913411 3.393826485 -0.81881845
-1.554481387 4.511983395 -0.9193805456
-1.678027868 4.876110554 -0.810069263
-1.623776913 4.723823071 -0.608184576
-1.819405437 5.308000088 -0.09724301845
-2.061045647 5.992505074 0.7729519606
-2.043235064 5.947469234 0.9893431664
-2.053422928 5.980521202 1.220858932
-2.04080534 5.950534344 1.442382812
-2.025054693 5.91133213 1.662705541
-1.02841115 3.014037371 -0.8417316079
-1.154288411 3.386821985 -0.8161190152
-1.544420242 4.534107208 -0.9228151441
-1.657180309 4.870717525 -0.8081920743
-1.611111283 4.740739346 -0.6096470356
-1.827558279 5.380722523 -0.493450433
-1.819808364 5.364053249 -0.2946525812
-1.851860404 5.439799786 0.4990283549
-2.032444954 5.977110386 0.770027101
-2.019922256 5.947082996 0.9880917072
-2.024959803 5.965343475 1.216279507
-2.017519951 5.950238705 1.44058311
-2.001930475 5.911045074 1.660635114
-1.014178395 3.006625652 -0.8386257291
-1.139348745 3.381596565 -0.8138694763
-1.521064162 4.51714325 -0.9182356596
-1.646464229 4.895195961 -0.8113207221
-1.595816255 4.750098228 -0.610134542
-1.822715044 5.428622246 -0.4972852767
-1.810886979 5.405898094 -0.0988137275
-1.819983959 5.398622036 0.09874392301
-1.815917134 5.392775536 0.2960133255
-1.849381924 5.49532795 0.5035604835
-2.002714634 5.957825184 0.7666147351
-1.999149084 5.954098225 0.9880917072
-1.999129415 5.957485199 1.213226438
-1.99054265 5.938768387 1.436084151
-1.978830099 5.91067028 1.658564568
-1.006122112 3.017477989 -0.8406963348
-1.125689745 3.38000679 -0.8125198483
-1.4966079 4.496346474 -0.9128930569
-1.629367828 4.900912762 -0.8113207221
-1.577975512 4.751871586 -0.6096470356
-1.805011034 5.438733101 -0.4976339042
-1.822806001 5.505204678 -0.1005240604
-1.850440502 5.55291748 0.1014664918
-1.843759418 5.539313793 0.3037590384
-1.82767415 5.494187832 0.5028632879
-1.980029345 5.959127903 0.7658835649
-1.973376989 5.946042061 0.985588789
-1.978941202 5.966290474 1.213608146
-1.964898705 5.9308815 1.432484984
-1.953331947 5.902868748 1.654423475
-0.9992100596 3.031980515 -0.8438021541
-1.112664819 3.380213737 -0.811619997
-1.484583616 4.512733459 -0.9151827693
-1.617182493 4.921584606 -0.8138237596
-1.56509161 4.768667698 -0.6111094952
-1.820788026 5.551017284 -0.5073953867
-1.83417511 5.56883955 0.1016410217
-1.827531695 5.555202961 0.304282397
-1.808485746 5.500533581 0.5028632879
-1.956737041 5.958460331 0.7649086118
-1.947066545 5.936001301 0.9827729464
-1.955043316 5.963833809 1.211699963
-1.940544248 5.926592827 1.42978549
-1.93031168 5.902307034 1.65235281
-0.9904158115 3.04096055 -0.8453550339
-1.100859761 3.384076595 -0.811619997
-1.595723391 4.914047718 -0.8116335869
-1.550887108 4.781654835 -0.6120843887
-1.481934428 4.571780682 -0.4167533815
-1.492683291 4.615923882 -0.08397918195
-1.836386323 5.641761303 0.1028626934
-1.821098208 5.601435184 0.3064804971
-1.789272785 5.506813526 0.5028632879
-1.9347018 5.96147728 0.7644211054
-1.924508095 5.937123775 0.981834352
-1.928769588 5.953812599 1.208265424
-1.918046236 5.927767754 1.428435802
-1.902569175 5.886950493 1.646141291
-0.9857139587 3.062788725 -0.8505314589
-1.08427012 3.37305665 -0.8080207705
-1.467183352 4.580719948 -0.4171019793
-1.466213584 4.588724613 -0.08338580281
-1.8142308 5.64052248 0.1027230695
-1.9102422 5.95685339 0.7629587054
-1.902568102 5.940042496 0.9812085629
-1.901389599 5.939941883 1.204067707
-1.896157146 5.93071413 1.42753613
-1.880831361 5.889875412 1.645105958
-0.9855535626 3.09934926 -0.8598489165
-1.066589594 3.358248234 -0.8035217524
-1.463380456 4.610366821 -0.9319739342
-1.443775654 4.554114342 -0.7499984503
-1.881644011 5.938883305 0.7597901225
-1.877052546 5.931581974 0.9787056446
-1.878277302 5.939054966 1.202541232
-1.872506976 5.928006172 1.425286531
-1.856773973 5.885350227 1.642000079
-1.029733419 3.277859688 -0.9090245366
-1.054859757 3.361951113 -0.8035217524
-1.418422699 4.528965473 -0.7449925542
-1.429614544 4.57028532 -0.5828357935
-1.445866704 4.625082016 -0.4202395976
-1.422721148 4.556619644 -0.247968927
-1.422833562 4.562576771 -0.08272261173
-1.855566621 5.928365231 0.7575964332
-1.853976846 5.930556774 0.9774541855
-1.855779529 5.93995285 1.201396346
-1.84135294 5.901021957 1.417188287
-1.836220384 5.891795158 1.642000079
-1.034888506 3.334941149 -0.9240360856
-1.040810943 3.358166933 -0.8017221689
-1.420932174 4.607363701 -0.2504810095
-1.428898096 4.636065483 -0.08397918195
-1.423363447 4.589636326 0.08317637444
-1.424407005 4.595836639 0.2499576956
-1.429411173 4.617681026 0.4191937447
-1.833686948 5.931013107 0.7571089268
-1.826137185 5.910248756 0.9730739594
-1.835032344 5.94639492 1.201396346
-1.818448544 5.899963379 1.415388584
-1.810983896 5.87939024 1.636823773
-1.029669762 3.361599684 -0.8017221689
-1.812850118 5.933264256 0.75662148
-1.800884366 5.901471615 0.9705710411
-1.809577465 5.933668613 1.197580218
-1.796603322 5.898504257 1.413589001
-1.784826159 5.867194176 1.631647348
-0.7803325653 2.576459169 -0.7097339034
-1.013414621 3.350251436 -0.7981229424
-1.786392331 5.920551777 0.7541841269
-1.780162096 5.903629303 0.9699453115
-1.781492829 5.915511131 1.192619085
-1.77487874 5.901008129 1.412689328
-1.764248848 5.869380474 1.630612135
-0.7735487819 2.586570024 -0.7118044496
-0.9939293861 3.325586557 -0.791374445
-1.759945035 5.903614998 0.7512592077
-1.758417964 5.906020641 0.969319582
-1.763547301 5.92703104 1.193763971
-1.749750733 5.888180733 1.40819025
-1.741549969 5.868094921 1.62854147
-0.7704415321 2.607647896 -0.7169808149
-0.9745927453 3.302869081 -0.7850757837
-1.738206983 5.905912876 0.7507717013
-1.73547709 5.900449276 0.9674423933
-1.741742015 5.929383278 1.193000674
-1.724796176 5.879293919 1.404590964
-1.722085118 5.873836517 1.62854147
-0.7559246421 2.591775656 -0.7118044496
-0.9630900621 3.304211855 -0.7846258879
-1.715286255 5.900207996 0.7493093014
-1.709363461 5.887500286 0.9643136859
-1.719879866 5.927584648 1.191474319
-1.703664303 5.879365444 1.403241277
-1.696199059 5.861255169 1.623365164
-0.7436670065 2.583259821 -0.7086986303
-0.9595890641 3.337685108 -0.7918243408
-1.693647861 5.906455517 0.7493093014
-1.685599208 5.886129856 0.9630622268
-1.694900155 5.922524452 1.189184546
-1.681034446 5.881822586 1.402341604
-1.670462132 5.852572441 1.619224072
-0.7357004881 2.589556932 -0.7097339034
-1.670318961 5.90278101 0.7480906248
-1.661280751 5.878671169 0.9608721733
-1.666747808 5.90195322 1.183841944
-1.657846093 5.878276825 1.400092006
-1.646881461 5.847210407 1.616118193
-0.7250928879 2.58652854 -0.708180964
-1.644367099 5.889455318 0.7456532121
-1.640218019 5.88253212 0.9605592489
-1.64402926 5.900170326 1.182315469
-1.634703517 5.874641895 1.397842526
-1.624390244 5.845478535 1.614047647
-0.7197255492 2.604064703 -0.7123220563
-1.620634437 5.883677006 0.7441908121
-1.616007805 5.874888897 0.9583691359
-1.619271278 5.894797802 1.180025697
-1.608522296 5.863679409 1.393793344
-1.60091269 5.839933872 1.610941887
-0.7085980773 2.599106073 -0.7102515101
-1.598019838 5.885745525 0.7437033057
-1.59238863 5.869054794 0.9564919472
-1.599712968 5.904203892 1.180788994
-1.583971024 5.8542099 1.390194178
-1.576485157 5.83056736 1.606800795
-0.700022161 2.603429556 -0.7107691765
-1.578491688 5.891012669 0.7437033057
-1.568827033 5.863128185 0.9546146989
-1.57403779 5.886717319 1.176209569
-1.564047575 5.857547283 1.389744282
-1.553135037 5.8248353 1.603694916
-1.555384398 5.886890411 0.7424846292
-1.546336651 5.860928535 0.9533632398
-1.548475981 5.873191833 1.172393322
-1.543096542 5.861086845 1.389294386
-1.528864861 5.815274239 1.599553704
-1.52881968 5.869231701 0.7395597696
-1.525867224 5.866290569 0.9533632398
-1.523979068 5.867425919 1.170103669
-1.518667221 5.855385303 1.386595011
-1.507585526 5.816835403 1.59851861
-1.50631237 5.870950222 0.7390723228
-1.502886415 5.866103172 0.9524246454
-1.502513289 5.868906021 1.169340372
-1.492428184 5.837994099 1.381196141
-1.487212539 5.82606554 1.599553704
-1.483861685 5.868475437 0.7380973697
-1.47756362 5.852160931 0.949295938
-1.482016206 5.874115944 1.169340372
-1.469182849 5.831830025 1.378496647
-1.462155104 5.812486172 1.594377398
-1.462412 5.869765282 0.7376098633
-1.45528686 5.845527649 0.9474188089
-1.456767797 5.860200405 1.165524244
-1.448897243 5.832887173 1.377596974
-1.438219905 5.798552513 1.589200974
-1.300801039 5.283963203 -1.049512386
-1.439149261 5.859160423 0.7356598973
-1.436366439 5.852239609 0.9477316737
-1.43405664 5.851650715 1.162852883
-1.429548025 5.837659836 1.377596974
-1.418066859 5.799537182 1.58816576
-1.288824201 5.31518364 -1.054854989
-1.415976048 5.848465919 0.7337100506
-1.413143039 5.845697403 0.9458544254
-1.412238359 5.850895882 1.161707997
-1.405505061 5.827459335 1.373997688
-1.397812366 5.804451942 1.58816576
-0.6081783772 2.54106307 -0.688510716
-1.389926195 5.834306717 0.7312726378
-1.38896656 5.839306355 0.9439771771
-1.389878273 5.852212429 1.160944819
-1.379638672 5.813610554 1.36949861
-1.375639081 5.805776119 1.587130427
-0.6024036407 2.558318377 -0.6926518679
-1.370346189 5.847092152 0.732247591
-1.361255407 5.817430019 0.9395970702
-1.369440198 5.857028484 1.160944819
-1.356550694 5.811037064 1.367699027
-1.352595091 5.803253651 1.58506
-0.5934715271 2.560405016 -0.6926518679
-0.5905598402 2.551897764 -0.5947671533
-1.346359134 5.8363657 0.7302976847
-1.340052247 5.818296432 0.9389712811
-1.345463037 5.846467495 1.15789187
-1.335383892 5.811938763 1.366799355
-1.328011513 5.789110184 1.579883575
-0.5664847493 2.483355284 -0.6709110141
-0.5738597512 2.519742012 -0.5866689086
-1.250573158 5.504409313 -0.8873479366
-1.25346911 5.521616459 -0.6900808215
-1.254314184 5.534285545 -0.4927531779
-1.326418877 5.842965603 0.7305414081
-1.320749044 5.822708607 0.9389712811
-1.322449207 5.839639187 1.155602217
-1.315241694 5.812533855 1.365899444
-1.306253791 5.782176018 1.576777697
-0.5607861876 2.496529818 -0.6740168929
-0.5629414916 2.510221958 -0.5839695334
-1.240638494 5.527633667 0.09818544239
-1.24517858 5.552397251 0.2960133255
-1.253749132 5.599767685 0.4983311594
-1.301837564 5.824084282 0.7276165485
-1.299711823 5.819344997 0.9377198219
-1.30136621 5.836327553 1.154075623
-1.294265509 5.809255123 1.36409986
-1.287070632 5.786475658 1.576777697
-0.5604305267 2.534214735 -0.6838519573
-0.562597096 2.54823041 -0.592517674
-1.28177774 5.810507774 -1.148351431
-1.282016039 5.821246147 -0.9374069571
-1.270415425 5.778185368 -0.7212793827
-1.277431369 5.814921379 -0.5171568394
-1.278471351 5.829377174 -0.3105627
-1.274552941 5.821207047 -0.1033164561
-1.27805686 5.798463821 0.5157623291
-1.281238556 5.822553635 0.7268853784
-1.276001096 5.808411121 0.9352169037
-1.281164527 5.83677578 1.153312445
-1.268975019 5.790894032 1.358700991
-1.265211344 5.783385277 1.57470715
-0.5244849324 2.411566019 -0.6496878266
-0.5532845259 2.548274279 -0.5920677185
-1.259823918 5.807272434 -1.146824956
-1.263359189 5.833408356 -0.9386584163
-1.254434228 5.801987171 -0.7237167954
-1.264276028 5.852452278 -0.5201200843
-1.264853239 5.865042686 -0.3122374713
-1.26011622 5.852989674 -0.1038051173
-1.27177465 5.852513313 0.1038400233
-1.268209219 5.845925331 0.3112954199
-1.266673088 5.843780041 0.5194228888
-1.257545948 5.811469078 0.7249354124
-1.249042988 5.781937122 0.9302110076
-1.25746727 5.825860023 1.150259495
-1.246288776 5.783858776 1.356001616
-1.24095428 5.768879414 1.569530845
-0.5209107399 2.436051846 -0.6558995247
-0.5508958697 2.580682993 -0.5992661715
-1.237905383 5.803954124 -1.145298481
-1.240110636 5.824258327 -0.9364683628
-1.239540577 5.831573009 -0.7268853784
-1.240337133 5.845352173 -0.5190742612
-1.244785428 5.871376038 -0.3123421371
-1.24092114 5.863221169 -0.1039098352
-1.253428102 5.866694927 0.1040145531
-1.252793431 5.873757362 0.3125514686
-1.24668324 5.850113869 0.5195971727
-1.242210507 5.839123249 0.7278603315
-1.229674339 5.79012537 0.9308366776
-1.235494733 5.822531223 1.14873302
-1.226494193 5.790080547 1.356451511
-1.216011882 5.750495434 1.563319087
-0.5084058046 2.420929193 -0.651240766
-0.5482863188 2.613105774 -0.6064646244
-1.21622324 5.806530952 -1.144916892
-1.214710951 5.809429169 -0.9333396554
-1.222831607 5.85335207 -0.7290790081
-1.217890143 5.839894772 -0.5182027221
-1.219187975 5.856345177 -0.3112954199
-1.219223857 5.861644268 -0.1038051173
-1.229244232 5.853420734 0.1037004068
-1.230231881 5.868320942 0.31202811
-1.225231647 5.854644299 0.5195971727
-1.216943622 5.820106983 0.7249354124
-1.210261345 5.798250198 0.9314624667
-1.211744308 5.815488815 1.146443367
-1.206455946 5.800260067 1.357801199
-1.195935488 5.754704475 1.563319087
-0.4995611012 2.420797348 -0.6507231593
-0.533201158 2.588376284 -0.6001659632
-1.193570971 5.799202919 -1.14262712
-1.037794232 5.051259041 -0.810069263
-1.071802497 5.23532486 -0.4638174772
-1.196335077 5.848824978 -0.3106673658
-1.197732925 5.866073132 -0.1038051173
-1.206569195 5.852011681 0.1035956889
-1.205092669 5.855183125 0.3110860586
-1.203983426 5.854982376 0.5192485452
-1.192411661 5.808971405 0.7229855657
-1.187416792 5.794906616 0.9302110076
-1.19064796 5.815836906 1.145680189
-1.182301283 5.785342693 1.353302121
-1.175603509 5.762835979 1.56435442
-0.4895350933 2.416931629 -0.6491702199
-0.5164317489 2.552021503 -0.5911679268
-1.170754313 5.795841217 -1.141100645
-1.02122438 5.064711094 -0.8116335869
-1.029591441 5.110797405 -0.6349958777
-1.032309413 5.133556843 -0.4544046223
-1.174105287 5.849254131 -0.3104580343
-1.173708797 5.852572441 -0.103490971
-1.18454802 5.848348141 0.1034560725
-1.180291772 5.837821007 0.3099346757
-1.182122827 5.857402802 0.5190742612
-1.170556188 5.805314541 0.7220105529
-1.164841294 5.787396908 0.9283337593
-1.168551683 5.816311836 1.144916892
-1.158022165 5.774352551 1.349702954
-1.154725194 5.763114929 1.563319087
-0.511836946 2.570832491 -0.5952171087
-1.007732391 5.075469017 -0.8128851056
-1.012368679 5.108166218 -0.634264648
-1.017724395 5.144592762 -0.4551019073
-1.152242422 5.835278988 -0.3095159829
-1.151834369 5.838573456 -0.1031768322
-1.166951656 5.855962276 0.103525877
-1.16038835 5.833664417 0.3095159829
-1.163577199 5.855021 0.51855129
-1.152313709 5.808963299 0.7220105529
-1.143201947 5.773587704 0.9255179167
-1.149507761 5.816102982 1.144153595
-1.13937521 5.770115376 1.347903371
-1.132874012 5.74776125 1.558142781
-0.4705270827 2.40495801 -0.6450291276
-0.5016644597 2.568865538 -0.5943172574
-0.9891242385 5.079128265 -0.8128851056
-0.996291995 5.125482082 -0.6359708309
-0.9977243543 5.142420292 -0.4545789659
-1.131984949 5.84534502 -0.3098300099
-1.130048752 5.840792656 -0.1031419262
-1.142407537 5.844501019 0.1032466441
-1.139382839 5.839838028 0.3096206486
-1.137912273 5.83773613 0.5166338682
-1.129878998 5.807301998 0.7212793827
-1.120904446 5.771921635 0.9245793223
-1.125195503 5.804858208 1.141100645
-1.118958473 5.778079033 1.348803163
-1.108134627 5.732907295 1.552966356
-0.4613458514 2.404769182 -0.6445114613
-0.4885801673 2.551547527 -0.5898182392
-0.4953379631 2.589278936 -0.5041801333
-0.9679069519 5.069137573 -0.8106950521
-0.9763857722 5.123249531 -0.6352396011
-0.9790212512 5.141957283 -0.4542303383
-1.109337926 5.837488174 -0.3092019856
-1.110122561 5.852754116 -0.1032815427
-1.118344903 5.834900856 0.1030023098
-1.118723035 5.847898006 0.3098300099
-1.114639521 5.832082748 0.5157623291
-1.105984092 5.797754288 0.7195731997
-1.098262548 5.768229008 0.9233278632
-1.101261139 5.789462566 1.137284517
-1.097047687 5.778312683 1.347903371
-1.086396933 5.733133316 1.551931024
-0.4586659074 2.436741352 -0.6527937055
-0.4767926931 2.537915468 -0.5862190723
-0.4928147197 2.625724316 -0.5110492706
-0.9498437047 5.070542812 -0.8103821278
-0.9570357203 5.118821621 -0.634264648
-0.9617992043 5.149260521 -0.4545789659
-1.087122798 5.83150816 -0.3086785972
-1.0878582 5.846763611 -0.1031070277
-1.095382214 5.825012684 0.1027579755
-1.095722675 5.838027477 0.3090973198
-1.095007658 5.839854717 0.5161109567
-1.084277153 5.793775082 0.7185982466
-1.080660939 5.785619736 0.9255179167
-1.079603314 5.785552025 1.135758042
-1.074731231 5.770611763 1.345203996
-1.066376448 5.73689127 1.551931024
-0.4547160864 2.463024378 -0.6595230103
-0.4665176272 2.531898499 -0.5844194293
-0.9335648417 5.081599236 -0.8116335869
-0.9379067421 5.110251904 -0.6328021884
-0.9438176751 5.15258646 -0.4545789659
-1.064965844 5.825443268 -0.3081552684
-1.066665769 5.840503693 -0.1029324979
-1.074683547 5.826832771 0.1027230695
-1.071288586 5.814129829 0.30763188
-1.073539138 5.837761879 0.5155879855
-1.061178207 5.781905174 0.7166483402
-1.058261395 5.771685123 0.9227020741
-1.059399962 5.78928566 1.135758042
-1.052083254 5.754974365 1.340704918
-1.047347546 5.740395546 1.551931024
-0.4558458328 2.515842676 -0.6734992266
-0.4595065713 2.541102171 -0.5862190723
-0.4634131491 2.565262556 -0.4984559119
-0.9177609682 5.090499401 -0.8125721812
-0.9209540486 5.113334179 -0.6328021884
-0.9246120453 5.143922329 -0.453533113
-1.046701312 5.834840298 -0.3084692657
-1.045176744 5.832198143 -0.1027230695
-1.055353522 5.830365181 0.1027230695
-1.052003503 5.817649841 0.30763188
-1.052757502 5.833447456 0.51489079
-1.041997313 5.785392761 0.7166483402
-1.034919381 5.751832962 0.9189476967
-1.039500594 5.78890276 1.134994745
-1.03299439 5.758431435 1.340704918
-1.026261806 5.732428074 1.548825383
-0.4603495002 2.589617491 -0.693169415
-0.4517575502 2.546449661 -0.5871188641
-0.4545618296 2.564852238 -0.4980743229
-0.9005297422 5.091569424 -0.812259376
-0.9024104476 5.112607479 -0.632314682
-0.9045779705 5.135344505 -0.4524872303
-1.024229646 5.820576191 -0.3075272143
-1.023772955 5.829902172 -0.1026183516
-1.034616232 5.825957298 0.1025834456
-1.033782125 5.833086491 0.3082599342
-1.029237509 5.813364029 0.5127990246
-1.022810459 5.788815498 0.7166483402
-1.013461828 5.747629166 0.9176962376
-1.018258572 5.780715942 1.132705092
-1.010861516 5.750486851 1.338005543
-1.003242612 5.718850136 1.544166565
-0.447542876 2.572255135 -0.6879930496
-0.4401969016 2.532651186 -0.5835196376
-0.4468350708 2.576172829 -0.4999823868
-0.8784942627 5.075371742 -0.8091306686
-0.884559691 5.115725994 -0.632314682
-0.8880006075 5.146325111 -0.4531844556
-1.002551675 5.822322845 -0.3074225485
-1.002400994 5.827528477 -0.1025136411
-1.01187253 5.815742493 0.1023391187
-1.013413072 5.836659908 0.3082599342
-1.007244706 5.81317091 0.512450397
-1.000564575 5.780614853 0.7151858807
-0.994066298 5.75502491 0.9183219075
-0.993727982 5.765062332 1.128888845
-0.9891187549 5.750311375 1.337105632
-0.9813121557 5.710893154 1.541060686
-0.4395353198 2.579514742 -0.689545989
-0.429930687 2.528484344 -0.58216995
-0.4378403425 2.577716827 -0.4999823868
-0.8587905765 5.066721916 -0.8072534204
-0.8648092747 5.113062859 -0.6315835714
-0.868702054 5.141534805 -0.4524872303
-0.9802280664 5.813970089 -0.3067945242
-0.9807229638 5.823104382 -0.1023740172
-0.9885351658 5.807584286 0.1021296829
-0.9880096316 5.810626984 0.3066898584
-0.9869452119 5.816651821 0.512450397
-0.9747325778 5.75684166 0.7117735744
-0.9733110666 5.754564285 0.9176962376
-0.9735993147 5.768496037 1.128888845
-0.9677442908 5.746042728 1.335306048
-0.9620137215 5.718093872 1.542096019
-0.4215440452 2.529896021 -0.58216995
-0.4262630343 2.5637362 -0.4969294369
-0.8442505002 5.083182335 -0.8094435334
-0.8475254178 5.1139431 -0.6313397884
-0.8510755897 5.146501541 -0.4526615143
-0.9599674344 5.811276436 -0.3064804971
-0.958765626 5.816627026 -0.1021994948
-0.9686143398 5.806886196 0.1020598784
-0.9654265046 5.800249577 0.3059571683
-0.9659836292 5.816130161 0.5121017694
-0.9556352496 5.760042667 0.7117735744
-0.9516060352 5.748182297 0.9161318541
-0.9538227916 5.767819405 1.128125668
-0.9448782802 5.726147652 1.329907298
-0.9420464635 5.721417427 1.542096019
-0.4219657183 2.582447052 -0.689545989
-0.4139653444 2.539045334 -0.5839695334
-0.4161804616 2.55544734 -0.495021373
-0.8261860609 5.084148884 -0.8091306686
-0.8283970356 5.109033108 -0.6303648353
-0.8333684802 5.1453619 -0.4523129165
-0.9393562675 5.812621117 -0.3063758314
-0.9362260103 5.806118965 -0.1019551679
-0.9476954937 5.806283951 0.1019900665
-0.9451724291 5.803584099 0.3059571683
-0.9454128146 5.811435223 0.5114045143
-0.9348854423 5.759424686 0.711286068
-0.9290099144 5.735868931 0.9136289358
-0.9330548644 5.767237663 1.12736249
-0.9242646694 5.725563049 1.329007506
-0.9202245474 5.713227272 1.53899014
-0.4175235629 2.612518549 -0.6973105669
-0.4060198367 2.546248198 -0.585319221
-0.8071925044 5.079197884 -0.8078792095
-0.8111810088 5.115814686 -0.6308523417
-0.8138429523 5.138400078 -0.4514413476
-0.9184384346 5.811919212 -0.3061664701
-0.9150173068 5.803425789 -0.10185045
-0.9261595011 5.801658154 0.10185045
-0.9242840409 5.802902699 0.305747807
-0.9219892025 5.795023441 0.5096614361
-0.9166468382 5.774415493 0.7127485275
-0.9089808464 5.739077091 0.9136289358
-0.9116945267 5.762702465 1.125836015
-0.9054868817 5.73645401 1.33080709
-0.8978728652 5.701137543 1.534849048
-0.4084009528 2.613960266 -0.6973105669
-0.3977301419 2.551501036 -0.5862190723
-0.7885491848 5.076128483 -0.8069406152
-0.7936211824 5.120577335 -0.631096065
-0.7947009802 5.139379501 -0.4512670636
-0.896009922 5.801272392 -0.30543378
-0.8950626254 5.808560371 -0.101885356
-0.9040507674 5.793001175 0.1016410217
-0.9040209651 5.806093693 0.305747807
-0.9008351564 5.792300701 0.5091384649
-0.8952658176 5.769733429 0.7117735744
-0.8883389831 5.738310814 0.9130031466
-0.8885718584 5.74644804 1.122019768
-0.8848643899 5.735728264 1.329907298
-0.8767896891 5.69659996 1.532778502
-0.3883344233 2.546687603 -0.6786755919
-0.3894074857 2.556726933 -0.5871188641
-0.7641057372 5.028652668 -0.9804394841
-0.768753469 5.071173191 -0.8056891561
-0.7748541832 5.117427349 -0.6303648353
-0.7776477337 5.148032665 -0.4517899752
-0.872658968 5.790692806 -0.3047010899
-0.8744822741 5.809672356 -0.10185045
-0.8832249641 5.792167187 0.1015712097
-0.8819445372 5.797367096 0.3051197529
-0.8796004653 5.795563221 0.5091384649
-0.8697631955 5.737495899 0.7073862553
-0.8677108288 5.73747015 0.9123774171
-0.8680911064 5.753548622 1.122782946
-0.8620941043 5.727370739 1.327207923
-0.8569033742 5.699625492 1.532778502
-0.3654990792 2.454399586 -0.6533113718
-0.3846163154 2.588978052 -0.5943172574
-0.7445294261 5.017695427 -0.9777681231
-0.7524943948 5.083595753 -0.8072534204
-0.7540589571 5.106486797 -0.6286586523
-0.7596740723 5.150715828 -0.4517899752
-0.8515666723 5.787775517 -0.3043870628
-0.8536171913 5.80873251 -0.1017806381
-0.8616912961 5.793388367 0.1015363038
-0.85876894 5.78065443 0.3040730357
-0.8599475026 5.802540302 0.5094871521
-0.8481490612 5.736717701 0.7068988085
-0.8470993638 5.736556053 0.9117516875
-0.8480007052 5.756544113 1.122782946
-0.8392645121 5.711064339 1.322708845
-0.8370012045 5.702581882 1.532778502
-0.3569299281 2.455660343 -0.6533113718
-0.3833085001 2.640380859 -0.6060147285
-0.7250412703 5.006662846 -0.9750968218
-0.733936727 5.074332237 -0.8053762317
-0.7376891375 5.11288929 -0.6291461587
-0.740837276 5.14741993 -0.4512670636
-0.8323702216 5.790567875 -0.3043870628
-0.8304957747 5.791882038 -0.1014315933
-0.8424788713 5.796213627 0.1015363038
-0.8388704062 5.785593033 0.3041777015
-0.8379803896 5.793674946 0.5084412694
-0.8302544355 5.747357845 0.7078737617
-0.8231293559 5.712105274 0.9073715806
-0.8275066018 5.749608517 1.120875001
-0.8203223944 5.713816166 1.322708845
-0.8154457211 5.693995476 1.529672623
-0.3762747049 2.657138824 -0.609613955
-0.7092580199 5.014871597 -0.9762417078
-0.7167701721 5.080775738 -0.8060019612
-0.7192851305 5.11150074 -0.6286586523
-0.721758306 5.142082691 -0.4505698085
-0.8118762374 5.791460037 -0.304282397
-0.8102717996 5.794745922 -0.1014315933
-0.8211168051 5.791199684 0.1013966873
-0.8181116581 5.784531116 0.30396837
-0.81597507 5.776694298 0.5066981316
-0.8101885319 5.750220776 0.7078737617
-0.8026340008 5.711031437 0.9067457914
-0.8071600795 5.750517368 1.120493412
-0.7998304963 5.712784767 1.321809053
-0.7939630151 5.685326576 1.526566744
-0.340569824 2.463833094 -0.6548642516
-0.3659318388 2.650714397 -0.6078143716
-0.6914071441 5.021327019 -0.9770048857
-0.6959943175 5.067712784 -0.803499043
-0.7025159001 5.121847153 -0.6296336055
-0.7038057446 5.144570827 -0.4505698085
-0.789565146 5.786480904 -0.3038637042
-0.7889633775 5.789613247 -0.1012919694
-0.7987046838 5.778183937 0.101117447
-0.7984617352 5.791308403 0.3041777015
-0.794798255 5.77964592 0.5066981316
-0.7879520059 5.737280369 0.7059237957
-0.783231318 5.717712879 0.9073715806
-0.7839502096 5.737875938 1.117440343
-0.7788880467 5.715677738 1.321809053
-0.7735902071 5.684235573 1.52553153
-0.3317101002 2.463092566 -0.6543466449
-0.3543974161 2.638517857 -0.6046649814
-0.6749203205 5.031493187 -0.978531301
-0.6785610318 5.072069645 -0.8038119078
-0.6826896071 5.116517067 -0.6286586523
-0.6863684058 5.150945663 -0.4509184062
-0.7669922709 5.771383286 -0.3029216528
-0.7695367932 5.798279285 -0.1013966873
-0.7769894004 5.777108669 0.1010476425
-0.7771763802 5.786142349 0.3037590384
-0.7746171355 5.782385349 0.5066981316
-0.7648139596 5.724389553 0.703973949
-0.7637889385 5.724328041 0.9079972506
-0.7639178038 5.740576744 1.117440343
-0.7584176064 5.714498997 1.320909262
-0.7532372475 5.683071136 1.524496198
-0.3241153657 2.471897125 -0.6564171314
-0.3474161923 2.653204679 -0.6078143716
-0.655828774 5.022138119 -0.9762417078
-0.6622471213 5.078208923 -0.8044375777
-0.6646959186 5.110878944 -0.6276836991
-0.6691539884 5.159237385 -0.4514413476
-0.7468216419 5.765972614 -0.3025029898
-0.7482689023 5.792996883 -0.1012570709
-0.7588685751 5.787583828 0.101187259
-0.7538678646 5.765055656 0.3025029898
-0.7533958554 5.777151108 0.5060008764
-0.7453154325 5.722956181 0.7034864426
-0.7417658567 5.711288452 0.9054943323
-0.7448782921 5.743078232 1.117440343
-0.7364621162 5.693790913 1.315510392
-0.734382093 5.693329334 1.526566744
-0.317874223 2.488288641 -0.6605582833
-0.3324890733 2.609939575 -0.597466588
-0.6374354362 5.010652065 -0.9735702872
-0.6445178986 5.080489635 -0.8044375777
-0.6468501687 5.113167763 -0.6276836991
-0.6500425935 5.145615578 -0.4500468671
-0.7266913056 5.768544197 -0.3025029898
-0.7257982492 5.777716637 -0.1009429246
-0.7376505733 5.782263279 0.1010476425
-0.7337380052 5.767652035 0.3025029898
-0.7337357998 5.77566433 0.5056522489
-0.7253324389 5.725523472 0.7034864426
-0.7203409672 5.702083588 0.903617084
-0.7248251438 5.745643616 1.117440343
-0.7170702219 5.700193405 1.316410184
-0.7130627036 5.684357166 1.523461103
-0.3049010634 2.454874754 -0.651240766
-0.3238562346 2.614952087 -0.5983663797
-0.6213878989 5.024537086 -0.9758599997
-0.625811398 5.074866772 -0.8031861186
-0.6294835806 5.119335175 -0.6281711459
-0.6301332116 5.132032871 -0.4486523569
-0.7075229883 5.77897501 -0.3029216528
-0.7046550512 5.772275925 -0.1008033082
-0.716476202 5.776865482 0.1009080261
-0.7136018276 5.770178318 0.3025029898
-0.7116153836 5.76237154 0.5042577386
-0.7053434253 5.728020191 0.7034864426
-0.6994680166 5.696721077 0.9023656249
-0.7038102746 5.740344524 1.115913868
-0.6966940761 5.698793411 1.315510392
-0.6904123425 5.663799763 1.517249346
-0.3140286505 2.610262156 -0.5970166922
-0.6040780544 5.028625488 -0.9762417078
-0.607626617 5.073097706 -0.8025604486
-0.6116085052 5.121501446 -0.6281711459
-0.6136341691 5.146070957 -0.4496982396
-0.6859299541 5.769509792 -0.3022936285
-0.6849736571 5.778671265 -0.1008731127
-0.6939132214 5.759477615 0.1005589664
-0.6939306259 5.776599407 0.3027123213
-0.6910204887 5.760864258 0.5039091706
-0.6844002008 5.722563267 0.7025114894
-0.6800501943 5.703050137 0.9029913545
-0.6819099188 5.727169991 1.112860918
-0.6758823395 5.693449974 1.313710809
-0.6706362963 5.666175842 1.517249346
-0.3041600287 2.597011566 -0.6890283823
-0.3028804362 2.593922138 -0.5929675698
-0.5878839493 5.042403698 -0.978531301
-0.5896850824 5.073225498 -0.8022475243
-0.5932714939 5.119661331 -0.6276836991
-0.5968109369 5.158077717 -0.4505698085
-0.6646432877 5.761948109 -0.3017702699
-0.6652535796 5.785000801 -0.1009429246
-0.6733413339 5.757892132 0.1004891619
-0.6719104648 5.76311636 0.3018749356
-0.6709083319 5.763241291 0.5039091706
-0.6625882983 5.709143162 0.700561583
-0.6596831083 5.701464653 0.9023656249
-0.6614620686 5.725615501 1.11209774
-0.6551109552 5.688030243 1.311911106
-0.6508547664 5.668481827 1.517249346
-0.3003507257 2.640233994 -0.7004163861
-0.2977896929 2.625893593 -0.6001659632
-0.5722649693 5.054079056 -0.9804394841
-0.5737433434 5.083004951 -0.803499043
-0.5749601126 5.109764576 -0.6262212992
-0.5790341496 5.154088974 -0.4500468671
-0.6441998482 5.752212048 -0.3011422455
-0.6440705657 5.76928854 -0.1006287783
-0.6551476717 5.768041134 0.1006287783
-0.6509990692 5.749435902 0.30103755
-0.6517941952 5.765434265 0.5039091706
-0.6436535716 5.711308956 0.700561583
-0.6394479275 5.691843033 0.9004884362
-0.642472744 5.727777481 1.11209774
-0.6345111728 5.674678326 1.308311939
-0.632054925 5.670608997 1.517249346
-0.2907087505 2.637426138 -0.6993811727
-0.4967718422 4.521384239 -1.040170312
-0.5899427533 5.378051281 -1.043406487
-0.5568591952 5.092831135 -0.8047505021
-0.5564736128 5.105820656 -0.6254900694
-0.5612536073 5.158059597 -0.4502211809
-0.6241154075 5.754426003 -0.3011422455
-0.62285465 5.761561394 -0.1004542559
-0.6345704198 5.766317368 0.1005589664
-0.6302736998 5.745717525 0.3007235527
-0.6307960153 5.75975275 0.5032119155
-0.6237146854 5.713520527 0.700561583
-0.6182922125 5.682258129 0.8986111879
-0.6224763989 5.72998476 1.11209774
-0.6142778993 5.672983646 1.307412148
-0.6101824641 5.65357399 1.512072921
-0.2786306143 2.611531496 -0.6921342015
-0.4809850454 4.523090839 -1.040170312
-0.5724083781 5.391791821 -1.045696139
-0.5380378366 5.084921837 -0.8031861186
-0.5398977399 5.119576454 -0.6269524693
-0.5400548577 5.13828516 -0.4483037591
-0.6036092639 5.752596378 -0.3009328842
-0.6025297046 5.761711597 -0.10041935
-0.613168776 5.756567001 0.1003495455
-0.6108445525 5.753840446 0.30103755
-0.6085880995 5.742105961 0.5014687777
-0.602722764 5.705792427 0.6993428469
-0.5974234343 5.67455864 0.897046864
-0.6008279324 5.716503143 1.10904479
-0.5948817134 5.678969383 1.308311939
-0.5896402001 5.647983551 1.510002494
-0.2716304064 2.637516975 -0.6988635063
-0.4683811963 4.555758953 -1.047368765
-0.5538445115 5.405571938 -1.047985911
-0.5177929401 5.071138382 -0.8006832004
-0.5234314799 5.135253906 -0.6286586523
-0.5227208138 5.146085739 -0.4488267004
-0.5827205181 5.756756783 -0.30103755
-0.581610918 5.755821228 -0.1002797335
-0.5914304256 5.742758751 0.1000702977
-0.5907601118 5.755937576 0.30103755
-0.5871312618 5.740334034 0.5011201501
-0.5828061104 5.707861423 0.6993428469
-0.5780102611 5.680540085 0.8976725936
-0.5774964094 5.695227623 1.104465365
-0.574061811 5.681111813 1.308311939
-0.5687593818 5.638474941 1.506896615
-0.4471201003 4.495455742 -1.198901892
-0.4486062229 4.526416779 -1.040170312
-0.5357438326 5.415286541 -1.049512386
-0.500086844 5.072915077 -0.8006832004
-0.5032490492 5.123309135 -0.6269524693
-0.5055331588 5.155810833 -0.4495239258
-0.5602928996 5.734902382 -0.2997815013
-0.5612844825 5.76587534 -0.10041935
-0.5703794956 5.744887829 0.1000702977
-0.5684756041 5.74613905 0.3004095256
-0.5676788688 5.748297215 0.5016431212
-0.5599336028 5.690204144 0.6969054937
-0.5573801994 5.684586048 0.8979854584
-0.5583763123 5.705024719 1.10599184
-0.5538504124 5.679201603 1.307412148
-0.5480907559 5.640521526 1.506896615
-0.4332733154 4.516219139 -1.204078317
-0.5166549087 5.415169239 -1.049130797
-0.4827485085 5.078562737 -0.8013089299
-0.4849866331 5.121081829 -0.6264650226
-0.4869690835 5.151593208 -0.4490009844
-0.5406439304 5.740800381 -0.2999908328
-0.5396611691 5.751872063 -0.1001401171
-0.5499398112 5.742862701 0.1000004932
-0.5461420417 5.724229813 0.299153477
-0.5476085544 5.750243664 0.5016431212
-0.5398814082 5.690147877 0.6966617703
-0.5366029739 5.676664352 0.8964211345
-0.5380910039 5.703029633 1.105228543
-0.5321976542 5.661698818 1.30291307
-0.5280365944 5.638553143 1.505861282
-0.4164382517 4.50616169 -1.200972438
-0.4913141429 5.336700439 -1.227329612
-0.4963107407 5.401299953 -1.046077847
-0.4650191665 5.080216885 -0.8013089299
-0.4663853943 5.114836216 -0.6254900694
-0.4697070718 5.161198139 -0.4496982396
-0.5198786855 5.734696388 -0.2995721698
-0.5195042491 5.741680145 -0.09993068129
-0.5295240283 5.740764618 0.09993068129
-0.5278875828 5.73396492 0.2995721698
-0.5268064737 5.74418354 0.5009458661
-0.5200170279 5.691998005 0.6966617703
-0.5163388848 5.662674904 0.8939181566
-0.518181622 5.704873085 1.105228543
-0.5120813847 5.659640312 1.302013397
-0.5089892149 5.636425972 1.504826069
-0.4019046426 4.521057606 -1.204595923
-0.4712018073 5.311124802 -1.221030951
-0.4997480512 5.655275822 -1.095306516
-0.4478214979 5.077795982 -0.8006832004
-0.450119704 5.12426424 -0.6264650226
-0.4494294524 5.137003899 -0.4474321902
-0.5008627772 5.736388683 -0.2995721698
-0.4989376664 5.737482071 -0.09982597083
-0.5101310611 5.738505363 0.09986086935
-0.5071629882 5.727814674 0.299153477
-0.5053504705 5.730110168 0.499551326
-0.5013112426 5.695668221 0.6969054937
-0.4962255061 5.660507202 0.8932924271
-0.4982325733 5.694826126 1.10293889
-0.4933089316 5.661307812 1.302013397
-0.4876395464 5.618921757 1.499649644
-0.3870735168 4.524291039 -1.205113649
-0.4543151557 5.332154274 -1.225530028
-0.4823208451 5.672551632 -1.098359466
-0.4284283221 5.059644699 -0.7975545526
-0.4322285652 5.125804424 -0.6264650226
-0.4327272177 5.142436504 -0.4477808177
-0.4798337519 5.726160049 -0.2989441156
-0.4784094095 5.733210087 -0.09972125292
-0.4890746474 5.728296757 0.09965144843
-0.4869980216 5.727559566 0.2990487814
-0.4860102534 5.727784157 0.4992026985
-0.4804249108 5.685514927 0.6954430342
-0.4781212211 5.681889057 0.8964211345
-0.4770377576 5.680879116 1.099885941
-0.4735454917 5.662995338 1.302013397
-0.4683446288 5.624440193 1.500684857
-0.3712772429 4.525614738 -1.205113649
-0.4325276315 5.29486227 -1.216531992
-0.4629939795 5.680071354 -1.099504352
-0.4511074722 5.582369804 -0.6825249195
-0.4341515303 5.384215355 -0.4688725173
-0.4584028125 5.709882259 -0.2980020642
-0.459348321 5.746805668 -0.09993068129
-0.4690746665 5.729969501 0.09965144843
-0.4663515687 5.721262932 0.2986300886
-0.466335088 5.733417034 0.499551326
-0.4597731531 5.677264214 0.6942243576
-0.4570158422 5.667770863 0.8939181566
-0.4572033882 5.682509899 1.099885941
-0.4531538188 5.656843662 1.300213814
-0.4484001696 5.622189522 1.499649644
-0.3565393686 4.540363789 -1.208737016
-0.38108325 4.87474966 -1.11890316
-0.3809816241 4.928798676 -0.6018473506
-0.441244036 5.721414566 -0.4983311594
-0.4390815496 5.719413757 -0.2984207869
-0.4377602041 5.728435516 -0.09958163649
-0.4487592578 5.727584362 0.09958163649
-0.4448258877 5.702942848 0.2975833714
-0.4463200867 5.735010147 0.499551326
-0.4390342236 5.666959763 0.6927619576
-0.4373792112 5.671301365 0.894231081
-0.4367636442 5.676240921 1.098359466
-0.4322128594 5.642846107 1.296614528
-0.4281859994 5.616014481 1.497579098
-0.339820087 4.530022144 -1.205631256
-0.3649418652 4.94593668 -0.6037973166
-0.4200982153 5.707024097 -0.4969366491
-0.4185291231 5.712943554 -0.2980020642
-0.4170384407 5.719955921 -0.09940710664
-0.4287620187 5.729115963 0.09958163649
-0.4249173999 5.704461098 0.2975833714
-0.4258539677 5.730572224 0.4990283549
-0.4198370278 5.676376343 0.6937369108
-0.4159832895 5.651123047 0.8907894492
-0.4175235331 5.685563087 1.099885941
-0.4125115275 5.644320488 1.296614528
-0.408578366 5.617475033 1.497579098
-0.3234529793 4.52347374 -1.20356071
-0.3505054414 4.962668896 -0.7812853456
-0.3988665938 5.718354702 -0.2982114255
-0.3963757753 5.711402893 -0.09923259169
-0.4084804058 5.726588249 0.09951182455
-0.4050009847 5.705909729 0.2975833714
-0.4040225446 5.706186771 0.4967623055
-0.4004372358 5.683747768 0.694468081
-0.3966703117 5.658452511 0.8917280436
-0.3960298002 5.663484097 1.095306516
-0.3928078115 5.645726204 1.296614528
-0.3876316249 5.59959507 1.492402673
-0.3084483743 4.536138535 -1.20666647
-0.3288191557 4.924594879 -0.600872457
-0.3320554793 4.986190796 -0.4334872663
-0.3781097233 5.707754612 -0.2975833714
-0.3767010272 5.716742516 -0.09930240363
-0.3867277801 5.70204258 0.09905806184
-0.3853513002 5.711274624 0.2977927327
