# .PCD v0.7 - Point Cloud Data file format
VERSION 0.7
FIELDS x y z
SIZE 4 4 4
TYPE F F F
COUNT 1 1 1
WIDTH 1299
HEIGHT 1
VIEWPOINT 0 0 0 1 0 0 0
POINTS 1299
DATA ascii
1.486308694 2.468751907 -0.5518824458
1.482831359 2.461029291 -0.4483927488
2.990606785 4.961503506 -0.7061675787
2.821027994 4.676469803 -0.4741018713
3.002866745 4.973986149 -0.3022936285
2.789215326 4.618264198 -0.09347329289
3.032667875 5.041228771 0.1019900665
3.036083698 5.044913292 0.3063758314
3.041852236 5.050508022 0.5121017694
3.016226292 5.004006863 0.7122610211
3.016827822 5.003029823 0.9186348319
3.020605564 5.005343437 1.128125668
3.009547949 4.985053062 1.334406376
2.995561361 4.95797348 1.540543079
1.470027447 2.426347733 -0.7485567927
1.47627449 2.434743166 -0.6474057436
1.495505929 2.46548748 -0.5522640347
1.498158216 2.46791935 -0.4505828023
3.004983902 4.94816494 -0.7056800723
2.843760729 4.679009438 -0.4753220379
3.019345999 4.963999748 -0.3022936285
2.804513693 4.608990192 -0.09347329289
3.056625366 5.043114185 0.1022344008
3.045547009 5.022862911 0.3056431413
3.061685801 5.045501709 0.5126247406
3.034865618 4.997369766 0.7127485275
3.029300451 4.986244202 0.9173833132
3.037188768 4.995298386 1.128125668
3.024038553 4.971714497 1.333506465
3.011987448 4.948011875 1.540543079
1.481770396 2.423723936 -0.7495920658
1.49213922 2.438770771 -0.6501051784
1.505390406 2.459464788 -0.5522640347
1.519403696 2.480414391 -0.4540243745
3.028973103 4.942831993 -0.7066550255
2.865646362 4.672650814 -0.4758449793
3.047605038 4.965457916 -0.3031309843
2.820898771 4.594286919 -0.09340348095
3.076843739 5.030804157 0.1022344008
3.065686703 5.010596275 0.3056431413
3.078792572 5.028074265 0.5121017694
3.054903269 4.985146046 0.7127485275
3.046193361 4.968991756 0.9164447188
3.06645751 4.998125553 1.131560206
3.043970585 4.959536076 1.333506465
3.037893772 4.945757389 1.543648958
1.486760855 2.41386199 -0.7480391264
1.503286481 2.438785791 -0.6514548659
1.519721508 2.464485168 -0.5545537472
1.529696107 2.478723764 -0.454650104
3.053688765 4.946274281 -0.7086049914
2.879032612 4.659731388 -0.4754963219
3.067204475 4.960421085 -0.3034450114
2.844535589 4.598512173 -0.09368272871
3.099802494 5.030788422 0.1024438292
3.095911026 5.022504807 0.3070038855
3.105908632 5.034794331 0.5138449073
3.089144468 5.003704071 0.7168920636
3.074071884 4.977351665 0.919886291
3.088175535 4.996280193 1.13346839
3.070647717 4.965990067 1.338005543
3.0563097 4.938941956 1.544684172
1.501886725 2.420409203 -0.7516625524
1.508280873 2.428821087 -0.6501051784
1.53410244 2.469437599 -0.5568434596
1.53582108 2.470282793 -0.4540243745
3.077227116 4.945697784 -0.7100673914
2.901600599 4.659800053 -0.4765422046
3.087862253 4.957003117 -0.3038637042
2.866918564 4.598735332 -0.09389214963
3.118578911 5.023879051 0.1025136411
3.119748831 5.021845341 0.30763188
3.120485783 5.021081924 0.5134962797
3.107818604 4.996802807 0.71737957
3.098735332 4.978328705 0.9220764041
3.104727983 4.986011028 1.13346839
3.098271608 4.971779346 1.342504501
3.077619314 4.934800625 1.546754718
1.507674932 2.409974575 -0.7501096129
1.522952437 2.433453083 -0.6528045535
1.548352957 2.472117662 -0.5587515235
1.551158905 2.474679708 -0.4559015632
3.098691702 4.941652298 -0.7110423446
2.924199581 4.659770966 -0.4775880873
3.107073545 4.947342873 -0.30396837
2.885078192 4.592088699 -0.09396196157
3.140340567 5.019742966 0.102653265
3.139375925 5.014312744 0.3078412414
3.147332668 5.023117542 0.51489079
3.123129845 4.982562542 0.7168920636
3.127642393 4.985888004 0.9255179167
3.127156019 4.981249809 1.134994745
3.118545532 4.963691235 1.343404412
3.103051662 4.937112331 1.55089581
1.524318814 2.417771578 -0.7542507648
1.532901645 2.429502487 -0.6532544494
1.560114861 2.471679688 -0.5598964095
1.570338011 2.48595047 -0.4590302706
3.108295918 4.9168396 -0.7090924382
2.940448761 4.649534702 -0.4775880873
3.127527237 4.941530704 -0.304282397
2.912593126 4.598374367 -0.09431100637
3.169383764 5.025113583 0.1030023098
3.155599594 4.99939537 0.30763188
3.175483704 5.028947353 0.5166338682
3.147732258 4.981151581 0.7183545232
3.13850379 4.962705612 0.9233278632
3.151873589 4.981915951 1.137666106
3.135854244 4.952774525 1.343404412
3.125261307 4.932233334 1.552966356
1.53482163 2.415696621 -0.7552860379
1.552874207 2.442226171 -0.6582033634
1.568733931 2.466218233 -0.5598964095
1.589613199 2.497117996 -0.4621589482
2.957730532 4.640922546 -0.4777623713
2.924320221 4.581439495 -0.09417138994
3.189052343 5.017394066 0.1030721143
3.177320957 4.995090008 0.3080506027
3.195159197 5.021193504 0.5169824958
3.171499968 4.98017931 0.7198169231
3.158991575 4.956717968 0.9242664576
3.177684784 4.984129906 1.140719056
3.157315493 4.94836998 1.345203996
3.146619081 4.927806377 1.555036902
1.547412157 2.41683197 -0.7573565841
1.570852399 2.451557636 -0.6622524858
1.583690405 2.470643997 -0.5621861219
1.600454211 2.494879246 -0.4627847075
2.972836971 4.628892899 -0.4775880873
3.163029432 4.921255589 -0.3043870628
2.941660881 4.575079918 -0.09424119443
3.207621813 5.007917881 0.1031070277
3.207876921 5.006387234 0.3094113171
3.208361626 5.003303051 0.5162852407
3.19637084 4.980772018 0.7215231061
3.176477432 4.947877884 0.9245793223
3.202492952 4.984568119 1.143390417
3.185109854 4.953709126 1.349702954
3.167122364 4.923844337 1.557107449
1.562122583 2.42115593 -0.7604624629
1.583200336 2.452884674 -0.6640521288
1.598695874 2.47499609 -0.5644758344
1.606573939 2.48623991 -0.4621589482
3.15229249 4.874570847 -0.7076299787
2.995472908 4.628522873 -0.47863397
3.161963224 4.883915424 -0.3027123213
2.968487501 4.581564903 -0.09459024668
3.228549004 5.003973961 0.1032466441
3.238334894 5.015292168 0.3106673658
3.232296228 5.002112865 0.5173311234
3.217181921 4.976812363 0.7224980593
3.201241493 4.948368549 0.9267693758
3.212606192 4.964030743 1.141100645
3.202578068 4.944756031 1.35015285
3.181137562 4.907896996 1.555554628
1.583827734 2.437020302 -0.7671917081
1.59175241 2.447343826 -0.6640521288
1.617601156 2.486137152 -0.5682920218
1.622788668 2.492204189 -0.4643490613
3.125939131 4.797010899 -0.6978804469
3.040181398 4.663629055 -0.4833403528
3.145163536 4.82099247 -0.299467504
2.991020203 4.581222534 -0.09479967505
3.236188173 4.977583885 0.1029324979
3.25037241 4.995589733 0.310144037
3.22821641 4.959639072 0.5140191913
3.206363201 4.922306061 0.7161608338
3.203393698 4.91399622 0.9223892093
3.20310235 4.911675453 1.131560206
3.189998627 4.887852192 1.337555647
3.180291891 4.869265079 1.546754718
1.605026007 2.450870037 -0.7734034061
1.617377281 2.467850447 -0.6712505817
1.624117017 2.47719121 -0.5675287247
1.640146971 2.499737501 -0.4668520093
3.103439331 4.726334572 -0.6891058087
3.061910391 4.661315918 -0.4842118919
3.13783741 4.773266315 -0.2971647084
3.015785217 4.58411932 -0.09507891536
3.226146698 4.924440861 0.1020598784
3.226178408 4.920742035 0.3061664701
3.222561359 4.913354397 0.5103586912
3.198471308 4.872915268 0.7105548382
3.191243887 4.858207226 0.9139418006
3.194351196 4.861088276 1.122401357
3.174917221 4.827841282 1.324058533
3.1707201 4.817790031 1.533813834
1.622083068 2.458152533 -0.7775444984
1.628130198 2.465441465 -0.6721503735
1.63275373 2.471507311 -0.5675287247
1.656489134 2.505531311 -0.4690420926
3.095822096 4.679050446 -0.6837435961
3.101257324 4.685488224 -0.4878724515
3.121390581 4.712331772 -0.2940245569
3.02513814 4.563564777 -0.09486948699
3.214672089 4.86975956 0.101152353
3.204802752 4.851125717 0.3025029898
3.197950602 4.83891201 0.503734827
3.19136858 4.825295448 0.7051925659
3.180927038 4.805855751 0.9061200023
3.180950403 4.804074287 1.111716151
3.162687302 4.77286768 1.311911106
3.146945238 4.745512962 1.514143467
1.629584789 2.450866222 -0.7770268321
1.635645986 2.458121061 -0.671700418
1.650074601 2.478866577 -0.5705816746
1.670700431 2.507954121 -0.4706064463
3.083505392 4.625271797 -0.6774064302
3.080006599 4.618277073 -0.4819458425
3.097904921 4.64160347 -0.2902563512
3.054378986 4.572930813 -0.09528834373
3.210609913 4.826872349 0.1004891619
3.215077877 4.82993269 0.3018749356
3.207090616 4.816111565 0.5025146604
3.202690125 4.805866241 0.703973949
3.191106081 4.784863949 0.9042428732
3.194432735 4.788041592 1.110571265
3.179327488 4.761799335 1.311911106
3.158124208 4.726468563 1.511555314
1.638130426 2.445162535 -0.7770268321
1.635535598 2.439447165 -0.6681011915
1.66746676 2.486135244 -0.5736346245
1.679445267 2.502106667 -0.4706064463
3.068638086 4.568341255 -0.6705816984
3.079441309 4.582691669 -0.4793311954
3.085109472 4.587670803 -0.2875348926
3.073673487 4.56721735 -0.09539305419
3.219645262 4.804008961 0.1002448276
3.227468967 4.812044621 0.3014562428
3.222771406 4.803233624 0.5023403168
3.205061436 4.773231983 0.7008053064
3.202281237 4.765496731 0.9026784897
3.204556704 4.767084599 1.108281612
3.198106766 4.753905773 1.312811017
3.183233023 4.728236675 1.515696406
1.648816824 2.44263196 -0.7780621052
1.633130789 2.417576313 -0.6636021733
1.690424562 2.501446486 -0.5785956979
1.697021604 2.509320021 -0.4731093943
3.044512272 4.498417854 -0.6618071198
3.071961403 4.537269115 -0.4756706655
3.045089483 4.494199753 -0.2823013067
3.225389957 4.756726265 -0.09961653501
3.237514973 4.794396877 0.1002797335
3.2487185 4.807369709 0.3018749356
3.250677824 4.808459759 0.5040834546
3.218365669 4.757082939 0.7000740767
3.214465618 4.747746944 0.9014270306
3.227781773 4.765623093 1.110571265
3.219053984 4.749166489 1.3146106
3.204057455 4.723490238 1.517766953
1.637778282 2.408107758 -0.7687446475
1.637174606 2.405416489 -0.6618025899
1.696936965 2.492284536 -0.5778324604
1.714668274 2.51644063 -0.4756123424
3.125953674 4.582479954 -0.4815972447
3.102425098 4.544575691 -0.2861741483
3.286255121 4.812059402 -0.1010127291
3.260979176 4.792987347 0.1004891619
3.256775618 4.785013199 0.3011422455
3.276414633 4.810257435 0.5054779649
3.241661072 4.755660534 0.7015365362
3.242432833 4.75501442 0.9048685431
3.252145052 4.765677929 1.113242626
3.231215239 4.731464386 1.312811017
3.232781887 4.731980324 1.523978591
1.639620662 2.39281559 -0.7656388283
1.644041061 2.398366213 -0.661352694
1.71117723 2.494441748 -0.5797405243
1.731946111 2.523770094 -0.4781152606
3.279590607 4.775409222 -0.7061675787
3.287508249 4.783354759 -0.5040834546
3.296259403 4.794300556 -0.3027123213
3.298499584 4.793967724 -0.1008731127
3.285897017 4.795344353 0.1007683948
3.282495737 4.786792278 0.3019796014
3.290932178 4.795505047 0.5051293373
3.264153719 4.754704952 0.7029989958
3.261249781 4.74692297 0.9054943323
3.276825905 4.767811775 1.116295457
3.257931948 4.736778736 1.317309976
3.251467466 4.723852158 1.525013924
1.638769031 2.374644995 -0.761497736
1.655725718 2.397423029 -0.6627023816
1.722788453 2.493598938 -0.5808854103
1.745239615 2.524208069 -0.4793667495
3.307536364 4.780256271 -0.7086049914
3.303050041 4.77021265 -0.5039091706
3.323211908 4.797541142 -0.3036543727
3.322047949 4.792286396 -0.101082541
3.307161808 4.790427208 0.1009080261
3.310536623 4.791737556 0.3030263186
3.309081316 4.787844658 0.5054779649
3.292022228 4.759608746 0.7054363489
3.272179604 4.727387905 0.9039299488
3.303506374 4.770871639 1.119730115
3.276668072 4.728580475 1.318209887
3.267938137 4.712472439 1.525013924
1.641946673 2.360692501 -0.7589095235
1.669647574 2.399628162 -0.6649519205
1.738648057 2.496933937 -0.5831750631
1.758996367 2.524277687 -0.4806182086
3.333285093 4.781708241 -0.7105548382
3.326521873 4.768457413 -0.5049550533
3.339628696 4.783691406 -0.3035497069
3.35020709 4.797054768 -0.1014315933
3.321580648 4.775569916 0.1008382067
3.331807852 4.786708355 0.3034450114
3.331161737 4.782224178 0.50617522
3.308617353 4.748087883 0.7054363489
3.297697783 4.728901863 0.9064329267
3.320971489 4.758730888 1.119730115
3.30290246 4.729321003 1.321809053
3.293220043 4.713704586 1.529155016
1.661262751 2.370767832 -0.7640858889
1.690739632 2.411042929 -0.6699008346
1.757500291 2.505315304 -0.5866096616
1.776877761 2.531055927 -0.4831211865
3.35078764 4.769459724 -0.7105548382
3.352313042 4.769856453 -0.506349504
3.3586061 4.775271416 -0.3037590384
3.371535301 4.791871548 -0.1015712097
3.348243237 4.776463509 0.101117447
3.354228973 4.78322649 0.30396837
3.356991529 4.783613205 0.5075696707
3.32371521 4.732680798 0.7049488425
3.327812433 4.736757278 0.910187304
3.336432219 4.745504379 1.119348526
3.326120138 4.727324486 1.324508429
3.314100742 4.708500385 1.531225562
1.743061543 2.469116449 -0.7982500196
1.758305192 2.489789486 -0.6937456727
1.770767808 2.505577803 -0.5881361365
1.794382334 2.538054466 -0.4856241345
3.366586447 4.758320808 -0.7105548382
3.375847101 4.767884254 -0.5073953867
3.376732826 4.767366409 -0.30396837
3.388238192 4.780076027 -0.1015712097
3.373291731 4.778402805 0.1013966873
3.365141869 4.763333321 0.3034450114
3.382869482 4.784881592 0.5089641809
3.348560095 4.73459959 0.7068988085
3.346608162 4.728337765 0.9108130932
3.364628553 4.752039909 1.123546243
3.339524031 4.713088989 1.323608637
3.33610487 4.704782009 1.533813834
1.756836176 2.471195459 -0.8008381724
1.774893761 2.494751215 -0.6968949437
1.78475821 2.507689953 -0.5900442004
1.814691424 2.547864914 -0.4887528121
3.390087843 4.756239891 -0.7120172977
3.391640902 4.756662369 -0.5073953867
3.404953718 4.771809101 -0.3050150871
3.406067133 4.769846916 -0.1016061157
3.39922142 4.779635906 0.1016759202
3.392172813 4.766201496 0.3043870628
3.401030302 4.776882172 0.5093128085
3.374282598 4.735814095 0.7088487148
3.366534233 4.721451283 0.9117516875
3.386897564 4.748256683 1.125454307
3.362747669 4.710920811 1.326308012
3.355875015 4.697824478 1.535366774
1.777824521 2.482324839 -0.8065322638
1.828963399 2.55090642 -0.6018743515
1.830484509 2.551144361 -0.4906300604
3.417088985 4.758890629 -0.7142109871
3.40822506 4.744793415 -0.5073953867
3.426251888 4.766382217 -0.30543378
3.429701328 4.767668724 -0.1018155366
3.41588378 4.767742157 0.1016759202
3.420426369 4.770564079 0.30543378
3.415360689 4.761744022 0.5089641809
3.406997919 4.746584892 0.7122610211
3.387605667 4.716087818 0.9130031466
3.40459609 4.738000393 1.125836015
3.388274431 4.711810589 1.329907298
3.371125698 4.684512615 1.534849048
1.802303672 2.498036623 -0.8137791157
1.829912186 2.534437895 -0.7117417455
1.841305852 2.549280643 -0.6030192375
1.839377999 2.544739723 -0.4906300604
3.441825151 4.758191586 -0.7159171104
3.434109688 4.745780945 -0.5087898374
3.448727131 4.762480259 -0.3059571683
3.453364372 4.765381813 -0.1020249724
3.4325068 4.755788326 0.1016759202
3.440567493 4.763452053 0.305747807
3.441298008 4.762711525 0.5103586912
3.418894529 4.728228092 0.711286068
3.41099453 4.71383667 0.9148803949
3.419963837 4.724495888 1.125454307
3.411559105 4.709423542 1.332606673
3.395393372 4.683666229 1.538472414
1.831456065 2.519859314 -0.823096633
1.841039896 2.531187296 -0.7126415372
1.861743569 2.558712959 -0.6068354249
1.859876633 2.554272652 -0.4937587082
3.460750103 4.749357224 -0.7164045572
3.46239233 4.749864578 -0.5105329752
3.461797953 4.745573521 -0.3056431413
3.474695206 4.759758472 -0.1021645889
3.456141472 4.753482819 0.101885356
3.461873293 4.757873535 0.3061664701
3.467281342 4.763558388 0.5117532015
3.437716961 4.719473362 0.7117735744
3.437901974 4.716267109 0.9176962376
3.444533587 4.723632812 1.128125668
3.430276394 4.700634003 1.333506465
3.41855669 4.681146622 1.541578293
1.843665123 2.518126488 -0.8246495724
1.85447073 2.531033754 -0.7144411802
1.875306845 2.558532238 -0.6083618999
1.878127456 2.560508013 -0.4962616861
3.477308512 4.73724699 -0.7164045572
3.483665228 4.744175911 -0.5112302303
3.485439301 4.743115902 -0.3062711358
3.498395681 4.757266998 -0.1023740172
3.486893654 4.760747433 0.1023042127
3.476100206 4.742537975 0.3059571683
3.493314028 4.764278889 0.5131476521
3.461215258 4.717048168 0.7132359743
3.459017277 4.710609436 0.9189476967
3.472622633 4.727403164 1.131941915
3.448971272 4.691772938 1.334406376
3.446325064 4.684745312 1.546754718
1.867924094 2.530816078 -0.7162407637
1.884225845 2.551970959 -0.6083618999
1.897619724 2.568234682 -0.4990774691
3.498543739 4.731465816 -0.71737957
3.500205517 4.731985569 -0.5112302303
3.50672698 4.737342834 -0.3066898584
3.512601137 4.741811752 -0.1023042127
3.510612965 4.75820303 0.1025136411
3.497377872 4.736803055 0.3063758314
3.509922266 4.752056599 0.5131476521
3.48710084 4.717707634 0.7151858807
3.474265814 4.696917057 0.9186348319
3.496110916 4.724720955 1.134231567
3.472284794 4.689102173 1.337105632
3.462655783 4.672688007 1.546754718
1.865807176 2.5113976 -0.8267200589
1.890700102 2.543046474 -0.7216396332
1.906010032 2.562707186 -0.6125596762
1.906573534 2.561594725 -0.4990774691
3.52689743 4.735144138 -0.7198169231
3.519083977 4.722933292 -0.5115788579
3.53757 4.744285583 -0.3079459071
3.537499905 4.740742683 -0.1025485471
3.524816036 4.742708206 0.1024438292
3.525809765 4.740592957 0.3074225485
3.526489496 4.739774704 0.5131476521
3.520141125 4.727800369 0.7185982466
3.496542454 4.692680359 0.9201991558
3.514925718 4.715639114 1.134994745
3.495623827 4.686324596 1.339805126
3.478946686 4.660571575 1.546754718
1.889610291 2.524976015 -0.8334493637
1.908910155 2.548909903 -0.7252388
1.925538898 2.570178747 -0.6159942746
1.922612906 2.564407349 -0.5009547472
3.552936316 4.735506058 -0.7217668295
3.547507286 4.726555824 -0.5133219361
3.556509256 4.735101223 -0.3081552684
3.566042662 4.74434948 -0.1028975919
3.535358906 4.722370625 0.1022692993
3.547127247 4.734649181 0.3078412414
3.550183535 4.737001419 0.5141935349
3.535432816 4.713894844 0.7183545232
3.522386551 4.693086147 0.9227020741
3.53136611 4.703340054 1.134994745
3.523665667 4.689673901 1.344304085
3.502161503 4.657662868 1.549860477
1.907715201 2.530706167 -0.8375905156
1.917796612 2.542230844 -0.7252388
1.938045979 2.568143368 -0.617139101
1.942267299 2.571867228 -0.5037705302
3.578192234 4.736370087 -0.7237167954
3.586815357 4.744339943 -0.5166338682
3.582652807 4.735402584 -0.3089926243
3.597445726 4.753225803 -0.1033513546
3.56145072 4.72277689 0.1025485471
3.565215349 4.72604847 0.3080506027
3.579899073 4.742074013 0.5161109567
3.557850122 4.709443569 0.7195731997
3.548648357 4.69556427 0.9255179167
3.571448565 4.722300529 1.14262712
3.559185266 4.704384327 1.351952553
3.550237894 4.689150333 1.56435442
3.565305471 4.69712162 -1.568495512
3.629506826 4.778235435 -1.375347376
3.54176569 4.661039829 -1.129652143
3.658221006 4.810805798 -0.9505474567
3.678004503 4.835075855 -0.7407784462
3.677349567 4.830709934 -0.5274412036
3.686691046 4.839475632 -0.3166337013
3.694395542 4.847833633 -0.1056899726
3.65206933 4.809680939 0.1047126427
3.654560566 4.811218262 0.3144355714
3.693267822 4.858654499 0.5302301645
3.669591904 4.824016571 0.7390723228
3.66348815 4.81424427 0.9514860511
3.673914194 4.824454308 1.170485258
3.653888226 4.796415806 1.382095933
3.646583319 4.78335762 1.60007143
3.557401419 4.654573441 -1.558142781
3.666643858 4.794034481 -1.383445621
3.546467543 4.63523531 -1.126217604
3.682561636 4.809626579 -0.9527375698
3.696068287 4.823782444 -0.7410221696
3.698198318 4.824813366 -0.5281384587
3.713658094 4.841486454 -0.3175757229
3.717382431 4.842840672 -0.1058645025
3.699576616 4.838847637 0.1056201681
3.701672792 4.838088989 0.3170523643
3.721467972 4.862202168 0.5319733024
3.695226669 4.824427128 0.7410221696
3.675465345 4.795155048 0.950234592
3.699450731 4.824707508 1.173538208
3.675355434 4.789814949 1.383895516
3.666784525 4.77519846 1.60162437
3.547702551 4.608449459 -1.546754718
3.647674084 4.734896183 -1.369948626
3.574610949 4.63837719 -1.130033731
3.706562757 4.806129932 -0.9546146989
3.723800898 4.82499361 -0.7432158589
3.712579012 4.808722973 -0.5277898312
3.739084482 4.839556217 -0.318308413
3.736712217 4.832997799 -0.105934307
3.727427006 4.840162277 0.105934307
3.722197056 4.829883099 0.3173663914
3.72868681 4.836558342 0.5305787921
3.729021549 4.833501816 0.7444345355
3.699421167 4.791680336 0.9521117806
3.719871044 4.816424847 1.174683094
3.701585293 4.789292336 1.387494802
3.68106842 4.75931263 1.600589037
3.557847977 4.588405132 -1.544166565
3.621172905 4.666707993 -1.353752136
3.687088013 4.749938011 -1.160563111
3.725741386 4.796281338 -0.9552404881
3.755239248 4.83077383 -0.7461407185
3.741574287 4.811461449 -0.529532969
3.762087107 4.834357262 -0.3188318014
3.764618874 4.834123135 -0.1062484533
3.74674964 4.830282688 0.1060041189
3.754956007 4.837369919 0.3187271357
3.75043416 4.829808712 0.5312760472
3.744654179 4.818887234 0.7441908121
3.725826979 4.791211128 0.9546146989
3.736661911 4.803410053 1.174683094
3.727856159 4.788644791 1.391093969
3.704781294 4.755578518 1.603694916
3.576219797 4.579003334 -1.545201778
3.609838724 4.6187253 -1.343404412
3.719362974 4.757148266 -1.165524244
3.747328997 4.789470673 -0.9564919472
3.767185211 4.811382771 -0.7451657653
3.771861792 4.815624237 -0.5314503908
3.780172348 4.822766304 -0.3189364672
3.798747301 4.842981339 -0.1067371219
3.769744396 4.825052261 0.1061786413
3.774275541 4.827382565 0.3189364672
3.779546499 4.832380772 0.5330191851
3.756557226 4.799534798 0.7432158589
3.753492594 4.792171478 0.9574305415
3.760670662 4.799610615 1.176972866
3.746955156 4.778669357 1.391993761
3.735670328 4.760854244 1.609906554
3.590988636 4.564972878 -1.544684172
3.604243279 4.578533173 -1.335306048
3.740805864 4.750304699 -1.167050719
3.778697968 4.794978142 -0.9602463841
3.79133153 4.807557106 -0.7466281652
3.802221775 4.819636345 -0.533367753
3.805645943 4.820515633 -0.3196691573
3.819347143 4.8343997 -0.1068418324
3.797692776 4.82600832 0.1064927876
3.791104555 4.814177036 0.3189364672
3.806253672 4.831679344 0.5344136357
3.780660629 4.79574728 0.7446783185
3.77386713 4.783694267 0.9583691359
3.790778875 4.803407192 1.181170583
3.767235041 4.770149231 1.393343449
3.759454966 4.756878376 1.613012314
3.600902081 4.544840336 -1.542096019
3.620204687 4.565923214 -1.335306048
3.759803534 4.740294933 -1.167813897
3.800326109 4.787946701 -0.9614978433
3.815498829 4.803618908 -0.7480906248
3.821502447 4.809453011 -0.5337164402
3.833638191 4.821270466 -0.3206112087
3.834953308 4.819474697 -0.1068069339
3.82321167 4.823691368 0.1067371219
3.815332174 4.810304642 0.3195644915
3.82805109 4.824605942 0.5351108909
3.80725193 4.794958591 0.7466281652
3.791772127 4.772036552 0.9586820006
3.823402882 4.810125828 1.186131597
3.7947824 4.77069521 1.397392631
3.778441668 4.746750355 1.614047647
3.613130808 4.527711868 -1.540543079
3.658008814 4.580669403 -1.343404412
3.781230211 4.733276367 -1.169340372
3.824415684 4.783910751 -0.9633750916
3.842163324 4.802672386 -0.7500405312
3.838266373 4.796085358 -0.5337164402
3.865425348 4.82656765 -0.3218672872
3.861758709 4.81854105 -0.1070861667
3.842520714 4.813443661 0.1068069339
3.84456706 4.812560081 0.3206112087
3.844867706 4.811214924 0.5351108909
3.84008503 4.801792622 0.7497968078
3.815811396 4.768026829 0.9605592489
3.845079422 4.80287981 1.187658072
3.818721771 4.766545773 1.400092006
3.797403574 4.736546993 1.61508286
3.627702236 4.513566971 -1.540025353
3.675198555 4.569390297 -1.343854189
3.807576418 4.732285023 -1.172393322
3.841092825 4.770530701 -0.9633750916
3.868867159 4.801598549 -0.7519904375
3.86873889 4.799720287 -0.5356338024
3.882248878 4.813045979 -0.3218672872
3.89362812 4.823702812 -0.1075050309
3.861804485 4.803118706 0.1068767458
3.876368284 4.817783356 0.3218672872
3.874130011 4.813286304 0.5368540287
3.854333878 4.785265923 0.7493093014
3.842350245 4.766981125 0.9630622268
3.861822367 4.789427757 1.187658072
3.847575426 4.768352032 1.404590964
3.826049805 4.738294125 1.620259404
3.643436432 4.500875473 -1.540025353
3.688669682 4.553507328 -1.342954397
3.835195541 4.732693672 -1.17582798
3.867671967 4.769370556 -0.9658780098
3.895612478 4.800394535 -0.7539403439
3.891747475 4.793921471 -0.5365054011
3.900286436 4.801014423 -0.3219719529
3.923055649 4.825599194 -0.1078540757
3.888615608 4.802040577 0.1071559787
3.89316082 4.804224014 0.3218672872
3.900946856 4.812114716 0.538248539
3.873514175 4.774866581 0.7497968078
3.871415854 4.768877029 0.9661909342
3.888417006 4.78811121 1.190711021
3.866656303 4.757915974 1.405490875
3.857194185 4.74289465 1.626470923
3.649360657 4.47615099 -1.53588438
3.704543114 4.540602684 -1.342954397
3.859141827 4.728402138 -1.178117633
3.891795397 4.765019417 -0.9677551985
3.912344217 4.78676796 -0.7539403439
3.916023731 4.789563656 -0.5375512838
3.918284893 4.788917065 -0.3220766187
3.939877272 4.81187439 -0.1078540757
3.917991877 4.803935051 0.1075050309
3.912434101 4.793698788 0.3220766187
3.930320024 4.813902378 0.5399916172
3.897695303 4.770539284 0.7512592077
3.893039227 4.761452198 0.9674423933
3.912565947 4.783625603 1.193000674
3.885705709 4.74740839 1.406390548
3.885968924 4.744345665 1.631647348
3.658830166 4.455922127 -1.533296108
3.730269194 4.53968811 -1.346553683
3.875620127 4.714905262 -1.178117633
3.919699907 4.765134811 -0.9705710411
3.936600208 4.78227663 -0.7554028034
3.935252666 4.778939724 -0.5378998518
3.955301046 4.799870968 -0.3237513602
3.959191561 4.801181316 -0.1079238877
3.94489193 4.802589893 0.1077842638
3.936749697 4.789272308 0.322704643
3.952162504 4.80630827 0.5406888723
3.929456711 4.77530098 0.7541841269
3.912148714 4.750882626 0.9680681229
3.944215775 4.788125992 1.197580218
3.909692526 4.742836952 1.409090042
3.902505398 4.730752945 1.631647348
3.678056479 4.447588444 -1.534849048
3.761001348 4.5446558 -1.351952553
3.902071476 4.713445187 -1.181170583
3.938828945 4.754466534 -0.9711968303
3.963406563 4.780731201 -0.7573527098
3.959540606 4.774376392 -0.5389457345
3.986063957 4.802940845 -0.3249027729
3.979760647 4.791945457 -0.1080286056
3.971831083 4.80111599 0.1080635041
3.966180801 4.790885448 0.3237513602
3.971458673 4.7955513 0.5410374999
3.956236362 4.773782253 0.7561339736
3.938795567 4.749362469 0.9705710411
3.957146645 4.769794941 1.196435332
3.938671112 4.744155407 1.413589001
3.923933983 4.723044395 1.633717895
3.692322254 4.43323946 -1.534331441
3.775595188 4.53000164 -1.351502538
3.931074142 4.714873791 -1.184986711
3.957933426 4.743721008 -0.9718225002
3.990245104 4.779059887 -0.7593026161
3.986401081 4.77275753 -0.5403402448
4.002801895 4.789000511 -0.3249027729
4.008458138 4.794062138 -0.1083776504
3.980882168 4.77800703 0.1078540757
3.994834661 4.793047428 0.3247980773
3.993275404 4.787782192 0.541734755
3.977964878 4.766038418 0.7571089268
3.969715357 4.754471779 0.9743255377
3.980067492 4.763484955 1.198343396
3.965209007 4.74233675 1.417188287
3.945770979 4.71741581 1.636306167
3.74626255 4.466205597 -1.550378084
3.796859264 4.524921417 -1.353752136
3.957606792 4.713151932 -1.18803966
3.983805895 4.742671013 -0.9743255377
4.011181831 4.771878719 -0.7602775693
4.020994186 4.78015852 -0.5427806377
4.023805618 4.781811714 -0.3253214657
4.034184933 4.790746689 -0.1086219847
4.009557247 4.780099392 0.1082031205
4.011540413 4.779074669 0.3247980773
4.022779465 4.789068699 0.5434778333
3.991193056 4.749782085 0.75662148
3.993916273 4.7496562 0.9762026668
4.005953312 4.762278557 1.201396346
3.985931873 4.735126019 1.41898787
3.972169638 4.715435028 1.64044714
3.843314886 4.551173687 -1.584542394
3.820177078 4.520572186 -1.356451511
3.98081851 4.70899868 -1.190329432
4.013093472 4.743818283 -0.9774541855
4.030380726 4.760877132 -0.7607650757
4.044545174 4.775923252 -0.5438264608
4.050804138 4.779925346 -0.3261588216
4.054760456 4.78121376 -0.1087267026
4.040414333 4.782876492 0.1085870713
4.035933495 4.774195671 0.3254261315
4.051505089 4.790914536 0.5452209711
4.015441418 4.744913578 0.7580838799
4.020683289 4.747746468 0.9787056446
4.028894424 4.755759239 1.203304529
4.002435684 4.721184254 1.41898787
3.999854565 4.714797974 1.645105958
3.811619759 4.481807709 -1.564872026
3.842249632 4.51462841 -1.358700991
3.998505592 4.696568012 -1.190711021
4.039878368 4.741809368 -0.9799571037
4.054701328 4.755844116 -0.7622274756
4.063778877 4.764806747 -0.5441750884
4.076539516 4.776391029 -0.3268915117
4.071426868 4.767029762 -0.1087267026
4.063563347 4.776360035 0.1087616012
4.060343266 4.769201756 0.3260541558
4.070786476 4.779777527 0.5455695987
4.052583218 4.755040646 0.7619836926
4.034668922 4.73067522 0.978079915
4.056939602 4.755106926 1.206738949
4.029015064 4.71903944 1.422587037
4.021306515 4.706682682 1.647176504
3.817186832 4.456737995 -1.560731053
3.871936321 4.517464161 -1.363649845
4.023819447 4.693015575 -1.193382382
4.064124584 4.736671925 -0.981834352
4.082914829 4.755217075 -0.7644211054
4.077791214 4.747568607 -0.5438264608
4.102302074 4.772733688 -0.3276242316
4.099776745 4.766434193 -0.109040834
4.090619087 4.774295807 0.109040834
4.084765911 4.764097691 0.3266821802
4.087445259 4.765539646 0.5455695987
4.089842319 4.764967442 0.7658835649
4.06274271 4.73004818 0.9808957577
4.081189632 4.74985218 1.209028721
4.058169365 4.719722271 1.427086115
4.037712574 4.692615986 1.647176504
3.85795784 4.472642422 -1.571083784
3.895320654 4.512773037 -1.366349339
4.050443172 4.690827847 -1.196435332
4.084507465 4.726941586 -0.9827729464
4.112473965 4.755950928 -0.7668584585
4.104764938 4.745361328 -0.5452209711
4.125472069 4.765936852 -0.3281475902
4.128174782 4.765696049 -0.1093549803
4.10725832 4.759988308 0.109040834
4.111814499 4.761902332 0.3275195658
4.114475727 4.763304234 0.5469641089
4.103855133 4.747657776 0.7653961182
4.089566231 4.727790356 0.9833986759
4.095176697 4.732606888 1.208265424
4.08992672 4.723206997 1.432484984
4.06418848 4.69017458 1.651317596
3.892549038 4.481025219 -1.578848243
3.911048651 4.499148846 -1.366349339
4.074520588 4.685550213 -1.198724985
4.111355305 4.724577427 -0.9852758646
4.135567665 4.749052525 -0.7680771947
4.134393215 4.746026516 -0.5469641089
4.146018982 4.756023884 -0.3284616172
4.156616688 4.764818192 -0.1096691266
4.135654926 4.759206295 0.1093549803
4.136274338 4.756564617 0.3281475902
4.138922691 4.757932663 0.548009932
4.119098186 4.731807232 0.7651523352
4.113831043 4.722422123 0.9852758646
4.121991158 4.730123043 1.211318374
4.11023283 4.713306904 1.433834672
4.090696335 4.687604427 1.655458689
3.936151981 4.499397755 -1.590236306
3.938281298 4.498666286 -1.370398521
4.098613739 4.680159569 -1.201014757
4.140841007 4.725054741 -0.988404572
4.154738903 4.737571716 -0.7685647011
4.169326305 4.752536774 -0.5494044423
4.171820641 4.752028465 -0.3291943073
4.182461739 4.760796547 -0.1099134609
4.160145283 4.753768921 0.1095644161
4.160748959 4.751111031 0.3287756145
4.171260834 4.76143837 0.5501016974
4.148677349 4.732325554 0.7675896883
4.138103008 4.716946125 0.9871531129
4.154016495 4.733414173 1.215897918
4.129228592 4.701861858 1.434734464
4.122338772 4.690709114 1.661670446
3.964603662 4.500126839 -1.595412731
3.970715523 4.503893852 -1.376247168
4.120121002 4.671713352 -1.202541232
4.167767525 4.722419262 -0.9909075499
4.179133892 4.731967926 -0.770027101
4.188529968 4.740939617 -0.5497530699
4.198965073 4.749408722 -0.330031693
4.201705933 4.749163151 -0.1099832729
4.189934254 4.754221439 0.1099134609
4.1852355 4.745545387 0.3294036686
4.193128109 4.752826691 0.5507989526
4.175682545 4.729719639 0.7695396543
4.154544353 4.702471733 0.9871531129
4.188716412 4.739478588 1.22124052
4.155945301 4.69909668 1.43833375
4.141246796 4.679184914 1.662705541
3.986696959 4.493486404 -1.598000884
3.999352217 4.504577637 -1.380746245
4.14291811 4.664644718 -1.204449296
4.192101479 4.716700077 -0.9927847981
4.214097023 4.738116741 -0.773439467
4.20240593 4.723311424 -0.5494044423
4.228800297 4.749638557 -0.3310784101
4.234217644 4.752386093 -0.1104021221
4.21446991 4.748539448 0.1101228893
4.21768713 4.748829365 0.3306597173
4.207047462 4.735180855 0.550450325
4.218544006 4.74478817 0.7744144201
4.182753086 4.70122242 0.9899689555
4.21045208 4.730697155 1.222766995
4.183989048 4.697657108 1.442382812
4.160126686 4.667583942 1.663740873
4.145231724 4.639448643 -1.655458689
4.017648697 4.493496418 -1.381646037
4.169647694 4.661860466 -1.207502246
4.207221508 4.700566769 -0.9924718738
4.246504307 4.741120815 -0.7763643265
4.23482132 4.726421356 -0.5514962077
4.249354839 4.73930788 -0.3313924074
4.261466026 4.749483585 -0.1106813699
4.233681202 4.736783981 0.1101926938
4.250217438 4.751941204 0.331915766
4.234179974 4.732343674 0.5518447757
4.227136612 4.721158981 0.7729519606
4.209681511 4.698363304 0.9924718738
4.229562283 4.718894482 1.223530173
4.213372231 4.697531223 1.44688189
4.191880226 4.670284748 1.669952631
4.182074547 4.647929192 -1.663740873
4.19108963 4.654675484 -1.436084151
4.205602646 4.669159412 -1.213226438
4.235508442 4.699057102 -0.9952876568
4.268342972 4.732167721 -0.77733922
4.26864624 4.730838776 -0.5537622571
4.271223068 4.730378628 -0.33181113
4.291426182 4.749414921 -0.1110304147
4.258218288 4.730893612 0.1104021221
4.264103889 4.734108925 0.3317064345
4.269341469 4.738260269 0.5542851686
4.247577667 4.71079874 0.7736831903
4.241938114 4.701238632 0.9962263107
4.256533146 4.715759277 1.226583123
4.234970093 4.688578606 1.448681474
4.221108437 4.669958591 1.675128937
4.209949493 4.646185875 -1.668399692
4.229562283 4.664562225 -1.443732619
4.224515438 4.657357693 -1.213989735
4.266486168 4.700335979 -0.998729229
4.284836769 4.717238426 -0.77733922
4.299869537 4.732132912 -0.5556796193
4.295772552 4.72430563 -0.3324391544
4.314706802 4.741802216 -0.1112049371
4.292165756 4.735260963 0.1108558849
4.283288956 4.722153187 0.331915766
4.299244881 4.738082886 0.5560283065
4.270668983 4.703289986 0.7749018669
4.260976315 4.689330101 0.9968520403
4.288814068 4.718307018 1.231162548
4.253932476 4.676651478 1.449581265
4.250389099 4.669480801 1.680305362
4.23395586 4.640022755 -1.67150557
4.261588573 4.667037487 -1.44913137
4.246044159 4.64838028 -1.21551621
4.290865421 4.694161415 -1.000606418
4.311994553 4.713971615 -0.779289186
4.313673019 4.714154243 -0.5553310513
4.331119537 4.729904652 -0.3339045644
4.329882622 4.725236893 -0.1111700311
4.319453239 4.732065678 0.1111351326
4.313217163 4.721918583 0.332962513
4.326508522 4.73481369 0.5574227571
4.303136826 4.705932617 0.7778267264
4.277320385 4.674426556 0.9968520403
4.315863609 4.714891434 1.234215498
4.283392906 4.6761446 1.454080343
4.274494171 4.663161278 1.683411241
4.25535202 4.630908012 -1.673576117
4.285768986 4.660738945 -1.451830745
4.270215988 4.642202854 -1.217805862
4.315253258 4.68787384 -1.002483726
4.336494446 4.707651138 -0.7807516456
4.336853981 4.706392765 -0.5562025905
4.358436584 4.726502419 -0.3347419202
4.360441685 4.727021694 -0.1115539819
4.341359615 4.722846985 0.111274749
4.33966589 4.719351292 0.3337998688
4.343010902 4.719681263 0.5574227571
4.332983017 4.705486774 0.7802641392
4.308858871 4.677650452 1.000606418
4.334955692 4.702684879 1.234978795
4.31026125 4.672622204 1.45767951
4.296485901 4.656057835 1.685999393
4.279365063 4.6245327 -1.676681876
4.314437866 4.660802841 -1.456329823
4.299736977 4.641670227 -1.221622109
4.330776215 4.673537254 -1.002483726
4.368278027 4.710712433 -0.7836764455
4.36274147 4.701449394 -0.5574227571
4.375444412 4.713488579 -0.3348466158
4.390524387 4.72642374 -0.1119030342
4.362428665 4.714295864 0.1114143655
4.372396469 4.72176075 0.3350559473
4.364877224 4.710337162 0.5581200123
4.353960037 4.696916103 0.7812390924
4.343969822 4.682855129 1.004986644
4.354531765 4.692602634 1.236123562
4.338994503 4.67258215 1.462178469
4.317971706 4.646693707 1.68806982
4.31442976 4.631517887 -1.684446454
4.32270956 4.637160301 -1.453630328
4.328495979 4.641743183 -1.225438237
4.360539913 4.672834873 -1.005612373
4.391467571 4.702690601 -0.7848951817
4.391910076 4.701514721 -0.559165895
4.3973279 4.704021454 -0.3352652788
4.415194035 4.719830513 -0.1121124625
4.389763355 4.710744381 0.1116936132
4.391577721 4.709389687 0.3352652788
4.399497509 4.716237068 0.5605604053
4.367621422 4.678786278 0.7807516456
4.373773575 4.682099342 1.008115411
4.380270004 4.687413692 1.238794923
4.35793972 4.660255432 1.46307838
4.346046448 4.644286633 1.692728639
4.343786716 4.630520344 -1.68962276
4.35220623 4.636251926 -1.458129406
4.352735519 4.635193825 -1.227728009
4.390350819 4.671980858 -1.008741021
4.411937714 4.691670418 -0.7856264114
4.421945095 4.700668335 -0.5609089732
4.427409649 4.703186512 -0.336311996
4.438497066 4.711668491 -0.1122869924
4.421233177 4.711431503 0.1120775566
4.41345787 4.699856281 0.3356839716
4.424119473 4.709562778 0.561606288
4.400241375 4.680869102 0.7836764455
4.39414978 4.67112112 1.009053946
4.410058498 4.686393261 1.242611051
4.382194996 4.653527737 1.465777636
4.371504784 4.638930798 1.696352124
4.367884636 4.623754501 -1.692728639
4.383088589 4.636610031 -1.46307838
4.368890285 4.619970798 -1.227728009
4.420208931 4.670976162 -1.011869788
4.436478615 4.684888363 -0.7870888114
4.443806648 4.690990925 -0.561606288
4.456167698 4.70074749 -0.3372540474
4.454917908 4.696145535 -0.1122869924
4.451388359 4.710502625 0.1124266088
4.438071251 4.693127632 0.336311996
4.451486588 4.705668449 0.5630007386
4.435661316 4.68566227 0.7870888114
4.411786079 4.657188892 1.00936687
4.434494495 4.67952013 1.244900823
4.411820412 4.652344227 1.470276833
4.39964056 4.636253834 1.701010823
4.383996964 4.608479977 -1.692728639
4.42074585 4.643864155 -1.470276833
4.401236057 4.621754169 -1.232307434
4.441938877 4.66123724 -1.013121247
4.469243526 4.686613083 -0.7900136709
4.460155487 4.675449371 -0.561606288
4.483581066 4.696722031 -0.338091433
4.47957325 4.689240932 -0.1124964207
4.467803001 4.694936752 0.1124266088
4.470953465 4.694964409 0.3375680447
4.47063303 4.692987919 0.5633493662
4.471164703 4.690267086 0.7905011773
4.443015099 4.65748167 1.012808323
4.464354515 4.678215981 1.24871695
4.441493511 4.651008129 1.474775791
4.41579628 4.620868683 1.701010823
4.410747051 4.604310513 -1.69686985
4.442322254 4.634032249 -1.472076416
4.430929661 4.620533466 -1.236123562
4.463654995 4.651403904 -1.014372706
4.499326229 4.685300827 -0.7924510241
4.488872051 4.672781944 -0.5631750226
4.508254528 4.689681053 -0.3387194574
4.513932705 4.692313194 -0.112950176
4.489699364 4.68508625 0.1125662252
4.501137733 4.693745613 0.3386147618
4.498023033 4.688855171 0.5647438765
4.49300766 4.68035984 0.7914761305
4.470195293 4.653339863 1.01531136
4.477935314 4.659773827 1.247953773
4.46850872 4.646711826 1.478374958
4.442616463 4.616560936 1.705151916
4.433499813 4.595836639 -1.699458003
4.461179256 4.621300697 -1.472976089
4.45930624 4.617747307 -1.239558101
4.492217541 4.648579597 -1.017188549
4.522550583 4.67670536 -0.7936697602
4.520393372 4.672837734 -0.565092504
4.531544209 4.681089401 -0.339242816
4.544199944 4.690889835 -0.1132992283
4.517131805 4.680900574 0.1128454655
4.528594971 4.689497948 0.3394521475
4.530970573 4.69032383 0.5668355823
4.509318829 4.664646626 0.7914761305
4.500144482 4.651906013 1.018440008
4.507828236 4.658221722 1.2517699
4.496901512 4.643685818 1.48242414
4.474838257 4.617671967 1.711363673
4.461628914 4.592804432 -1.704116702
4.490868092 4.619671822 -1.477475166
4.4836092 4.610599041 -1.241847873
4.524950027 4.649857521 -1.020942926
4.551312923 4.673687935 -0.7958634496
4.558922291 4.679862976 -0.567881465
4.557612419 4.675257206 -0.3399755061
4.571716309 4.686451435 -0.1135784686
4.552955627 4.685180187 0.1133341342
4.544935703 4.673662663 0.3394521475
4.561209202 4.688759804 0.5685787201
4.538035393 4.661681175 0.7936697602
4.5204916 4.640412807 1.019378543
4.543242455 4.662143707 1.257112503
4.514445305 4.629354 1.482874036
4.507117748 4.618618488 1.717575312
4.49249506 4.592392445 -1.709810734
4.512415886 4.609540939 -1.479274869
4.502424717 4.597724438 -1.242611051
4.554976463 4.648146152 -1.024071693
4.573160172 4.663440704 -0.7968384027
4.575227261 4.663924217 -0.567881465
4.590695858 4.676421642 -0.3412315845
4.593653679 4.676168919 -0.113718085
4.580471992 4.680691242 0.1136133671
4.572402477 4.669183731 0.3402895331
4.580338001 4.675654411 0.5689272881
4.562618732 4.654315948 0.7951322198
4.540809155 4.628838539 1.020317197
4.575991154 4.663070202 1.261691928
4.541497231 4.624693871 1.486473203
4.523213387 4.602856159 1.717575312
4.507143974 4.575305462 -1.709293127
4.553105354 4.618740559 -1.487372994
4.534989834 4.598754406 -1.247190595
4.578112602 4.639247417 -1.025636077
4.60893774 4.667224884 -0.8002507091
4.599882126 4.656428337 -0.5689272881
4.626648426 4.680255413 -0.3426969945
4.618387699 4.668634415 -0.1139275134
4.599589825 4.667523861 0.113683179
4.605503082 4.670258999 0.3415456116
4.605025291 4.668148994 0.5699731708
4.595573902 4.655312061 0.7980570197
4.572211266 4.628417492 1.023758769
4.600521088 4.655446053 1.2639817
4.568575859 4.619896889 1.490072489
4.544687271 4.592533112 1.719645858
4.548933983 4.585606098 -1.719128251
4.570572376 4.604203224 -1.48782289
4.560695171 4.592649937 -1.249861836
4.59845686 4.627440453 -1.026574612
4.639199734 4.66518259 -0.8026880622
4.630160332 4.654467106 -0.5706704259
4.644367695 4.665491104 -0.3428016603
4.650177002 4.66807127 -0.1143114641
4.625715256 4.661374092 0.1139275134
4.638662338 4.671163559 0.3428016603
4.632526875 4.663352489 0.571367681
4.618790627 4.64628458 0.7992757559
4.599485397 4.623631477 1.026261687
4.622280121 4.644928455 1.265508175
4.601177216 4.620491028 1.495471358
4.579782486 4.595797539 1.72689271
4.566279888 4.571064949 -1.719645858
4.583861828 4.585463524 -1.486923099
4.59474659 4.594748497 -1.25482285
4.624361515 4.621135712 -1.028764725
4.661073685 4.654571533 -0.8036630154
4.660479069 4.652353764 -0.5724135637
4.657797813 4.646428585 -0.3425923288
4.682023525 4.667339325 -0.1146954224
4.651851654 4.655101776 0.1141718477
4.660589695 4.660591125 0.3432203531
4.6656847 4.664057732 0.5734594464
4.636386395 4.631535053 0.7995194793
4.629576206 4.621504784 1.029390454
4.6523633 4.642632008 1.269324303
4.628315449 4.615410805 1.499070525
4.612219334 4.59614563 1.733104467
4.600017548 4.572804451 -1.726375103
4.610901833 4.580420494 -1.490522265
4.617721558 4.585599422 -1.256730914
4.66149807 4.625835896 -1.033457756
4.680110931 4.641069889 -0.8041505218
4.693671227 4.652888298 -0.5745052695
4.691012859 4.647011757 -0.3438483775
4.709654808 4.662222862 -0.1149746552
4.685092926 4.655750751 0.1145907044
4.679662704 4.647109509 0.3434296846
4.701731205 4.667395115 0.5758997798
4.668026447 4.630702496 0.8022006154
4.656904697 4.61644125 1.031893373
4.682485104 4.640183449 1.27314055
4.647168636 4.601967812 1.499970317
4.637845516 4.589530945 1.736727953
4.618702412 4.559432507 -1.727410436
4.662931442 4.599881172 -1.502219796
4.647680759 4.583236217 -1.260547161
4.695906639 4.627561569 -1.037525058
4.704770565 4.633060932 -0.8056129813
4.709883213 4.636476994 -0.5745052695
4.728563309 4.65161705 -0.3454184532
4.727327347 4.647155762 -0.1150095612
4.718397617 4.656222343 0.1150095612
4.707234383 4.641963959 0.3442670703
4.729347229 4.66214323 0.5772942901
4.695477009 4.62552309 0.8041505218
4.675805092 4.602930069 1.032519102
4.709850311 4.634826183 1.2761935
4.67431879 4.5966506 1.503569484
4.662104607 4.581439018 1.739833713
4.642868519 4.551395416 -1.730516195
4.685918808 4.590395927 -1.504469395
4.676276684 4.579346657 -1.2639817
4.716265678 4.615287781 -1.038463593
2.27410388 2.223860741 -0.3854074478
4.737437725 4.631148815 -0.5758997798
4.759057522 4.649040699 -0.3464651704
4.752107143 4.639006138 -0.1152189896
4.740334034 4.645323277 0.1151491851
4.743388176 4.645067215 0.3457324803
4.74559164 4.645606995 0.5772942901
4.731462002 4.628537655 0.8075628281
4.708795547 4.603149414 1.036273599
4.731617928 4.623844624 1.277719975
4.707067966 4.596642971 1.508968353
4.683597565 4.570535183 1.741904259
4.669004917 4.546759129 -1.734657407
4.708099365 4.581625462 -1.506718755
4.695655346 4.5679245 -1.265126586
4.732962132 4.600998402 -1.038776517
4.770370007 4.63412571 -0.8114627004
4.767869949 4.628462791 -0.5776429176
4.780183315 4.638796329 -0.3468838632
4.784689903 4.639928341 -0.1156378537
4.758579254 4.632366657 0.1152189896
4.775941849 4.646027565 0.346988529
4.772398949 4.640955448 0.5786887407
4.752478123 4.618356705 0.8085377812
4.741039276 4.60402441 1.040027976
4.749741077 4.610864639 1.278483152
4.733473778 4.591864109 1.51256752
4.709826469 4.565734386 1.746045351
4.707862854 4.551098347 -1.742939591
4.731069565 4.571935177 -1.508968353
4.729315758 4.567045212 -1.269705892
4.764007568 4.5973382 -1.041905165
4.797947884 4.628469944 -0.8134126067
4.806946278 4.633916855 -0.5804318786
4.801468849 4.62539959 -0.3471978605
4.821021557 4.642618179 -0.116126515
4.79197216 4.632407188 0.1156378537
4.797877312 4.634877205 0.3474072218
4.806577206 4.640038967 0.5807805061
4.774283409 4.607254505 0.809512794
4.775565147 4.605273724 1.044095278
4.78074646 4.607046604 1.28229928
4.764307499 4.588002682 1.517066598
4.741045952 4.564002991 1.751739383
4.734868526 4.545340538 -1.747080684
4.753421307 4.559959412 -1.510767937
4.75231123 4.557306767 -1.271614075
4.794289589 4.594347 -1.045033813
4.819180012 4.614973545 -0.8141437769
4.834608078 4.628130436 -0.5818263888
4.826244354 4.616896152 -0.3478259146
4.838644505 4.627141953 -0.1161614209
4.823348045 4.628657341 0.1159868985
4.816910744 4.620864868 0.3476165831
4.831375599 4.631504536 0.5818263888
4.806904793 4.604831696 0.8121939301
4.795892715 4.592672825 1.045033813
4.81098032 4.603907585 1.286115527
4.784520149 4.575383663 1.518416286
4.772305489 4.562113285 1.757433414
4.746511936 4.524785042 -1.745527744
4.791089535 4.565680504 -1.51796639
4.773878098 4.546103954 -1.27314055
4.826668739 4.594765663 -1.048788309
4.837333202 4.601705074 -0.8146312833
4.856508732 4.616718292 -0.582523644
4.882065296 4.639391422 -0.3507567346
4.864916325 4.619864464 -0.1164057627
4.85603857 4.629195213 0.1164057627
4.84602499 4.616422176 0.3485586047
4.861945152 4.628347397 0.5835695267
4.840843678 4.606654167 0.8153625131
4.817622662 4.581348419 1.046285391
4.840451717 4.601453781 1.289931774
4.812383652 4.571570873 1.522465467
4.798009872 4.554736137 1.7610569
4.816902637 4.558308125 -1.521115661
4.803190708 4.543738842 -1.276956677
4.858465195 4.592820168 -1.052229881
4.883671284 4.613416672 -0.8197497725
4.868893147 4.597853184 -0.5821749568
4.895325661 4.619578362 -0.3505473733
2.300118923 2.169038773 -0.05448461697
4.875073433 4.614964485 0.1164755672
4.879522324 4.615947723 0.3498146832
4.883055687 4.617675781 0.5842667222
4.875652313 4.607451916 0.818531096
4.852252483 4.582138538 1.050352693
4.876471996 4.603395939 1.295274377
4.846736908 4.572132111 1.528314114
4.825127125 4.548560143 1.765197992
4.808160782 4.52148962 -1.756915808
4.832786083 4.541464806 -1.521115661
4.873028755 4.57447958 -1.051916957
4.90408802 4.60041666 -0.8204810023
4.909621239 4.603996754 -0.5851383209
4.91724968 4.607925892 -0.3509660661
4.930624008 4.617223263 -0.1172085702
2.306437016 2.168162823 0.05455442518
2.308823824 2.168890953 0.163812682
4.894601822 4.593119621 0.8190185428
4.8927145 4.588142395 1.055671453
4.886783123 4.580973625 1.293747902
4.878312588 4.569839478 1.533263087
4.852256775 4.542252064 1.769339085
4.8352108 4.515224934 -1.7610569
4.86924696 4.542238235 -1.286115527
4.923022747 4.58597517 -0.8209685087
4.938784122 4.599052429 -0.5867070556
4.940616608 4.597535133 -0.3514894247
4.973066807 4.624499321 -0.1178368554
2.472650766 2.306592703 0.1750125885
2.32729125 2.170233488 0.2746895254
4.916410923 4.581423759 0.8199935555
4.921710014 4.583152771 1.058487177
4.925732613 4.58529377 1.299853683
4.902796745 4.560745716 1.535962462
4.885063171 4.541069508 1.775550842
4.8707757 4.516708374 -1.768303871
4.894390583 4.535430431 -1.530563593
4.917892456 4.552425385 -1.0547328
4.952115059 4.580895901 -0.8231621385
4.976750851 4.602073669 -0.5893217921
4.983036995 4.604660988 -0.3533735275
4.980365753 4.59897089 -0.1176274195
2.315650463 2.146571398 0.05441480875
2.473361969 2.291160583 0.1744892299
2.374321461 2.198648214 0.2793959379
4.944030285 4.575018406 0.8219434619
4.933328629 4.561920166 1.057548642
4.964776039 4.589392662 1.305959582
4.924411774 4.548893929 1.537762046
4.922176361 4.543645859 1.783315301
4.903564453 4.515382767 -1.77451551
4.933137417 4.539429665 -1.537762046
