# .PCD v0.7 - Point Cloud Data file format
VERSION 0.7
FIELDS x y z
SIZE 4 4 4
TYPE F F F
COUNT 1 1 1
WIDTH 1250
HEIGHT 1
VIEWPOINT 0 0 0 1 0 0 0
POINTS 1250
DATA ascii
-2.519796848 1.197026014 -0.240350157
-2.511126518 1.193444967 -0.1435063332
-2.540766478 1.208619118 -0.04841117933
-2.519585133 1.192617178 0.04795741662
-2.503558159 1.186100125 0.1429829746
-2.522432089 1.196120143 0.2405244559
-2.472006321 1.172737002 0.3308099508
-2.522329092 1.197689295 0.435565114
-2.535484791 1.204478502 0.5373809338
-2.506348372 1.191709638 0.6307593584
-2.512788773 1.195848227 0.7340628505
-2.478202343 1.183102965 -0.7242277861
-2.481197596 1.185597181 -0.6249106526
-2.491795063 1.19119525 -0.5286037326
-2.508072853 1.2000525 -0.4336878955
-2.508869886 1.201510191 -0.3364159465
-2.510422945 1.202792645 -0.2398272157
-2.515949965 1.206520796 -0.1440296918
-2.520306826 1.209692955 -0.04809703678
-2.515407085 1.201404452 0.04795741662
-2.508412361 1.199139118 0.1435063332
-2.514857054 1.202759147 0.2401758432
-2.475059509 1.184787989 0.331784904
-2.509225607 1.202219009 0.4340007603
-2.531264782 1.213322282 0.5373809338
-2.505687237 1.202137113 0.6316591501
-2.503375292 1.202103019 0.7325099707
-2.454912186 1.1825248 -0.7185336947
-2.484065294 1.197636247 -0.6267102361
-2.492926598 1.202444792 -0.529748559
-2.50386858 1.208800077 -0.4336878955
-2.511810064 1.213715315 -0.3373908997
-2.500827789 1.208946943 -0.2393042892
-2.511723042 1.215295672 -0.1440296918
-2.51246953 1.216739416 -0.04802722484
-2.518403769 1.213650227 0.04809703678
-2.50960803 1.210491061 0.1438203603
-2.510643244 1.211530447 0.2401758432
-2.481633902 1.198599815 0.3332473338
-2.508570671 1.212689996 0.4346264899
-2.530549288 1.223859906 0.5381441712
-2.508491516 1.214273095 0.6334587336
-2.483516693 1.20325315 0.727851212
-2.454244375 1.192775846 -0.7195689678
-2.481622219 1.207152605 -0.6271601319
-2.495775461 1.214576006 -0.5312750936
-2.492530107 1.214072943 -0.4324364364
-2.514695406 1.225955367 -0.3383658528
-2.512495518 1.22596848 -0.2408730984
-2.518234491 1.229313016 -0.1446577311
-2.51359725 1.228135824 -0.04813193902
-2.506958246 1.218936086 0.04795741662
-2.517938614 1.225361705 0.1445530504
-2.509981394 1.222031236 0.2405244559
-2.477434874 1.207255125 0.3332473338
-2.513199568 1.225769043 0.4361908436
-2.522732735 1.230963707 0.5373809338
-2.511242151 1.226442337 0.6352583766
-2.494921923 1.21955061 0.7325099707
-2.470669508 1.211972237 -0.7257806659
-2.472144842 1.21323204 -0.6258104444
-2.494831562 1.225445867 -0.5320382714
-2.495154619 1.226686358 -0.4336878955
-2.506838083 1.232973576 -0.3378783762
-2.502838135 1.232091427 -0.240350157
-2.510128498 1.236768961 -0.1444483697
-2.512881994 1.238670707 -0.04820175096
-2.519024372 1.23678422 0.1448670775
-2.516214371 1.236494899 0.2415703386
-2.46607995 1.212392449 0.3322723806
-2.515995026 1.238022804 0.4374423027
-2.518204212 1.240201831 0.5373809338
-2.510226011 1.23736155 0.6361581683
-2.497579813 1.231670499 0.7345805168
-2.473349094 1.224017024 -0.727851212
-2.471174479 1.224014163 -0.6267102361
-2.494056702 1.235890985 -0.5328015089
-2.490857601 1.23538816 -0.4336878955
-2.495189905 1.238622904 -0.3369034231
-2.509228945 1.246136904 -0.2413960099
-2.498642206 1.241967559 -0.1440296918
-2.501380444 1.243873835 -0.04806213081
-2.503547907 1.239506006 0.04806213081
-2.498584509 1.23759079 0.1439250112
-2.51902318 1.24881041 0.2422675639
-2.458063364 1.219658375 0.331784904
-2.50635004 1.244162917 0.4365036786
-2.524408817 1.254225731 0.5396706462
-2.498911619 1.242646217 0.6343585849
-2.493265629 1.240380526 0.7345805168
-2.465604544 1.230917573 -0.7268159389
-2.477562189 1.237426639 -0.6294096708
-2.484459162 1.241955876 -0.5316566825
-2.495580912 1.248059154 -0.4352522194
-2.498169184 1.250444651 -0.3378783762
-2.504863501 1.254888892 -0.2413960099
-2.501652002 1.253826261 -0.1444483697
-2.57745719 1.292945623 -0.04963284731
-2.841147184 1.418401837 0.05472895131
-2.558568001 1.278443336 0.1476932019
-2.514648914 1.257595301 0.2422675639
-2.469982624 1.235796928 0.3339785635
-2.493160725 1.248481035 0.4349393547
-2.530767679 1.267866373 0.5419603586
-2.49129343 1.249177933 0.6334587336
-2.495827198 1.252542377 0.7366511226
-2.458058119 1.237349987 -0.7257806659
-2.480188847 1.24957478 -0.6312092543
-2.489092588 1.254606128 -0.5335647464
-2.492972851 1.25765264 -0.435565114
-2.504421711 1.264525175 -0.339340806
-2.490018606 1.257798076 -0.240350157
-2.515084505 1.271561861 -0.1454951018
-2.574939728 1.30238843 -0.04966775328
-2.580781221 1.299690723 0.04973756149
-3.025202751 1.524165034 0.1753266007
-2.496232986 1.258750796 0.2408730984
-2.478059292 1.25067246 0.3356847465
-2.503113747 1.263864636 0.4374423027
-2.522821903 1.274921775 0.5411971211
-2.50082922 1.264903665 0.63705796
-2.479593515 1.254706264 0.7330275774
-2.457169056 1.247671366 -0.7268159389
-2.472556591 1.25602746 -0.6303094625
-2.484698296 1.263286591 -0.5335647464
-2.479984999 1.261434913 -0.4340007603
-2.507290602 1.2764256 -0.3403157592
-2.492713213 1.270100951 -0.2410473973
-2.503736258 1.276267171 -0.145076409
-2.55790925 1.305007339 -0.04942341894
-2.56932497 1.304620504 0.04959794506
-2.722516775 1.383602619 0.1578463912
-2.502478838 1.272876263 0.2419189513
-2.463282824 1.253481388 0.3342222869
-2.507487774 1.27707696 0.4390066564
-2.515081644 1.281498313 0.5404338837
-2.500093222 1.274959803 0.6379577518
-2.487243414 1.269501925 0.7366511226
-2.456457376 1.257573485 -0.727851212
-2.46468854 1.262873411 -0.6294096708
-2.483989716 1.273310542 -0.5343280435
-2.480839014 1.272789121 -0.4349393547
-2.499288082 1.283356428 -0.3398282826
-2.499120951 1.283822656 -0.2420932651
-2.488608599 1.279519558 -0.1444483697
-2.590677738 1.333142877 -0.05015641823
-2.550516367 1.3062886 0.04931870475
-2.566596031 1.315655112 0.1489492804
-2.510653973 1.287532091 0.2431391329
-2.455360651 1.260258794 0.3337348402
-2.495985985 1.282212257 0.4377551973
-2.517577887 1.293858767 0.5419603586
-2.497359991 1.284571052 0.6384077072
-2.479362011 1.276407123 0.7356157899
-2.460635185 1.270572305 -0.7304394245
-2.458534002 1.27057445 -0.6289597154
-2.486505508 1.285580039 -0.5358544588
-2.488662004 1.28779614 -0.4371294677
-2.487741947 1.288421035 -0.3388533294
-2.494624376 1.292538404 -0.2420932651
-2.491219282 1.291876554 -0.1448670775
-2.832716942 1.470222592 -0.05500818789
-2.577920914 1.331703782 0.04994699359
-2.620535135 1.354876518 0.152403459
-2.499065638 1.292626858 0.2424418926
-2.457998037 1.272472501 0.3347097635
-2.500264883 1.295460939 0.4393195212
-2.516532183 1.304445982 0.5427235961
-2.48940134 1.291485906 0.6375079155
-2.492036104 1.293956995 0.7407921553
-2.452758312 1.277369142 -0.7294041514
-2.464452267 1.284553051 -0.6316591501
-2.471558094 1.288805366 -0.5335647464
-2.484151602 1.29647541 -0.4371294677
-2.486748219 1.298936009 -0.339340806
-2.493629217 1.30308342 -0.2424418926
-2.497313023 1.306119084 -0.1454951018
-2.567134857 1.34377718 -0.04987718165
-2.910208464 1.516249061 0.05657890439
-2.564432383 1.337235093 0.1493679583
-2.494538784 1.301341772 0.2424418926
-2.457060575 1.282882333 0.3351972401
-2.492226362 1.302350283 0.4386937916
-2.518922806 1.316860676 0.544250071
-2.488331556 1.301974058 0.6384077072
-2.4823699 1.299959421 0.7392392755
-2.444864273 1.284126163 -0.7283688784
-2.466852903 1.296774864 -0.6334587336
-2.473995209 1.30107975 -0.5350912213
-2.484855175 1.307899237 -0.4380680621
-2.492736816 1.313158989 -0.3408032358
-2.485540152 1.309922099 -0.2420932651
-2.499805212 1.318555117 -0.1459137946
-2.728658199 1.440485001 -0.0531582348
-2.565020561 1.347808242 0.04987718165
-2.953948975 1.553488493 0.1727098078
-2.482927561 1.306331277 0.2417446524
-2.461349964 1.296075225 0.3364159465
-2.489412546 1.311962843 0.4390066564
-2.514311075 1.325644851 0.544250071
-2.490665913 1.314290047 0.6402073503
-2.474400997 1.30681169 0.7382039428
-2.447195292 1.296269536 -0.7304394245
-2.458868265 1.303551793 -0.6325589418
-2.481578827 1.316147447 -0.5377625823
-2.471550703 1.311933517 -0.4365036786
-2.502162218 1.329303026 -0.3427531421
-2.493268251 1.325135231 -0.2433134466
-2.491660833 1.325397134 -0.1457044482
-2.66712904 1.419929266 -0.05204127729
-3.03030467 1.60581851 0.0591618605
-2.572678566 1.364463687 0.1504146755
-2.48539257 1.318725824 0.2424418926
-2.462070227 1.307452679 0.3371471465
-2.493539333 1.325279355 0.4405709803
-2.502734184 1.33072722 0.5427235961
-2.499825239 1.330299854 0.6438065171
-2.474939346 1.318165421 0.7397568822
-2.442655087 1.304804564 -0.7304394245
-2.450865984 1.310289383 -0.6316591501
-2.482162952 1.327579498 -0.5389074087
-2.473922253 1.324281931 -0.4377551973
-2.490507841 1.334279418 -0.3417782187
-2.488627195 1.333830833 -0.2433134466
-2.483498812 1.332198381 -0.1454951018
-2.60930109 1.40085423 -0.05099413544
-2.555548906 1.365682125 0.04987718165
-2.555572033 1.366842031 0.1496819854
-2.484287739 1.329272866 0.2427905053
-2.445241451 1.309479117 0.3354409933
-2.494121313 1.336775541 0.4415096045
-2.501534462 1.341310859 0.5434868336
-2.488297939 1.335331917 0.6420069337
-2.477130651 1.330453038 0.7418274879
-2.448290825 1.318819523 -0.7335452437
-2.449707508 1.320686817 -0.6325589418
-2.479242086 1.337167144 -0.5392889977
-2.472760677 1.334786654 -0.4383809268
-2.485835314 1.342964292 -0.3417782187
-2.492719889 1.347246408 -0.2441850007
-2.48234725 1.342759371 -0.1457044482
-2.701114416 1.462315321 -0.05291389674
-2.536683321 1.36700511 0.04959794506
-2.552543163 1.376701832 0.1497866511
-2.493659973 1.345505357 0.2441850007
-2.442402601 1.318949938 0.3356847465
-2.494653225 1.348291397 0.4424482286
-2.507198811 1.355637312 0.545776546
-2.476766109 1.340299964 0.6402073503
-2.484362364 1.34553194 0.7454509139
-2.440277338 1.325513601 -0.7325099707
-2.451931238 1.33295238 -0.6343585849
-2.469385386 1.342999458 -0.5381441712
-2.475026608 1.347187757 -0.4396324158
-2.477645636 1.349734664 -0.3412907422
-2.481004 1.352125764 -0.2434877604
-2.48816514 1.357155085 -0.1463324726
-2.555578232 1.395081997 -0.05012151599
-2.549466372 1.385399461 0.04994699359
-2.577549696 1.401825666 0.1515660733
-2.485447884 1.352297306 0.243836388
-2.443013906 1.330314875 0.3364159465
-2.474320889 1.348483443 0.4396324158
-2.512794018 1.370019078 0.5480661988
-2.472072601 1.348937273 0.6402073503
-2.471173048 1.349566102 0.742862761
-2.430552244 1.331239581 -0.7309570909
-2.454098701 1.34525001 -0.6361581683
-2.468125105 1.353499055 -0.5389074087
-2.470309258 1.35581851 -0.4396324158
-2.486837864 1.366020799 -0.3432406187
-2.472777128 1.358858228 -0.2431391329
-2.493912697 1.371607184 -0.1469605118
-2.547188759 1.40206635 -0.05005170777
-2.553383112 1.399095535 0.05012151599
-2.551625967 1.399290204 0.1503100097
-2.471978188 1.356173992 0.242964834
-2.448795795 1.34456706 0.3378783762
-2.479986191 1.362819791 0.4415096045
-2.501114845 1.374998808 0.5465397835
-2.484422684 1.366951823 0.6447063684
-2.464754581 1.357252002 0.7423450947
-2.425890923 1.339715242 -0.7309570909
-2.452799082 1.355693579 -0.63705796
-2.468539476 1.364956856 -0.5400522947
-2.462104797 1.362520337 -0.4390066564
-2.492474079 1.380463362 -0.3447030485
-2.474989653 1.37134409 -0.243836388
-2.483870029 1.377397895 -0.1466464847
-2.558015347 1.419682622 -0.05036585033
-2.546733618 1.407032371 0.05008661002
-2.571195602 1.42171967 0.1517754197
-2.477689981 1.370580435 0.2440107018
-2.445823669 1.354068875 0.3381221294
-2.475214005 1.371468306 0.4415096045
-2.492865324 1.381818056 0.545776546
-2.483044147 1.377506495 0.6456061602
-2.465069294 1.368660212 0.7438979745
-2.431325912 1.353814483 -0.7340628505
-2.437838554 1.358554959 -0.6343585849
-2.472333908 1.378344774 -0.5419603586
-2.46078372 1.373031616 -0.4396324158
-2.484173775 1.387219667 -0.3442156017
-2.477144957 1.383862495 -0.2445336282
-2.47381711 1.383135796 -0.1463324726
-2.607141256 1.45887351 -0.05144789815
-2.548794508 1.419806123 0.05022623017
-2.566217661 1.430685639 0.1517754197
-2.472890615 1.379220963 0.2440107018
-2.435882568 1.359695077 0.3373908997
-2.48248291 1.386844516 0.4436996877
-2.494882107 1.394342065 0.547303021
-2.474818707 1.384263635 0.6447063684
-2.46701932 1.381031036 0.7459685206
-2.435008287 1.367021918 -0.7366511226
-2.439876795 1.370875239 -0.6361581683
-2.469218731 1.387928486 -0.5423419476
-2.462862253 1.38548696 -0.4408838749
-2.479316473 1.395882726 -0.3442156017
-2.484451294 1.399344921 -0.2457538247
-2.475933552 1.395685792 -0.1467511654
-2.549783707 1.438488364 -0.0504007563
-2.571719646 1.444361567 0.05078470334
-2.555984497 1.436698794 0.1514613926
-2.481954098 1.395656943 0.2454051822
-2.436311245 1.371110439 0.3381221294
-2.482790232 1.398409367 0.4446382821
-2.493420362 1.404969931 0.5480661988
-2.469972134 1.392893434 0.6447063684
-2.47059536 1.394382596 0.7485567927
-2.425417662 1.372235417 -0.7350981832
-2.442100763 1.382798791 -0.6379577518
-2.464602709 1.396109104 -0.5423419476
-2.466846943 1.398517251 -0.4424482286
-2.464314461 1.398219109 -0.3427531421
-2.474599123 1.404625416 -0.2452308834
-2.478237867 1.407834768 -0.1471698433
-2.66668582 1.516119599 -0.05284408852
-2.563434839 1.450912356 0.05071489513
-2.685017824 1.520966411 0.1595211327
-2.473845482 1.401915312 0.2450565547
-2.447291374 1.387995958 0.3403157592
-2.459242344 1.395908713 0.4411967695
-2.498991013 1.419047475 0.5503559709
-2.465339184 1.401076555 0.6447063684
-2.464278936 1.401612163 0.7480391264
-2.418934822 1.379736185 -0.7345805168
-2.445720673 1.396146297 -0.6402073503
-2.458009481 1.403730273 -0.5419603586
-2.458519697 1.405159712 -0.441822499
-2.473203897 1.41469717 -0.3447030485
-2.467951536 1.412265301 -0.2450565547
-2.480241776 1.420446873 -0.147588551
-2.532993317 1.451833129 -0.05026113242
-2.596565247 1.481654644 0.05148280412
-2.546145916 1.454063535 0.1514613926
-2.465477467 1.408564925 0.244707942
-2.452771187 1.402442217 0.3417782187
-2.469784975 1.413314462 0.4440125525
-2.494022369 1.427761912 0.5503559709
-2.4739604 1.417423725 0.6483055353
-2.445964098 1.402517915 0.7438979745
-2.420802832 1.392022967 -0.7366511226
-2.447588205 1.408563018 -0.6420069337
-2.459900618 1.416219473 -0.5434868336
-2.451888084 1.412746906 -0.4415096045
-2.475128889 1.427289009 -0.3456780016
-2.468184233 1.423858404 -0.245579496
-2.475267887 1.42909646 -0.147588551
-2.477948189 1.431220651 -0.04924889654
-2.539376497 1.460795522 0.05043565854
-2.487647057 1.431616426 0.1482165605
-2.458818436 1.416168571 0.2445336282
-2.447860956 1.410994887 0.3417782187
-2.471929789 1.425444245 0.4452640414
-2.482221842 1.432533145 0.5488294959
-2.475747585 1.429949641 0.6501051784
-2.447990894 1.414486766 0.7459685206
-2.420943022 1.403371215 -0.7382039428
-2.427731752 1.407873392 -0.6379577518
-2.461734056 1.428739309 -0.5450133085
-2.455731153 1.425829291 -0.4430739582
-2.46694994 1.433493853 -0.3451905251
-2.468366385 1.435469508 -0.2461024374
-2.465336084 1.434283972 -0.147274524
-2.472937584 1.439861059 -0.04924889654
-2.472236872 1.433105111 0.0491790846
-2.461903811 1.428263664 0.1469605118
-2.472813368 1.435747385 0.24645105
-2.448318243 1.422095895 0.3425094187
-2.472062111 1.437042356 0.4462026358
-2.480852127 1.442730546 0.5495927334
-2.474360466 1.440112233 0.6510049701
-2.45973134 1.432747483 0.7511449456
-2.432956934 1.421135426 -0.7433803678
-2.42953229 1.420272589 -0.6397573948
-2.455287933 1.435904026 -0.54463166
-2.450739384 1.434392214 -0.4430739582
-2.46535635 1.444103479 -0.3456780016
-2.477091074 1.452137947 -0.2474969327
-2.462037086 1.443891287 -0.1473791897
-2.474794626 1.452533364 -0.04938851297
-2.470672607 1.443744302 0.04924889654
-2.460351229 1.438865185 0.1471698433
-2.471478224 1.445952058 0.2467996776
-2.443339348 1.430633426 0.3425094187
-2.460214138 1.441667438 0.4449511766
-2.479188204 1.453367352 0.5503559709
-2.459233999 1.442823291 0.6483055353
-2.459712505 1.444259286 0.7526978254
-2.429396868 1.431023836 -0.7438979745
-2.43295455 1.433691382 -0.6420069337
-2.441553116 1.439906836 -0.5427235961
-2.452270508 1.447381377 -0.4443254471
-2.463719606 1.45471859 -0.346165508
-2.45828414 1.452667594 -0.2461024374
-2.470481873 1.461038232 -0.1482165605
-2.464545965 1.45810914 -0.04928379878
-2.465617895 1.452359796 0.04924889654
-2.467357635 1.454544663 0.1479025483
-2.467878103 1.456012726 0.2469739914
-2.455425739 1.449243784 0.3449468017
-2.45176506 1.448237181 0.4443254471
-2.490745068 1.472435236 0.5541720986
-2.463992119 1.457781553 0.6510049701
-2.451331615 1.450868011 0.7516625524
-2.40777564 1.429632306 -0.7387216091
-2.427683353 1.442599058 -0.6420069337
-2.444950104 1.453436852 -0.54463166
-2.447203159 1.455932617 -0.4443254471
-2.468605042 1.469832182 -0.347627908
-2.45319891 1.461239219 -0.2461024374
-2.468797922 1.471698523 -0.1484259069
-2.464593649 1.469775438 -0.04938851297
-2.463716507 1.463429332 0.04931870475
-2.467416286 1.466209531 0.1482165605
-2.454218388 1.45952642 0.2461024374
-2.460332155 1.464324951 0.3464092314
-2.451786757 1.459818363 0.4452640414
-2.482217073 1.479110599 0.5534089208
-2.458888531 1.466373086 0.6510049701
-2.442934275 1.457436442 0.7506272793
-2.414373875 1.444972992 -0.7423450947
-2.43291831 1.456647515 -0.6447063684
-2.451650143 1.469026089 -0.547303021
-2.43897295 1.462008595 -0.4436996877
-2.473931074 1.484137774 -0.3490903676
-2.454916 1.473895907 -0.2467996776
-2.463903904 1.479877114 -0.1484259069
-2.466303825 1.482490301 -0.04952813312
-2.455418348 1.469537497 0.04924889654
-2.469136953 1.478918791 0.1486352682
-2.449108601 1.468084335 0.2461024374
-2.458868027 1.474517703 0.3468967378
-2.461920023 1.477516532 0.4480798542
-2.470565557 1.483291745 0.5518824458
-2.464034796 1.48054111 0.6537043452
-2.441142797 1.467946172 0.7516625524
-2.416186571 1.45696187 -0.7444156408
-2.417807579 1.459090352 -0.6420069337
-2.453487873 1.481206894 -0.5488294959
-2.4406178 1.4745996 -0.4449511766
-2.461940765 1.48865521 -0.3481154144
-2.453165054 1.484519243 -0.2471483052
-2.45872283 1.488469601 -0.1484259069
-2.473086119 1.498343825 -0.04977246746
-2.453698635 1.480164886 0.04931870475
-2.45712018 1.48339963 0.1482165605
-2.461282015 1.486497521 0.2478455603
-2.448609114 1.480011344 0.346165508
-2.460127592 1.488146067 0.4487055838
-2.472091436 1.495972395 0.5534089208
-2.462185621 1.491152287 0.6546041965
-2.445916176 1.482467175 0.7547684312
-2.41248107 1.466810942 -0.7449332476
-2.419359446 1.471572042 -0.6438065171
-2.444688797 1.488147736 -0.5480661988
-2.441944838 1.487645268 -0.4462026358
-2.456729174 1.497240543 -0.3481154144
-2.454772472 1.497222781 -0.2478455603
-2.460070372 1.501633048 -0.1488445997
-2.459307671 1.501756072 -0.04959794506
-2.458768845 1.494954228 0.04952813312
-2.448514938 1.489890695 0.148007229
-2.459220171 1.49758172 0.2481941581
-2.441732883 1.487516284 0.3459217548
-2.449858189 1.493639469 0.4477669895
-2.466591835 1.505023122 0.5534089208
-2.453377724 1.498134851 0.6537043452
-2.447321177 1.495023727 0.7568389177
-2.40734601 1.47522366 -0.7449332476
-2.423917294 1.486541748 -0.6465059519
-2.442825794 1.498725772 -0.5488294959
-2.446837425 1.502361894 -0.4480798542
-2.454607964 1.508312941 -0.348602891
-2.45122838 1.506826401 -0.2480198741
-2.454813957 1.510210633 -0.1488445997
-2.452083588 1.509711742 -0.04956303909
-2.463502169 1.510226846 0.04973756149
-2.448144674 1.501988888 0.1483212411
-2.460770369 1.510325313 0.2488914132
-2.449795961 1.504768133 0.3478716612
-2.439318895 1.499505401 0.4468283951
-2.478046656 1.523908257 0.5572250485
-2.448132992 1.506690264 0.6537043452
-2.438535213 1.501957417 0.7558037043
-2.400538683 1.482602358 -0.7444156408
-2.428658962 1.501142144 -0.6492053866
-2.440919399 1.509308219 -0.5495927334
-2.446617365 1.514012814 -0.4490184784
-2.459453583 1.523142815 -0.3500652909
-2.444259644 1.514324427 -0.2478455603
-2.463106871 1.527190208 -0.1496819854
-2.45019722 1.52037096 -0.04963284731
-2.45651412 1.51776588 0.04970265925
-2.45138073 1.515776873 0.1488445997
-2.445316553 1.512617111 0.2478455603
-2.459719419 1.522713661 0.3500652909
-2.4407866 1.51217258 0.4480798542
-2.469374895 1.530479908 0.5564618707
-2.452794552 1.521389723 0.65640378
-2.433277607 1.510460258 0.7558037043
-2.398628712 1.493014455 -0.7454509139
-2.420096397 1.507549167 -0.6483055353
-2.43896842 1.51989615 -0.5503559709
-2.426232576 1.513135314 -0.4462026358
-2.46085763 1.5359236 -0.3510402739
-2.438958883 1.522847295 -0.2478455603
-2.454373121 1.533662558 -0.149472639
-2.446837664 1.529547691 -0.04966775328
-2.44780612 1.524217486 0.04963284731
-2.454817057 1.529177785 0.1493679583
-2.443402767 1.523252368 0.2481941581
-2.454389095 1.531290293 0.3500652909
-2.444137335 1.525487781 0.449644208
-2.457356691 1.534929991 0.5549353361
-2.457383871 1.536140203 0.6591031551
-2.431531668 1.520569086 0.7568389177
-2.404858112 1.508564472 -0.7490743995
-2.411782503 1.513494611 -0.6474057436
-2.440298319 1.532576919 -0.5518824458
-2.432910204 1.528529167 -0.4483927488
-2.455750942 1.544075251 -0.3510402739
-2.445432901 1.538778782 -0.249065727
-2.450963736 1.542857051 -0.1495773047
-2.453327656 1.545540094 -0.04991208389
-2.441044092 1.531263947 0.04959794506
-2.454538822 1.540923238 0.1496819854
-2.44819355 1.538131356 0.2492400408
-2.445936203 1.537308455 0.3495778143
-2.44715786 1.53926897 0.4512085319
-2.455576897 1.545161843 0.5556986332
-2.45227623 1.544280887 0.6591031551
-2.436014891 1.535228372 0.7599447966
-2.412907124 1.524787068 -0.7532154918
-2.413072824 1.526070714 -0.6492053866
-2.438520908 1.542760253 -0.5526456833
-2.434235334 1.541239142 -0.449644208
-2.446992159 1.550513625 -0.3505527973
-2.44704771 1.551146626 -0.2497629821
-2.435444117 1.544984102 -0.1489492804
-2.454942465 1.557953358 -0.05005170777
-2.450896978 1.549391747 0.04991208389
-2.434223175 1.539446473 0.1487399191
-2.453180313 1.552634478 0.2502858937
-2.448940277 1.551148176 0.3507965207
-2.438702822 1.545261145 0.4505828023
-2.46011591 1.560032248 0.557988286
-2.440289497 1.548654437 0.6573035717
-2.437434196 1.547439098 0.7620153427
-2.405940533 1.532161951 -0.7526978254
-2.414572954 1.538252473 -0.6510049701
-2.434776545 1.552317739 -0.5530272722
-2.439103842 1.555676341 -0.4515214264
-2.445184231 1.560754657 -0.3510402739
-2.438260078 1.55753386 -0.2494143546
-2.452185869 1.567032933 -0.1503100097
-2.439381123 1.560048819 -0.04984227568
-2.452492476 1.561807394 0.05005170777
-2.440624714 1.555448174 0.149472639
-2.4477458 1.561188102 0.2502858937
-2.447129726 1.561396241 0.3512839973
-2.433294535 1.553763866 0.4505828023
-2.458238125 1.570295572 0.5587515235
-2.43514061 1.556738138 0.6573035717
-2.432017326 1.555938482 0.7620153427
-2.423611164 1.554735661 -0.7599447966
-2.458385229 1.578255296 -0.664501965
-2.464305401 1.582662582 -0.5610412359
-2.47021699 1.587678075 -0.458404541
-2.483129263 1.597202182 -0.3573774695
-2.461288929 1.58436799 -0.2523776591
-2.476927042 1.595046759 -0.1521940976
-2.469218969 1.591302752 -0.0505752787
-2.447025299 1.57035923 0.05005170777
-2.44358325 1.569354057 0.1499959975
-2.440879107 1.5682199 0.2501116097
-2.456692457 1.579590678 0.3534776568
-2.432839394 1.56545496 0.4515214264
-2.459345579 1.583117008 0.5602779984
-2.439520836 1.571561098 0.6600030065
-2.423324347 1.562324286 0.7609800696
-2.429251432 1.570952058 -0.7635682225
-2.456134081 1.588943601 -0.6654018164
-2.463432074 1.594885707 -0.5621861219
-2.472670078 1.602091908 -0.4599688649
-2.487533092 1.612338305 -0.3588398993
-2.472458363 1.603793263 -0.2541207671
-2.474414825 1.606289625 -0.152403459
-2.497191191 1.621694684 -0.05127337575
-2.4751122 1.600609303 0.0507498011
-2.480009079 1.605002999 0.1526127905
-2.476922274 1.604232311 0.2544693947
-2.447831392 1.585998297 0.3529901803
-2.429017305 1.575012326 0.4518342614
-2.443644762 1.585708737 0.557988286
-2.440282106 1.58473742 0.6618025899
-2.417856216 1.57077384 0.7609800696
-2.439938545 1.589968562 -0.7687446475
-2.440499306 1.591548681 -0.6627023816
-2.472648621 1.613128781 -0.5656206608
-2.46540904 1.609633565 -0.4596560299
-2.474960327 1.617101073 -0.3578649461
-2.473515749 1.616774082 -0.2548179924
-2.473806858 1.618197203 -0.1527174562
-2.497922897 1.635217428 -0.05141299218
-2.465879202 1.607485771 0.05067999288
-2.47410965 1.614081979 0.1526127905
-2.482986689 1.620491147 0.2556895614
-2.43701601 1.591702938 0.3522589505
-2.429842472 1.588227749 0.4530857801
-2.444667339 1.598526835 0.5595148206
-2.437996626 1.595380068 0.6627023816
-2.418547392 1.583858848 0.7630506158
-2.44406271 1.604838133 -0.7718504667
-2.438186169 1.602198482 -0.6636021733
-2.46700263 1.621750236 -0.5656206608
-2.471327066 1.625829458 -0.4618461132
-2.48090601 1.633372307 -0.3595711291
-2.477840662 1.631973982 -0.2558638752
-2.4748137 1.631219149 -0.153136149
-2.487192392 1.640623093 -0.05130828172
-2.475294828 1.625964284 0.05099413544
-2.470129013 1.623805404 0.1527174562
-2.485637903 1.634622812 0.2565611005
-2.436419964 1.603473425 0.3529901803
-2.43253231 1.602132559 0.454650104
-2.452188015 1.615691423 0.5625677705
-2.429158926 1.601735115 0.6618025899
-2.42590332 1.600803494 0.7671917081
-2.432001352 1.609095812 -0.769779861
-2.445577621 1.619305968 -0.6672013998
-2.451506376 1.623847008 -0.5633309484
-2.475515842 1.640994072 -0.4637233019
-2.482093811 1.645978212 -0.3605460823
-2.472129345 1.64061296 -0.2558638752
-2.479087114 1.646478057 -0.1537641883
-2.473409891 1.643328786 -0.05113375187
-2.477941513 1.640114069 0.05116865784
-2.466396093 1.633090734 0.1528221369
-2.483238459 1.645490527 0.2569097579
-2.437425375 1.61635673 0.3539651334
-2.417329311 1.603638411 0.4527728856
-2.453075171 1.628585219 0.5640941858
-2.427080631 1.611938119 0.6627023816
-2.420581341 1.608839273 0.7671917081
-2.421829224 1.613937974 -0.7682270408
-2.4483006 1.632813096 -0.6694509387
-2.452640295 1.636325836 -0.5648574233
-2.463489056 1.644806743 -0.4624718428
-2.473320246 1.651994944 -0.3600585759
-2.458393097 1.643265724 -0.2549923062
-2.480253696 1.659131765 -0.1541828662
-2.474594355 1.655970693 -0.05127337575
-2.47248888 1.648322344 0.05116865784
-2.467613459 1.645693183 0.1532408148
-2.466167927 1.64597404 0.2556895614
-2.446908474 1.634353876 0.356158793
-2.418567896 1.616035819 0.4540243745
-2.4476614 1.636710525 0.5640941858
-2.434679747 1.628645778 0.6663016081
-2.412022591 1.614707708 0.766156435
-2.422879934 1.626266837 -0.7702975273
-2.442872524 1.640923142 -0.6694509387
-2.460236549 1.653210163 -0.5679103732
-2.45966053 1.654069424 -0.4627847075
-2.484299183 1.671268225 -0.3624959588
-2.462846518 1.658085465 -0.2560381889
-2.476394653 1.668463707 -0.1542875469
-2.475722313 1.66863811 -0.05141299218
-2.463689566 1.654281735 0.05109884962
-2.473748207 1.661662936 0.1539735347
-2.462350368 1.65525353 0.2558638752
-2.438180923 1.640243053 0.3556712866
-2.41975069 1.628458619 0.4552758336
-2.43896389 1.642625213 0.5633309484
-2.435730219 1.641066074 0.6681011915
-2.413061857 1.627017379 0.7682270408
-2.42387557 1.638620377 -0.7723681331
-2.43418932 1.646831155 -0.668551147
-2.461244583 1.665761352 -0.5694368482
-2.462339401 1.667755604 -0.4643490613
-2.475456715 1.677270293 -0.362008512
-2.462281704 1.669597864 -0.2565611005
-2.467543125 1.674422979 -0.1540782005
-2.481756687 1.684700847 -0.05165733024
-2.461503029 1.664683104 0.05116865784
-2.466570139 1.668737888 0.153868854
-2.476644993 1.676814675 0.2579556108
-2.42944169 1.646092296 0.35518381
-2.420878172 1.640906692 0.4565272927
-2.433503151 1.650704145 0.5633309484
-2.427050114 1.646945357 0.6672013998
-2.414045811 1.639351726 0.7702975273
-2.423950911 1.652267694 -0.7744386792
-2.431068182 1.658361435 -0.6694509387
-2.454830408 1.675199628 -0.5694368482
-2.457548618 1.678312063 -0.4646618962
-2.463786602 1.683833599 -0.3612772822
-2.46572113 1.685786963 -0.2576069832
-2.470985651 1.690652251 -0.1547062248
-2.47332406 1.693519831 -0.05162242055
-2.468309641 1.683135509 0.05144789815
-2.459851265 1.678625941 0.153868854
-2.470188379 1.68631196 0.2579556108
-2.424742222 1.656528592 0.3554275632
-2.414271593 1.65061152 0.4565272927
-2.440110922 1.668902636 0.5663838983
-2.417203188 1.654473543 0.6663016081
-2.413820982 1.653396249 0.7723681331
-2.42613101 1.666187048 -0.7770268321
-2.431688309 1.671253085 -0.6712505817
-2.442496538 1.67930913 -0.5679103732
-2.458184958 1.691359401 -0.465913415
-2.461164713 1.69467473 -0.3617647886
-2.459821463 1.694383621 -0.2576069832
-2.46835804 1.70153451 -0.1549155712
-2.460813284 1.69760108 -0.05148280412
-2.473957062 1.699667096 0.05169223249
-2.460560083 1.691728592 0.1542875469
-2.467570305 1.697181821 0.2583042383
-2.425485849 1.669484496 0.3564025164
-2.401988029 1.654546618 0.4552758336
-2.440736771 1.681865811 0.5679103732
-2.421038628 1.669538856 0.6690009832
-2.404854536 1.659617186 0.7713328004
-2.409179926 1.666950822 -0.7734034061
-2.438656569 1.688606024 -0.6748497486
-2.446303368 1.694531798 -0.5702000856
-2.449018955 1.697678804 -0.4652876258
-2.468281984 1.712308168 -0.363714695
-2.44734478 1.698416114 -0.2569097579
-2.468965292 1.714697599 -0.155334264
-2.456812382 1.706892967 -0.05151770636
-2.459787607 1.702602863 0.05151770636
-2.461504698 1.704426765 0.1547062248
-2.458355427 1.703516006 0.2579556108
-2.43269372 1.686989903 0.3583524227
-2.402980328 1.66700685 0.4565272927
-2.434851408 1.690374732 0.5679103732
-2.41839695 1.680203557 0.6699008346
-2.399338245 1.667582393 0.7713328004
-2.409685612 1.679769278 -0.7754738927
-2.436240673 1.698913097 -0.6757495999
-2.450033188 1.709802032 -0.5724897981
-2.443375587 1.705790997 -0.4652876258
-2.465844631 1.722757697 -0.3642021716
-2.451198816 1.713798046 -0.2579556108
-2.463265657 1.722875714 -0.155334264
-2.460669279 1.72233808 -0.05172713846
-2.454128265 1.710749865 0.05151770636
-2.467006683 1.721007109 0.1554389298
-2.458928823 1.716649055 0.2586528659
-2.427085876 1.695047736 0.3583524227
-2.413338184 1.68670094 0.4596560299
-2.426014423 1.69619 0.5671471357
-2.419198513 1.692682981 0.671700418
-2.393501997 1.675948024 0.7713328004
-2.413589001 1.69441092 -0.7785797715
-2.430295706 1.707406521 -0.6757495999
-2.45398736 1.724690557 -0.5747795105
-2.437406778 1.714309096 -0.4652876258
-2.458192587 1.730211854 -0.3639584184
-2.453345776 1.728080511 -0.2588271797
-2.453971148 1.729162574 -0.1551249176
-2.464447021 1.737832189 -0.0519365631
-2.449777842 1.720456004 0.05155261233
-2.456082106 1.726162791 0.1551249176
-2.458112001 1.72823143 0.2591757774
-2.409789801 1.695513844 0.3566462696
-2.40905118 1.696251392 0.4599688649
-2.426499128 1.709170222 0.5686736107
-2.413275719 1.701116562 0.671700418
-2.400266409 1.693201542 0.7754738927
-2.413670301 1.707708955 -0.7806503177
-2.421139479 1.713627696 -0.6748497486
-2.447649479 1.733673334 -0.5747795105
-2.445611 1.733512759 -0.4681034684
-2.453758001 1.739930034 -0.3642021716
-2.460297108 1.74585855 -0.2602216601
-2.445988894 1.736988306 -0.1550202519
-2.456735849 1.74526608 -0.05190166086
-2.451919794 1.734771132 0.05172713846
-2.445151567 1.731263518 0.1548109055
-2.463141441 1.745291948 0.2603959739
-2.410334349 1.708507657 0.3576211929
-2.407948971 1.70807898 0.4609074891
-2.426621914 1.722598195 0.5702000856
-2.407024145 1.709950924 0.671700418
-2.403789997 1.708283782 0.7785797715
-2.399828672 1.710517526 -0.7780621052
-2.42277503 1.728148341 -0.6770992279
-2.449190855 1.748926163 -0.4699806869
-2.457054615 1.755836725 -0.3656645715
-2.452567577 1.753276944 -0.2600473762
-2.451281071 1.753651023 -0.155752942
-2.444124222 1.749175191 -0.0517620407
-2.452057838 1.748389959 0.05186675489
-2.44559741 1.744427323 0.1552295834
-2.457034111 1.753879547 0.2603959739
-2.418594122 1.727714777 0.3598148823
-2.398757696 1.714177132 0.4602817595
-2.433369398 1.740194559 0.5732530355
-2.407379866 1.722878695 0.673500061
-2.40095377 1.718913317 0.7796150446
-3.268544436 2.347822189 -0.919146657
-3.282624722 2.362281322 -0.4914337695
-3.277451277 2.360295296 -0.3496434689
-3.29298234 2.372353077 -0.210496366
-3.297708511 2.377506733 -0.07026159018
-2.452743769 1.761177182 0.05200637504
-2.457334518 1.765773892 0.1563809812
-2.412851572 1.73572576 0.3598148823
-2.399172068 1.727156281 0.4615332186
-2.424399137 1.74595964 0.5724897981
-2.404815197 1.733131289 0.6743998528
-2.393372059 1.726153731 0.7790973783
-3.235051155 2.339206219 -1.058104277
-3.2587502 2.358074903 -0.9186967611
-3.274126053 2.370071888 -0.777418673
-3.270690441 2.369325161 -0.6329854727
-3.300073862 2.392367601 -0.495333612
-3.278868198 2.378741026 -0.350689292
-3.295995235 2.392045736 -0.2112290561
-3.299097538 2.396054506 -0.07047101855
-3.515944004 2.543247938 0.07504355162
-3.492339849 2.52895999 0.3735240996
-3.499808073 2.536231995 0.5255571604
-3.530106783 2.560068607 0.6839830875
-3.29230094 2.388486147 0.7823796868
-3.490009785 2.533779144 0.9857321382
-3.496990919 2.54071331 1.146620393
-3.228016853 2.352185011 -1.058621883
-3.241050482 2.362548351 -0.9159973264
-3.273347855 2.387841463 -0.7793267965
-3.261985064 2.381296158 -0.6329854727
-3.285290003 2.399189234 -0.4943585992
-3.283414602 2.399576426 -0.352083832
-3.279145956 2.39821434 -0.2107057124
-3.300396442 2.41464138 -0.07068044692
-3.511892796 2.559039116 0.07514826953
-3.568128586 2.60192275 0.229232654
-3.50075078 2.554663658 0.375441581
-3.495744228 2.551943779 0.5262883902
-3.540290356 2.586359024 0.6877375245
-3.297788858 2.410965443 0.7858142853
-3.472834826 2.540801048 0.9834825993
-3.488101482 2.552903652 1.146620393
-3.271021128 2.410723448 -0.07022668421
-3.396110535 2.493777514 0.07284455001
-3.46888423 2.54814744 0.2233710289
-3.503049374 2.575127602 0.3766617477
-3.486366987 2.564740181 0.5262883902
-3.531241179 2.598700523 0.6877375245
-3.292513847 2.424790144 0.7865774632
-3.465514421 2.554063797 0.9839325547
-3.485388756 2.569649696 1.148690939
-3.177344322 2.34939456 -1.047233939
-3.199410677 2.366574526 -0.9087988734
-3.212415218 2.377928972 -0.7686414719
-3.225063086 2.388162851 -0.6289181709
-3.233372927 2.396064043 -0.4889963865
-3.232974052 2.397518396 -0.3484232426
-3.238685369 2.40262866 -0.2091356218
-3.230474472 2.398287058 -0.06952859461
-3.262406826 2.412291527 0.07012197375
-3.2689116 2.418867588 0.210915044
-3.48923564 2.583782911 0.3761388063
-3.490603685 2.585740566 0.5282383561
-3.509453535 2.60160017 0.6852346063
-3.300224304 2.447390079 0.7903936505
-3.457025528 2.565541983 0.9839325547
-3.482601643 2.5864079 1.150761604
-3.169535875 2.359918118 -1.047233939
-3.188004255 2.375400305 -0.9078990221
-3.204512119 2.388568878 -0.7686414719
-3.215122938 2.398225546 -0.6286053061
-3.239306211 2.418023109 -0.4911900163
-3.22021699 2.404649973 -0.3479003608
-3.235078812 2.417506218 -0.2094496489
-3.232113361 2.416170597 -0.06973802298
-3.237929344 2.411719561 0.0697729215
-3.236848831 2.411794662 0.2093449831
-3.477453709 2.592957497 0.3757901788
-3.491102457 2.605031252 0.5297006965
-3.516636372 2.625039816 0.6883632541
-3.283797026 2.453020334 0.7884855866
-3.460535526 2.586927891 0.9875317216
-3.47709918 2.600256205 1.151796818
-3.158187866 2.368649244 -1.046198606
-3.1925807 2.395314693 -0.9114983082
-3.189874887 2.395025015 -0.7671149969
-3.20083499 2.404127836 -0.6273537874
-3.224922657 2.423980951 -0.4902150631
-3.222949028 2.424259901 -0.3491205275
-3.238215685 2.436626911 -0.210182339
-3.231646776 2.433452368 -0.06991253793
-3.220315218 2.415244818 0.06956349313
-3.239592552 2.431470156 0.2100776732
-3.473160505 2.608669758 0.3763130903
-3.484032154 2.617786407 0.5299444795
-3.510608673 2.639674425 0.6889889836
-3.277213335 2.465076685 0.7888671756
-3.461279631 2.605421066 0.9902311563
-3.464916468 2.610052586 1.150761604
-3.131816387 2.365138769 -1.039987087
-3.142222881 2.374720335 -0.8993508816
-3.161556244 2.390198469 -0.7621539831
-3.168793201 2.397409678 -0.6226608157
-3.187954187 2.413655281 -0.4858278036
-3.179950237 2.408469677 -0.3452856541
-3.188082218 2.41813159 -0.06914464384
-3.219842911 2.432498455 0.06973802298
-3.231085539 2.442764044 0.2100776732
-3.480381966 2.63219142 0.3780562282
-3.470124483 2.626338243 0.5292132497
-3.517120123 2.66383934 0.692117691
-3.274848461 2.481242895 0.7903936505
-3.453716278 2.618664503 0.9906810522
-3.463478565 2.627970934 1.153349757
-3.098940372 2.357342482 -1.031704783
-3.112206221 2.369149208 -0.8930522799
-3.131326437 2.384567738 -0.7568113208
-3.141551971 2.394087315 -0.6189063191
-3.143204451 2.397082806 -0.4802217782
-3.16835618 2.417137384 -0.3449370265
-3.176675558 2.425240278 -0.2072515488
-3.151019096 2.407392979 -0.06851635128
-3.230428934 2.45825386 0.07015687972
-3.228894711 2.458867788 0.210496366
-3.477512598 2.649152994 0.3787534535
-3.467250109 2.643249512 0.5301882029
-3.4983778 2.668910503 0.6902404428
-3.27865243 2.502187967 0.79344666
-3.441457987 2.628338337 0.9897813201
-3.463493347 2.647083282 1.156455636
-3.078425646 2.358745098 -1.027563691
-3.100824833 2.377627134 -0.8921525478
-3.098059654 2.37636447 -0.7507053614
-3.114372492 2.39060545 -0.6151519418
-3.122224331 2.398365021 -0.4782718718
-3.12514329 2.401474714 -0.3411021829
-3.146025419 2.419267893 -0.2057861239
-3.125163794 2.404963255 -0.06813240051
-3.228176117 2.474382162 0.07029649615
-3.236139774 2.482278824 0.2115430832
-3.469824314 2.662489414 0.3789277971
-3.470598459 2.665007353 0.5321381092
-3.49843812 2.688328028 0.692117691
-3.282350302 2.523189545 0.7964995503
-3.441529512 2.647464275 0.9924806356
-3.469540596 2.670940638 1.161631942
-3.028880835 2.337608337 -1.013587475
-3.070914507 2.371759415 -0.8858538866
-3.06799531 2.370360851 -0.7453627586
-3.088818789 2.388170242 -0.6117103696
-3.101273298 2.399531126 -0.4763219655
-3.104137182 2.402612925 -0.3397077024
-3.131245136 2.425343037 -0.205367431
-3.100945473 2.403606176 -0.06778335571
-3.222684622 2.488079786 0.07036630064
-3.240098953 2.503329754 0.2123804688
-3.446321011 2.663619518 0.377358973
-3.470695019 2.684393644 0.5336005688
-3.489032507 2.700523376 0.692117691
-3.27197051 2.533430099 0.7961179614
-3.438429117 2.66423583 0.9942803383
-3.461722851 2.68421936 1.162149549
-3.014600992 2.343424797 -1.011516929
-3.050311565 2.372892141 -0.8822546601
-3.044208288 2.368998528 -0.7415465713
-3.049293041 2.374663591 -0.6054529548
-3.07408905 2.395699263 -0.4733970761
-3.070590258 2.393833876 -0.3369187117
-3.078667879 2.401859283 -0.202436626
-3.073621511 2.399648666 -0.06736449152
-3.210823774 2.49685812 0.07029649615
-3.256559849 2.534250021 0.2140551955
-3.449579716 2.685424566 0.3787534535
-3.462870121 2.69771266 0.5338443518
-3.498279333 2.72726059 0.695872128
-3.2631073 2.544835806 0.7961179614
-3.439862013 2.684615135 0.9974296093
-3.461467028 2.703421116 1.165255427
-2.985107899 2.337259531 -1.004269958
-3.008262396 2.357084274 -0.8723567724
-3.017378807 2.365077019 -0.736967206
-3.019225121 2.368226051 -0.6010728478
-3.040724516 2.386803627 -0.4694972932
-3.040277004 2.38731122 -0.3344783485
-3.038857222 2.387910128 -0.2003431916
-3.046363592 2.395530224 -0.06694563478
-3.211534023 2.515449286 0.07050593197
-3.268128872 2.56161952 0.2154159397
-3.446457148 2.70236659 0.3794507384
-3.451869965 2.708558083 0.5336005688
-3.501166821 2.749214888 0.6983750463
-3.261923552 2.562274456 0.7980260253
-3.424341917 2.691788912 0.9956300259
-3.459601402 2.721459866 1.167843699
-2.966312885 2.339291573 -1.000646472
-2.975540638 2.348254681 -0.8651583791
-2.990613699 2.360996246 -0.7323877215
-2.995439529 2.366504908 -0.5979440808
-3.004343987 2.375243425 -0.4651100039
-3.016298056 2.385549784 -0.3327352405
-3.016407728 2.387348652 -0.1994011402
-3.00663209 2.381317616 -0.06624753773
-3.212153196 2.53407526 0.07071535289
-3.29052043 2.597763062 0.2175093889
-3.446383953 2.721789122 0.3804965615
-3.445510149 2.723052025 0.5340880156
-3.488450527 2.75896883 0.6977493167
-3.262197971 2.580953121 0.8003157377
-3.417980194 2.706145048 0.9965298176
-3.450080395 2.733519554 1.167843699
-2.930899858 2.328003645 -0.9913290739
-2.952070713 2.346500397 -0.8606593609
-2.954694033 2.349427223 -0.7255185843
-2.965521097 2.359726429 -0.5935639739
-2.972740889 2.367167711 -0.4614538848
-2.973668575 2.368753433 -0.3289003968
-2.995562077 2.38790369 -0.1985637695
-2.971725702 2.370599508 -0.06565415859
-3.215812445 2.555225611 0.0709945932
-3.312698126 2.634094477 0.2196028382
-3.43998003 2.736284256 0.3808452189
-3.443748951 2.741243839 0.5353066921
-3.475708723 2.768666506 0.6971235871
-3.256239653 2.594771862 0.8010789752
-3.420702934 2.727778673 1.000129104
-3.443537235 2.747955799 1.168878913
-2.88806057 2.310462952 -0.9794233441
-2.925606251 2.342175961 -0.8552604914
-2.925020933 2.342545986 -0.7201759815
-2.941851616 2.357710123 -0.5904352665
-2.956717491 2.371319294 -0.4602352083
-2.943625212 2.36166358 -0.3264600337
-2.962290049 2.378338337 -0.1968890131
-2.933814049 2.357161522 -0.06499096751
-3.203751326 2.563935518 0.07092478126
-3.406372786 2.728043795 0.2265111804
-3.405529976 2.728343248 0.3780562282
-3.448097944 2.764424562 0.5375003815
-3.475268126 2.788199425 0.6990007758
-3.264003754 2.61964035 0.8052767515
-3.420276165 2.747024059 1.00282836
-3.436936378 2.762379169 1.169914126
-2.86794281 2.310833931 -0.9752822518
-2.896174431 2.335249186 -0.8489618897
-2.904601812 2.342880964 -0.7171230316
-2.902861357 2.343150139 -0.5841779113
-2.931435347 2.367904902 -0.4575541019
-2.919866085 2.359402895 -0.3247168958
-2.947757959 2.383641005 -0.1964703351
-2.930232048 2.371161222 -0.06509567797
-3.197896242 2.577613115 0.0709945932
-3.43413949 2.770011187 0.2290232927
-3.402187347 2.745218754 0.3787534535
-3.441516638 2.778937578 0.5379878879
-3.47626853 2.809005022 0.7011908889
-3.242625952 2.621144056 0.8022238612
-3.413695812 2.761398792 1.003728271
-3.424269676 2.771928549 1.168878913
-2.844858646 2.308657885 -0.9701058865
-2.869852304 2.330602646 -0.8435630798
-2.884215355 2.343102217 -0.7140700817
-2.876271248 2.338315725 -0.5804234743
-2.900053978 2.359332085 -0.4538980126
-2.905431747 2.364549637 -0.3240196705
-2.892960072 2.356078863 -0.1933301687
-2.911086559 2.372531891 -0.06485135108
-3.195088863 2.59380126 0.07113420963
-3.495757818 2.839912176 0.2338382006
-3.426600218 2.784722328 0.3825883269
-3.427175283 2.787176132 0.5372566581
-3.483295679 2.834837198 0.7046324015
-3.248681545 2.644841909 0.8060400486
-3.40403676 2.773297071 1.003728271
-3.429545403 2.796072721 1.174055219
-2.830799103 2.313683987 -0.9680352807
-2.843598127 2.325800896 -0.8381642103
-2.854746342 2.335750818 -0.7087274194
-2.861978054 2.343335867 -0.5791720152
-2.86416173 2.346794367 -0.4495107234
-2.875586987 2.356994867 -0.3215793073
-2.878541231 2.361096382 -0.1929114759
-2.884238958 2.36745429 -0.06443248689
-3.195304871 2.612532616 0.07134364545
-3.50746417 2.869803667 0.2353036106
-3.432277203 2.809284687 0.384331435
-3.425103664 2.805411577 0.5384753346
-3.464212894 2.839466095 0.7027552724
-3.243983984 2.659900427 0.807184875
-3.385296106 2.777745724 1.001028776
-3.425737143 2.812930107 1.176125884
-2.797350168 2.302678585 -0.9592354298
-2.823428869 2.325800419 -0.8345649838
-2.817788839 2.321979046 -0.7014766932
-2.835492373 2.338230848 -0.5754175782
-2.842582464 2.344910145 -0.4473170638
-2.848904133 2.351797581 -0.3194875717
-2.859503269 2.362226009 -0.1921787858
-2.848625898 2.354076624 -0.06380420178
-3.198514462 2.633840561 0.07162287831
-3.497927904 2.881419182 0.2353036106
-3.42244935 2.821249485 0.384331435
-3.421416044 2.822402954 0.5394502878
-3.465442657 2.859739065 0.7049453259
-3.249818325 2.683708429 0.8110010624
-3.392592669 2.802609205 1.00597775
-3.426812887 2.832891464 1.17974937
-2.765899658 2.292219162 -0.9509532452
-2.800700665 2.322710752 -0.8300659657
-2.793452978 2.317521811 -0.6972788572
-2.806444883 2.329955578 -0.5710374117
-2.827155352 2.347982407 -0.4460983574
-2.816573381 2.340856552 -0.316698581
-2.830155849 2.353815556 -0.1907133609
-2.820819616 2.346883774 -0.06335043907
-3.192842245 2.646984339 0.07169269025
-3.497577906 2.900653124 0.2359316349
-3.382411242 2.807135105 0.3808452189
-3.43036294 2.848952532 0.5423751473
-3.462018013 2.876264811 0.706196785
-3.243919373 2.696980476 0.8117642403
-3.396764517 2.825058937 1.010026813
-3.412945509 2.840531349 1.17819643
-2.736032963 2.282814026 -0.9431886673
-2.775032282 2.316997766 -0.8246671557
-2.773697853 2.316704035 -0.6942259073
-2.77899909 2.322780132 -0.5669701099
-2.80219245 2.343826771 -0.4434172213
-2.786995888 2.332769871 -0.3142582178
-2.800895929 2.345237017 -0.1892479658
-2.804947138 2.350293875 -0.06317591667
-3.177906036 2.65243268 0.07155307382
-3.511958361 2.933329105 0.2376063913
-3.434242249 2.869434834 0.387817651
-3.420896292 2.860312462 0.5423751473
-3.462561607 2.897205353 0.7083868384
-3.230442286 2.703943014 0.8106194735
-3.400327444 2.848160505 1.014075994
-3.405969858 2.854910374 1.179231644
-2.726168871 2.291584015 -0.9426710606
-2.737097979 2.301586151 -0.8156691194
-2.757676601 2.320534945 -0.6923178434
-2.758379698 2.322770596 -0.5644671321
-2.772738695 2.33569026 -0.4400048852
-2.775789499 2.339915991 -0.31390962
-2.773962259 2.340032578 -0.1879919022
-2.782971621 2.348464012 -0.06286177039
-3.177812338 2.671229839 0.07176250219
-3.483356476 2.930142164 0.2363503277
-3.405411243 2.866605997 0.3857259452
-3.410891056 2.872236013 0.5423751473
-3.464512587 2.919456959 0.7108898759
-3.226512671 2.720828056 0.8121459484
-3.389866114 2.860603333 1.014075994
-3.404840469 2.874258757 1.182337523
-2.70783186 2.292348623 -0.939047575
-2.716748476 2.301525354 -0.8120698929
-2.74506712 2.32633853 -0.691173017
-2.747241735 2.329829693 -0.5638414025
-2.752051353 2.335560799 -0.4380549788
-2.764566183 2.347012758 -0.3135609627
-2.759688854 2.344528913 -0.1875732094
-2.768661261 2.352984905 -0.06272215396
-3.183260679 2.695782423 0.07211155444
-3.482250452 2.950029373 0.2369783521
-3.413620949 2.893936396 0.387817651
-3.410937071 2.893707752 0.5440813303
-3.449782372 2.927698374 0.7099512219
-3.230463505 2.7435112 0.8155804276
-3.384314299 2.876205921 1.015425682
-3.41686511 2.904895306 1.1901021
-2.912976027 2.48352313 -1.014105082
-2.734307528 2.332019567 -0.8197182417
-3.120711327 2.663455248 -0.7892487645
-3.12409234 2.667283535 -0.6439358592
-2.803151846 2.394963741 -0.4475607872
-3.116771698 2.664797544 -0.3550471067
-3.076712608 2.631476879 -0.2099730074
-3.122005224 2.67210412 -0.07102949917
-3.186476707 2.716702223 0.0723907873
-3.465854168 2.956981659 0.2365596741
-30.77802086 26.27761841 3.536928654
-3.411888599 2.914027452 0.5457874537
-3.439541578 2.9397223 0.7099512219
-3.231793642 2.763139486 0.8182518482
-3.388084888 2.898814201 1.019474864
-3.403769255 2.914291859 1.189066768
-3.101157427 2.661771297 -1.083468556
-2.992243767 2.570102215 -0.9007005692
-3.134198189 2.692981482 -0.7949730754
-3.141723633 2.701354742 -0.6495674849
-2.809822321 2.417681456 -0.4499981999
-3.139628649 2.702413559 -0.3587076366
-3.162844896 2.724318981 -0.2165673375
-3.150526285 2.715624809 -0.07190211862
-3.176974058 2.727808952 0.0723907873
-3.494898319 3.002904177 0.2392811477
-3.43010664 2.948274612 0.392001152
-3.41223073 2.934981108 0.5474936962
-3.432253361 2.954288244 0.7105769515
-3.226592064 2.778247118 0.8193966746
-3.380897045 2.913168192 1.020374537
-3.399427891 2.931201696 1.191137314
-3.096232176 2.676370382 -1.085021496
-2.992096901 2.588181496 -0.9034000039
-3.13220191 2.710329056 -0.7968811989
-3.133768082 2.713597775 -0.6498803496
-2.819369078 2.443073988 -0.4529230297
-3.145231247 2.726406813 -0.3604507446
-3.159349918 2.740578651 -0.2169860303
-3.150088787 2.734471083 -0.07211155444
-3.164408445 2.736265421 0.07232097536
-3.472311974 3.004630089 0.2384437621
-3.365563869 2.913285971 0.3857259452
-3.400464058 2.945574284 0.5472499132
-3.429383278 2.972720623 0.712141335
-3.216874123 2.789493084 0.8193966746
-3.37953949 2.932614326 1.023074031
-3.383339882 2.937984228 1.189066768
-3.094156981 2.693503618 -1.087609768
-2.962472677 2.580689907 -0.8971014023
-3.136043072 2.732853174 -0.8003157377
-3.12874341 2.728415251 -0.650818944
-2.807832003 2.450290918 -0.4524355829
-3.141221285 2.743157864 -0.3611480296
