# .PCD v0.7 - Point Cloud Data file format
VERSION 0.7
FIELDS x y z
SIZE 4 4 4
TYPE F F F
COUNT 1 1 1
WIDTH 1283
HEIGHT 1
VIEWPOINT 0 0 0 1 0 0 0
POINTS 1283
DATA ascii
1.293260336 2.376940489 -0.2330290675
1.300974011 2.389130831 -0.1403661817
1.300475717 2.386232376 -0.04673574865
1.2930305 2.383451939 0.04663103446
1.223719478 2.253810406 0.132201761
1.28684473 2.369089603 0.2321575135
1.287840605 2.368948221 0.325935185
1.289166451 2.369416237 0.4205473661
1.290362 2.37062788 0.516391933
1.283818126 2.356646061 0.609613955
1.280332804 2.348296642 0.7050751448
1.060760856 1.939930558 -0.5808419585
1.31172812 2.396914482 -0.6208614707
1.311235189 2.395020962 -0.5224978328
1.309479833 2.389834166 -0.4249275625
1.308922529 2.386839628 -0.3291037679
1.309215665 2.386386156 -0.2344235629
1.307382584 2.381073713 -0.1401568204
1.316502333 2.395698071 -0.04701498896
1.296544552 2.37015152 0.04645651206
1.238292694 2.261788845 0.132934466
1.301806688 2.376814842 0.2333776802
1.295147181 2.362698078 0.3256914616
1.303129911 2.375293255 0.4224245846
1.294850349 2.359225035 0.5148655176
1.300480008 2.367522955 0.6136630774
1.300620317 2.365821123 0.7118044496
1.312838316 2.381147623 -0.7169808149
1.318203568 2.388908863 -0.619961679
1.325280786 2.400741339 -0.5247875452
1.321634531 2.392164946 -0.4261790216
1.319167972 2.385730028 -0.3295912445
1.32139492 2.388775826 -0.235120818
1.317621589 2.379990101 -0.1403661817
1.328313351 2.398317337 -0.04715460539
1.310605526 2.376117229 0.04666594043
1.240961194 2.248926878 0.1324111074
1.3149122 2.3809762 0.2342492491
1.303387284 2.358162403 0.3256914616
1.314823627 2.377873421 0.4236761034
1.306880713 2.361561537 0.516391933
1.305903316 2.357855082 0.6123133898
1.31126821 2.366564274 0.7133573294
1.334282517 2.4001894 -0.7242277861
1.331801772 2.394742727 -0.6226611137
1.331742764 2.392670155 -0.5240243077
1.331482649 2.391220808 -0.426804781
1.329004407 2.384810925 -0.3300787508
1.335548759 2.394588709 -0.2361666709
1.329398751 2.382584333 -0.1407848597
1.335702658 2.391919851 -0.04711970314
1.326250196 2.38574028 0.04694517702
1.254630685 2.255053043 0.1330391467
1.32418406 2.378113031 0.2344235629
1.314097643 2.359030008 0.3264226317
1.322153568 2.371544361 0.4233632088
1.32044208 2.367502928 0.5186816454
1.316565156 2.358615875 0.6136630774
1.321404815 2.365345955 0.7143926024
1.34978807 2.409235001 -0.7283688784
1.347778201 2.403676987 -0.6262603402
1.33967042 2.388240337 -0.5240243077
1.347558141 2.400337696 -0.4293076992
1.339264989 2.383618832 -0.3305662274
1.343899965 2.389911652 -0.2361666709
1.341624022 2.384892702 -0.1412035525
1.341101408 2.38201499 -0.04701498896
1.338480234 2.388074398 0.04708479717
1.266403675 2.25762701 0.1334578246
1.338887572 2.38587141 0.2356437296
1.332045555 2.37173605 0.3288600743
1.333328128 2.372080326 0.4243018329
1.335434675 2.374857426 0.5213530064
1.328613877 2.360798597 0.6154626608
1.330600977 2.362402439 0.7149102688
1.354808092 2.39754343 -0.7262982726
1.363830805 2.412530184 -0.6298595667
1.354214907 2.393566847 -0.5263140202
1.35634613 2.395382643 -0.4293076992
1.355405092 2.392746687 -0.3325161338
1.351251006 2.383473158 -0.235992372
1.35824275 2.393855095 -0.1420409232
1.358291507 2.3929708 -0.04732913151
1.344841123 2.379905462 0.04701498896
1.287057519 2.275793314 0.1348185539
1.346641421 2.379214764 0.2354694307
1.345206499 2.375709295 0.3300787508
1.345495224 2.374286175 0.425553292
1.343160868 2.368239403 0.5209713578
1.343990922 2.367776632 0.6186119914
1.338839769 2.357743263 0.7149102688
1.368906021 2.402871609 -0.7294041514
1.370735288 2.404128313 -0.6289597154
1.366452098 2.395646811 -0.5278404951
1.361762166 2.385486841 -0.4283691347
1.370073676 2.398104668 -0.3339785635
1.36747241 2.392579556 -0.2373868525
1.362622142 2.38216567 -0.1416222453
1.367630124 2.389950275 -0.04736403748
1.351573825 2.37148571 0.04694517702
1.3385216 2.347628832 0.1394241303
1.361850977 2.386612654 0.2366896123
1.351935387 2.367315531 0.3295912445
1.35573411 2.373005629 0.4261790216
1.348495483 2.35842371 0.5198264718
1.35418427 2.366453409 0.6195118427
1.350901484 2.359761 0.7169808149
1.377285838 2.398078203 -0.7294041514
1.37772882 2.397880316 -0.6285098791
1.380678654 2.401073694 -0.5301302075
1.376559734 2.392944098 -0.4305591881
1.376038313 2.390107155 -0.333491087
1.380787611 2.396424294 -0.2382584065
1.371512294 2.379363775 -0.1417269111
1.384955645 2.400751591 -0.04767817631
1.36739862 2.380862713 0.0472244136
1.339739561 2.330822229 0.1386914253
1.374148011 2.388751745 0.2373868525
1.359777689 2.362819672 0.3295912445
1.36696744 2.373393774 0.4271176159
1.363169432 2.365847111 0.5224978328
1.365917802 2.36870265 0.6213114262
1.366854906 2.368417263 0.7211219072
1.391036272 2.403530121 -0.7325099707
1.39292717 2.404860973 -0.6316591501
1.388632894 2.396482229 -0.5301302075
1.388867617 2.394959927 -0.4318106472
1.384373546 2.385289192 -0.333491087
1.394729972 2.402170181 -0.2393042892
1.388841152 2.390103579 -0.1426689625
1.391905189 2.394416809 -0.04764327407
1.379709601 2.382997036 0.04736403748
1.348463178 2.328094482 0.138796106
1.384060979 2.387629032 0.237735495
1.372002602 2.364926815 0.3305662274
1.375822663 2.370555878 0.4274305105
1.377336502 2.371259689 0.5247875452
1.37221849 2.360551119 0.6204116344
1.380527973 2.373891592 0.7242277861
1.395523071 2.391985655 -0.7304394245
1.408752441 2.41369319 -0.6352583766
1.396990299 2.391620159 -0.5301302075
1.402781367 2.400574923 -0.4336878955
1.395281792 2.385826349 -0.3342222869
1.399081707 2.390408754 -0.238607049
1.403823137 2.397549629 -0.1434016526
1.401266217 2.391268253 -0.04767817631
1.395664334 2.39222765 0.04764327407
1.367659807 2.342345476 0.1399474889
1.391380072 2.381063938 0.2375611663
1.387852669 2.374073505 0.3325161338
1.385084987 2.367444754 0.4277433455
1.389159679 2.373456478 0.5263140202
1.385947943 2.366076946 0.6231110096
1.385875702 2.364058256 0.7226748466
1.412678838 2.402086496 -0.7350981832
1.421543956 2.415230989 -0.63705796
1.409314156 2.393496513 -0.5316566825
1.41457963 2.40052247 -0.4346264899
1.412083626 2.394375563 -0.3361722231
1.408429027 2.387226582 -0.2387813479
1.414631605 2.395828247 -0.143610999
1.396795511 2.363736153 -0.0472244136
1.404423594 2.387095928 0.04764327407
1.377248764 2.339038372 0.1400521696
1.399683714 2.376192093 0.2375611663
1.401584864 2.377521515 0.3337348402
1.399775982 2.372560024 0.4296205938
1.400842786 2.373421431 0.5274589062
1.401550412 2.372725487 0.6262603402
1.39944613 2.367278099 0.7252629995
1.423025966 2.40046382 -0.7361334562
1.429965615 2.410254478 -0.63705796
1.421669245 2.39531517 -0.5331831574
1.421941042 2.393871784 -0.4343136251
1.430576086 2.40649581 -0.338609606
1.42388165 2.394283056 -0.2400015444
1.422985554 2.390876055 -0.143610999
1.428575158 2.398360014 -0.04802722484
1.417847157 2.390779018 0.04781780019
1.395599604 2.351391554 0.1410988867
1.412037969 2.378144741 0.2382584065
1.408861756 2.370907545 0.333491087
1.414106965 2.377846718 0.4314978123
1.405104518 2.361767769 0.5259323716
1.412813425 2.37284255 0.6276100278
1.413633823 2.372336626 0.7283688784
1.443286896 2.415382147 -0.7423450947
1.437370777 2.40357542 -0.6366081238
1.436068773 2.40044713 -0.5354728103
1.436377764 2.399062395 -0.4361908436
1.435907364 2.396378756 -0.3378783762
1.4383775 2.399551153 -0.2410473973
1.435433149 2.39274478 -0.1440296918
1.444143176 2.40536046 -0.0482715629
1.4292624 2.390963793 0.04792251065
1.399696946 2.339649916 0.140680179
1.42647028 2.383458614 0.2393042892
1.420188904 2.37108469 0.3342222869
1.422399282 2.372895718 0.4314978123
1.420407176 2.368634939 0.5286037326
1.424096584 2.372909069 0.6289597154
1.423896074 2.370699167 0.7294041514
1.453702331 2.413639545 -0.7433803678
1.456817508 2.416902542 -0.6415569782
1.444438696 2.395420074 -0.5354728103
1.450866699 2.404182196 -0.4380680621
1.447342992 2.396449089 -0.338609606
1.45292604 2.404747725 -0.2420932651
1.449977875 2.397974014 -0.1446577311
1.447354913 2.391750097 -0.04809703678
1.443792582 2.396237135 0.04813193902
1.411980271 2.341591835 0.1410988867
1.438898683 2.385288477 0.2400015444
1.434612274 2.376309633 0.3356847465
1.433737636 2.372988701 0.4324364364
1.438822746 2.380464077 0.5324198604
1.429344535 2.362921715 0.6276100278
1.436165214 2.372324467 0.731474638
1.462118268 2.408550739 -0.7433803678
1.466257811 2.413467646 -0.6420069337
1.452790856 2.390363693 -0.5354728103
1.467462778 2.412603855 -0.4405709803
1.458795428 2.396469831 -0.339340806
1.461312056 2.399661064 -0.2420932651
1.460417747 2.396309376 -0.1448670775
1.460900545 2.395219564 -0.0482715629
1.458375573 2.401437998 0.04834137112
1.421182156 2.338356018 0.1412035525
1.448250651 2.381954193 0.2401758432
1.448058248 2.379765987 0.3369034231
1.445095062 2.373030663 0.433375001
1.453251481 2.38548708 0.5347096324
1.443671227 2.367900848 0.6303094625
1.446449518 2.370595694 0.7325099707
1.470517397 2.403431892 -0.7433803678
1.477725744 2.413321018 -0.6433566213
1.469330668 2.398670673 -0.5385257602
1.475874901 2.407466888 -0.4405709803
1.474418998 2.403206825 -0.341046989
1.471763611 2.397942066 -0.2424418926
1.481318355 2.41161871 -0.1461231261
1.473440766 2.396919966 -0.04841117933
1.464661002 2.392922163 0.0482715629
1.436639309 2.345302343 0.1419362575
1.456557155 2.376883745 0.2401758432
1.460507035 2.38146615 0.3378783762
1.457502484 2.374706507 0.4346264899
1.458487153 2.375380754 0.5335647464
1.456009626 2.369488001 0.6321091056
1.458764195 2.372113943 0.7345805168
1.476870656 2.394995213 -0.7423450947
1.487164855 2.409806013 -0.6438065171
1.481820583 2.400208712 -0.5400522947
1.483232021 2.400619984 -0.4402581453
1.486973047 2.404799938 -0.3420219123
1.486414313 2.402956009 -0.2434877604
1.484469533 2.397943258 -0.1455997676
1.489171505 2.403661013 -0.04865551367
1.475104094 2.391199112 0.04834137112
1.455309868 2.357267618 0.1429829746
1.472171903 2.383651972 0.2413960099
1.46881175 2.376353025 0.3378783762
1.475135922 2.384723425 0.4374423027
1.472969055 2.3802917 0.5358544588
1.482739806 2.3942132 0.6402073503
1.470086932 2.371934652 0.7361334562
1.493378878 2.402952194 -0.746486187
1.49042213 2.396325588 -0.6415569782
1.498486638 2.408357382 -0.5431052446
1.499956608 2.408842087 -0.4427610934
1.497458935 2.402963877 -0.3425094187
1.501117826 2.407896757 -0.2445336282
1.491774082 2.391052008 -0.1454951018
1.506024837 2.412018061 -0.04893475026
1.489777446 2.396224022 0.04855079576
1.460363507 2.347086191 0.1426689625
1.486801267 2.388647318 0.2424418926
1.481295466 2.377951384 0.3388533294
1.489722133 2.389617205 0.4393195212
1.477112889 2.368472576 0.5343280435
1.476643443 2.365878105 0.633908689
1.48552227 2.378257513 0.7397568822
1.505860209 2.404273272 -0.7485567927
1.502916217 2.397714376 -0.6433566213
1.506884933 2.403111458 -0.5431052446
1.511504173 2.40861249 -0.4436996877
1.505838275 2.397721767 -0.3425094187
1.515871882 2.412765741 -0.245579496
1.51074326 2.402737856 -0.146541819
1.514014602 2.407011032 -0.04893475026
1.504504085 2.401176453 0.04876022786
1.46389544 2.335461617 0.1422502697
1.502542019 2.395256758 0.2436620593
1.495920539 2.38285327 0.3403157592
1.493435502 2.37797308 0.4380680621
1.494774342 2.378261566 0.5377625823
1.492154241 2.372256994 0.63705796
1.499574423 2.383128405 0.742862761
1.504961491 2.38430047 -0.7438979745
1.522304535 2.410841942 -0.6483055353
1.517360091 2.401157379 -0.5438684821
1.525817037 2.413604736 -0.4455769062
1.522272348 2.406134844 -0.3444592953
1.524285316 2.407459259 -0.245579496
1.519772172 2.399401665 -0.1466464847
1.52026701 2.398333311 -0.04886494204
1.518860817 2.406321049 0.04896965623
1.482705951 2.347222805 0.1432970017
1.50769949 2.384945393 0.2431391329
1.504874825 2.37955761 0.3405595124
1.50595212 2.379422426 0.4393195212
1.511054039 2.386561871 0.5408155322
1.505228758 2.375525951 0.6393074989
1.512022853 2.384404898 0.7449332476
1.517006636 2.385816813 -0.7459685206
1.539080858 2.418665886 -0.6519047618
1.53164053 2.406048775 -0.5461581349
1.529987931 2.401599407 -0.4443254471
1.534929037 2.40750289 -0.3454342782
1.53440392 2.405750513 -0.2459281236
1.538882732 2.410918474 -0.1476932019
1.536821961 2.406761408 -0.04914418235
1.525105476 2.397629738 0.04889984801
1.497987628 2.35408783 0.1440296918
1.516669631 2.381613493 0.2433134466
1.519572496 2.384334564 0.3420219123
1.517019749 2.379412651 0.4402581453
1.520431042 2.382927895 0.5411971211
1.527146339 2.391608715 0.6451562047
1.514721274 2.371237755 0.7423450947
1.527410746 2.383760214 -0.7470038533
1.549195886 2.41683054 -0.6528045535
1.546390891 2.410602093 -0.5484478474
1.551812649 2.418125391 -0.4483927488
1.551486492 2.415761709 -0.3473841846
1.547100663 2.407084227 -0.2466253638
1.546869755 2.405801773 -0.1476932019
1.54845953 2.406427383 -0.04924889654
1.537363887 2.399293661 0.04903946444
1.511584878 2.357252121 0.1445530504
1.529278755 2.38301158 0.2440107018
1.531760216 2.385964632 0.3429968953
1.531723261 2.384073734 0.442135334
1.527263999 2.376220942 0.5408155322
1.529797316 2.378336906 0.6429067254
1.528216839 2.374058485 0.7449332476
1.534258962 2.377058744 -0.746486187
1.555507421 2.40813446 -0.6519047618
1.562900066 2.418652773 -0.5515007973
1.563461423 2.41767025 -0.4493313134
1.559910417 2.410330772 -0.3473841846
1.561991572 2.41170311 -0.2476712167
1.555258751 2.400387049 -0.1476932019
1.564465046 2.412752867 -0.04949323088
1.550068974 2.400631428 0.0491790846
1.521972537 2.355315924 0.1447623968
1.546908021 2.392985821 0.245579496
1.541158199 2.382269382 0.3432406187
1.550770998 2.395294905 0.4452640414
1.540884972 2.379114866 0.5427235961
1.535969615 2.369712114 0.6420069337
1.539649248 2.373571157 0.746486187
1.548228383 2.379516363 -0.7490743995
1.563904643 2.402689695 -0.6519047618
1.573897958 2.416197777 -0.5522640347
1.574470401 2.415232897 -0.4499570727
1.566145301 2.401546001 -0.3468967378
1.579112649 2.419583797 -0.249065727
1.570598722 2.404704094 -0.1483212411
1.575065851 2.410624743 -0.04956303909
1.564981222 2.405264139 0.04938851297
1.526915908 2.344967127 0.1444483697
1.564369917 2.400654554 0.2469739914
1.550549269 2.378537893 0.3434843719
1.559123278 2.38986659 0.4452640414
1.559254527 2.388245821 0.5461581349
1.558502197 2.385274172 0.6478556395
1.556380391 2.381119251 0.7506272793
1.542755723 2.353094578 -0.7423450947
1.589804649 2.423011065 -0.6591031551
1.580167413 2.407407045 -0.5515007973
1.593736291 2.426232815 -0.4530857801
1.585842013 2.412376881 -0.3493341208
1.585358858 2.410727739 -0.2487170994
1.585571766 2.409216881 -0.1489492804
1.587869048 2.41179347 -0.04970265925
1.582560778 2.412888765 0.04966775328
1.541665554 2.349642515 0.145076409
1.568365455 2.388517618 0.2462767363
1.570157528 2.389428616 0.3459217548
1.567456722 2.384409189 0.4452640414
1.57621336 2.395910025 0.5492110848
1.560388803 2.370054007 0.6451562047
1.562556863 2.372445583 0.7495920658
1.53605175 2.325129271 -0.7350981832
1.596757174 2.416099548 -0.6586532593
1.599390864 2.418251991 -0.5553169847
1.601773977 2.420933962 -0.4530857801
1.599310875 2.415381432 -0.3505527973
1.593764782 2.405178785 -0.2487170994
1.602378726 2.417264462 -0.1497866511
1.598489642 2.40956831 -0.04977246746
1.590553045 2.407628059 0.04966775328
1.558670402 2.357575178 0.1459137946
1.581091642 2.389674664 0.2469739914
1.584647179 2.394140482 0.3473841846
1.57795155 2.382217407 0.445889771
1.573305845 2.374303818 0.5453948975
1.5876261 2.394099712 0.6532544494
1.571897626 2.368585825 0.7501096129
1.526631236 2.294288635 -0.7268159389
1.61274147 2.421865702 -0.6618025899
1.61610949 2.426005602 -0.5583699346
1.610214233 2.415328503 -0.4530857801
1.612139821 2.416388988 -0.3515277505
1.611000896 2.412857294 -0.2501116097
1.610807419 2.411655903 -0.1497866511
1.615780473 2.417274237 -0.05005170777
1.601164222 2.405389786 0.04973756149
1.572426558 2.360431194 0.1464371532
1.600055695 2.400998354 0.2487170994
1.590791225 2.385291815 0.3468967378
1.596126199 2.391482353 0.4487055838
1.583763957 2.372063398 0.5461581349
1.589477062 2.378821611 0.6505550742
1.595189214 2.385567427 0.7573565841
1.536106825 2.290282011 -0.7273336053
1.61792767 2.411367178 -0.6604529023
1.629368782 2.426585197 -0.5598964095
1.627870679 2.422526836 -0.4555887282
1.62499547 2.417336226 -0.3525027037
1.626086712 2.417137146 -0.2511574626
1.620750785 2.407392979 -0.1498913169
1.63091135 2.421570301 -0.05026113242
1.614007115 2.406428814 0.04987718165
1.580657005 2.354927778 0.1464371532
1.618842959 2.410003185 0.2502858937
1.601322651 2.383019209 0.3473841846
1.613282442 2.39901042 0.4512085319
1.596832633 2.372757673 0.5476846099
1.606894493 2.385910034 0.6541542411
1.604586601 2.381586313 0.7578741908
1.550581336 2.294510126 -0.7304394245
1.635489225 2.418334484 -0.6640521288
1.637828708 2.420883179 -0.5598964095
1.640746474 2.423372984 -0.4568401873
1.636070848 2.414651394 -0.3529901803
1.641221046 2.421342373 -0.2522033453
1.635872006 2.411637783 -0.1505193561
1.642021537 2.418885708 -0.05033094063
1.627295375 2.407123804 0.0500168018
1.594872832 2.357389927 0.1469605118
1.630596399 2.409287214 0.250808835
1.615611792 2.385352373 0.348602891
1.622064948 2.39308095 0.4512085319
1.615021229 2.381793737 0.5511191487
1.611931086 2.375448704 0.6528045535
1.623072028 2.390073061 0.7625330091
1.55749476 2.287486553 -0.7299218178
1.659282684 2.435157061 -0.6703507304
1.646269798 2.415150881 -0.5598964095
1.655874133 2.427422523 -0.4587174058
1.648967028 2.415482998 -0.3539651334
1.649662614 2.415598869 -0.2522033453
1.651042581 2.415806055 -0.1511473805
1.650455713 2.413138866 -0.05033094063
1.644693255 2.414651155 0.05029603839
1.607592463 2.358409405 0.1473791897
1.638996124 2.403580904 0.250808835
1.629523635 2.387896299 0.3498215675
1.629293919 2.385773182 0.4508956671
1.63550818 2.393973112 0.5553169847
1.632309675 2.387504101 0.6577534676
1.633587599 2.387581587 0.7635682225
1.575303793 2.296374321 -0.7345805168
1.671082258 2.434169531 -0.671700418
1.661357284 2.419101 -0.5621861219
1.663219094 2.419999123 -0.458404541
1.669762492 2.427704096 -0.3566462696
1.662602782 2.416390896 -0.2529006004
1.669659019 2.424833536 -0.1520894319
1.663408399 2.413949251 -0.05047056451
1.650849581 2.40559721 0.05022623017
1.623728275 2.364309311 0.1481119096
1.649633169 2.401129007 0.2511574626
1.651343226 2.401823997 0.3527464271
1.648810029 2.3963449 0.4540243745
1.641626835 2.385016203 0.5545537472
1.648372769 2.393025398 0.6609027982
1.6408149 2.380274534 0.7630506158
1.60198307 2.317877531 -0.7433803678
1.67513442 2.421911001 -0.6699008346
1.6787287 2.426202536 -0.5652390718
1.671655893 2.414179087 -0.458404541
1.681619287 2.426755428 -0.3573774695
1.676702261 2.4187603 -0.2537721395
1.675836802 2.415708065 -0.1518801004
1.680945992 2.421270609 -0.0507498011
1.666060567 2.409688473 0.05043565854
1.638790488 2.368481398 0.1487399191
1.664808989 2.405185223 0.2522033453
1.656326652 2.391149044 0.3520152271
1.660540223 2.395445347 0.4549629688
1.646586418 2.374430895 0.5534089208
1.663381577 2.396862984 0.6636021733
1.656828046 2.385638952 0.7666741014
1.614480615 2.318612814 -0.7454509139
1.68135047 2.412850618 -0.6690009832
1.693924069 2.42999053 -0.5675287247
1.686854601 2.418049335 -0.4602817595
1.688941836 2.419243813 -0.3571337461
1.691980481 2.422693014 -0.2548179924
1.68654573 2.413118601 -0.1520894319
1.696264744 2.425219297 -0.05095922947
1.679032087 2.410422802 0.0505752787
1.650475025 2.367661476 0.1490539461
1.684589386 2.415703058 0.2539464533
1.66693604 2.388608217 0.3525027037
1.674547672 2.397731543 0.4565272927
1.667233706 2.386371613 0.5576066971
1.673972011 2.394235849 0.664501965
1.672896266 2.39092207 0.7702975273
1.620344877 2.309800386 -0.7444156408
1.703199863 2.426105976 -0.6743998528
1.702395678 2.424063206 -0.5675287247
1.704372406 2.425075293 -0.4627847075
1.699661016 2.416580677 -0.3576211929
1.707306504 2.426548481 -0.2558638752
1.699558616 2.413748503 -0.1525081098
1.704719663 2.419283867 -0.05095922947
1.694328666 2.414367914 0.05078470334
1.655285597 2.35698247 0.1487399191
1.696448207 2.414698362 0.2544693947
1.680971861 2.390895128 0.35372141
1.682907701 2.391871214 0.4565272927
1.686853051 2.39659214 0.5614228845
1.68231988 2.388377666 0.664501965
1.682345629 2.386646748 0.7708151937
1.628398418 2.304129839 -0.7444156408
1.713907003 2.423329115 -0.6752996445
1.708579779 2.414900303 -0.5667654872
1.723098636 2.433621883 -0.4656005204
1.716120481 2.421970606 -0.3593274057
1.715764761 2.42057538 -0.2558638752
1.717218876 2.420833111 -0.1533454955
1.712732434 2.413617849 -0.05095922947
1.709671855 2.418236256 0.05099413544
1.670011759 2.361264706 0.1493679583
1.70486629 2.408762455 0.2544693947
1.700781703 2.401211262 0.356158793
1.690829754 2.386277437 0.4565272927
1.700887203 2.398696423 0.5633309484
1.697411537 2.392027378 0.6672013998
1.698079228 2.392081261 0.7744386792
1.628587484 2.287415743 -0.7407921553
1.721934199 2.417631865 -0.6752996445
1.728393435 2.424908876 -0.5705816746
1.727719665 2.423068762 -0.4646618962
1.729907274 2.424346209 -0.3605460823
1.727677941 2.419435263 -0.2563868165
1.734524369 2.428127289 -0.1541828662
1.725799561 2.414131403 -0.05109884962
1.717682362 2.412553072 0.05099413544
1.685198307 2.365180016 0.1499959975
1.713264585 2.402796268 0.2544693947
1.716803908 2.40687108 0.3578649461
1.709477782 2.394831657 0.4593431354
1.709972501 2.394640684 0.5637125373
1.712133408 2.395898104 0.6699008346
1.706419468 2.386138916 0.7744386792
1.639540553 2.286712885 -0.7423450947
1.737179995 2.4211061 -0.6779990792
1.743293643 2.428734064 -0.572871387
1.739624977 2.421835661 -0.4656005204
1.748786688 2.432800055 -0.362739712
1.743834376 2.425015211 -0.2576069832
1.741823673 2.420436144 -0.1540782005
1.743142962 2.421377897 -0.05137808993
1.726092696 2.406542778 0.05099413544
1.703512192 2.374183178 0.1509380341
1.72819519 2.406812191 0.2555152476
1.724035978 2.399251699 0.3576211929
1.72663343 2.401981831 0.4618461132
1.724052787 2.396626472 0.5656206608
1.730733752 2.404140472 0.6739499569
1.722223759 2.391441584 0.7780621052
1.649775386 2.284107685 -0.7433803678
1.745198727 2.415332317 -0.6779990792
1.755212665 2.427406073 -0.574016273
1.754592776 2.425657511 -0.4674777389
1.753353119 2.42216301 -0.362008512
1.759301305 2.428595066 -0.2586528659
1.749840021 2.414647102 -0.1540782005
1.76567173 2.434704542 -0.05179694667
1.74343133 2.413773775 0.05127337575
1.709448814 2.364985466 0.1507287025
1.740089893 2.4056077 0.2560381889
1.731983304 2.39352107 0.3576211929
1.737325072 2.399139166 0.4624718428
1.735446692 2.395665407 0.5667654872
1.737552404 2.39681077 0.673500061
1.739637256 2.397924662 0.7822031975
1.659613132 2.281749249 -0.7444156408
1.769674063 2.431283951 -0.6842976809
1.766718984 2.426334143 -0.575161159
1.771191955 2.430693626 -0.4696678221
1.76530695 2.420839071 -0.362739712
1.774389744 2.432405472 -0.2596987188
1.766502142 2.419816017 -0.1548109055
1.771376491 2.425606489 -0.05172713846
1.758904934 2.417375326 0.05148280412
1.719632268 2.362533569 0.1509380341
1.759788752 2.415927887 0.257781297
1.749683142 2.40029335 0.3595711291
1.747599721 2.396556377 0.4630975723
1.748428583 2.395936012 0.5682920218
1.747056961 2.392304897 0.6739499569
1.754417777 2.401501656 0.7853090763
1.665283561 2.272825718 -0.7433803678
1.784639478 2.434832096 -0.6869971156
1.777499437 2.423318863 -0.5759243369
1.789760828 2.439139843 -0.4724836349
1.782722712 2.427773476 -0.3646896482
1.780510664 2.422985554 -0.2593500912
1.787528872 2.431646585 -0.1559622884
1.779833317 2.419407845 -0.05172713846
1.776365995 2.424434185 0.0517620407
1.73613596 2.367790699 0.1516707391
1.764674783 2.404951811 0.2572583854
1.768204451 2.408880711 0.3617647886
1.759462476 2.395218134 0.4640361667
1.765663981 2.402781487 0.5713449717
1.761908174 2.395917416 0.6766493917
1.760499001 2.392251253 0.7842737436
1.663636684 2.254854441 -0.7392392755
1.787339687 2.420749664 -0.6847476363
1.790192008 2.423727274 -0.5774508119
1.800613165 2.436054468 -0.4731093943
1.793547988 2.424727201 -0.3651770949
1.793277025 2.423473835 -0.2600473762
1.805514216 2.438233376 -0.1567996591
1.797791958 2.426033974 -0.05200637504
1.784818769 2.418218136 0.0517620407
1.751509786 2.371355772 0.1522987783
1.7738235 2.400689363 0.2574326694
1.780142426 2.407482624 0.3624959588
1.776038289 2.400177002 0.4662262499
1.776376128 2.399760008 0.5721082091
1.767941475 2.386620283 0.6757495999
1.769989014 2.387643814 0.78479141
1.672650337 2.25058341 -0.7397568822
1.805082321 2.427005768 -0.6883468628
1.808017373 2.430063963 -0.5805037618
1.807924271 2.428170919 -0.4727964997
1.813862205 2.434369326 -0.3676145077
1.811249495 2.42998004 -0.2614418268
1.810432315 2.427112818 -0.156485647
1.813427091 2.429357767 -0.05221580341
1.800408363 2.421601534 0.05197146907
1.764546037 2.371636391 0.1527174562
1.792899609 2.408867121 0.2590014935
1.790907264 2.404437542 0.3629834652
1.796209335 2.40980196 0.4693549275
1.788263321 2.3982656 0.5732530355
1.798403025 2.410110712 0.6842976809
1.789871812 2.396929502 0.7899677753
1.682812333 2.247823715 -0.7407921553
1.818217397 2.426927805 -0.6901464462
1.831043601 2.442270994 -0.5850831866
1.828241944 2.43764782 -0.4759251773
1.822347999 2.4280231 -0.3676145077
1.830914497 2.437661409 -0.2630106509
1.824115515 2.426847458 -0.1569043398
1.836318254 2.442192316 -0.05263466388
1.81124723 2.418503761 0.05204127729
1.776407957 2.370256901 0.1530314833
1.81085813 2.415347338 0.2603959739
1.796907544 2.394995451 0.3624959588
1.806982875 2.406676292 0.4699806869
1.801758051 2.397973776 0.5747795105
1.797438622 2.391355753 0.6806984544
1.808678985 2.404562235 0.794626534
1.692202687 2.243183613 -0.7413098216
1.834144711 2.429579735 -0.692845881
1.842350125 2.438676119 -0.5858464241
1.845500588 2.441962481 -0.4781152606
1.833630562 2.42449379 -0.3681019545
1.841038465 2.432523489 -0.2631849349
1.832997561 2.420145988 -0.1569043398
1.83680284 2.424288511 -0.05239032581
1.829735279 2.424618721 0.0523205176
1.782675743 2.360542774 0.1528221369
1.824503064 2.415052414 0.2610932291
1.820038795 2.407395601 0.3654208481
1.820558429 2.40633893 0.4712321758
1.814090967 2.3960495 0.5759243369
1.81678009 2.398733616 0.6847476363
1.823315144 2.405614614 0.7972147465
1.691059828 2.224662781 -0.7371687293
1.848935843 2.430596352 -0.6950953603
1.853228688 2.435355186 -0.5866096616
1.860421896 2.443040371 -0.4796796143
1.853332877 2.431967258 -0.370295614
1.847103 2.422912836 -0.2628363371
1.860817552 2.439138889 -0.1585790813
1.854169846 2.42866683 -0.05263466388
1.848293543 2.43062973 0.05259975791
1.80099082 2.366708755 0.1536595076
1.836962342 2.413105488 0.2616161406
1.834864378 2.408604622 0.3666395545
1.828170061 2.398077965 0.4709192812
1.834348321 2.405313492 0.5797405243
1.822014689 2.387409687 0.6833978891
1.834464431 2.401986599 0.7982500196
1.701164484 2.221813679 -0.7382039428
1.868076563 2.43804884 -0.6991444826
1.865302086 2.433545589 -0.5877545476
1.871343493 2.439665556 -0.4803053737
1.870271325 2.436506271 -0.372001797
1.860401392 2.422772884 -0.2635335922
1.876621842 2.442131042 -0.1592071205
1.869950771 2.431689978 -0.05284408852
1.859198213 2.427338839 0.05266956612
1.823822141 2.37942934 0.1549155712
1.846586466 2.408260107 0.2617904842
1.851720572 2.413208485 0.3683457077
1.847355843 2.405783653 0.4737351239
1.845125914 2.402009249 0.5805037618
1.851713419 2.408846617 0.6914961338
1.840482712 2.392505646 0.7972147465
1.7089082 2.215862989 -0.7382039428
1.87895751 2.434597969 -0.7000442743
1.884581566 2.441006899 -0.5911890864
1.883471847 2.437807322 -0.4812439382
1.889693499 2.444096327 -0.3741954565
1.881037474 2.432023525 -0.2652767003
1.882690668 2.432406425 -0.1589977741
1.88822329 2.437795639 -0.05312332883
1.870103478 2.424000025 0.05273937434
1.83699739 2.37937355 0.155334264
1.858635664 2.406529427 0.2623133957
1.861346364 2.408301115 0.3685894608
1.867828488 2.414945364 0.4768638015
1.852297425 2.394001722 0.5801221728
1.860111356 2.402367592 0.6914961338
1.855921626 2.39522934 0.8003205657
1.716633201 2.209883928 -0.7382039428
1.892227888 2.434179306 -0.7018439174
1.89911747 2.442162037 -0.5930971503
1.900461674 2.442131281 -0.4834340513
1.896994472 2.43591857 -0.3739517033
1.901759267 2.44116044 -0.2670198083
1.894854665 2.430544853 -0.1593118012
1.906560898 2.44380331 -0.05340256914
1.888370156 2.430088997 0.05301861465
1.850196719 2.379252434 0.155752942
1.884152174 2.422042847 0.2647537589
1.872179866 2.404922247 0.3690769374
1.879888296 2.413086176 0.4778024256
1.865469337 2.393716097 0.5816486478
1.878072739 2.408153772 0.6950953603
1.876157522 2.403964996 0.8054969311
1.726717114 2.206921577 -0.7392392755
1.905519485 2.433696032 -0.7036435008
1.91368413 2.443245173 -0.5950052738
1.916286945 2.44481039 -0.48531124
1.905485392 2.429282427 -0.3739517033
1.915189028 2.440776348 -0.2677170634
1.908260584 2.430199385 -0.1597304791
1.908478737 2.429604292 -0.05322804302
1.904235721 2.432931185 0.05322804302
1.860539675 2.376248598 0.1559622884
1.897510052 2.421724796 0.265451014
1.887913108 2.407744884 0.3705393672
1.893976569 2.414609909 0.4793667495
1.885936499 2.402632236 0.5854647756
1.875633717 2.38779068 0.6910462379
1.893667698 2.409882784 0.8096380234
1.726040602 2.19025898 -0.7356157899
1.918404698 2.433485746 -0.7054431438
1.922200561 2.436550856 -0.5950052738
1.934173346 2.450847864 -0.4878142178
1.922142148 2.433855534 -0.3756578565
1.926168799 2.437201977 -0.2680656612
1.927456617 2.437959194 -0.1606725305
1.925633907 2.433904648 -0.05347237736
1.920956731 2.437597752 0.05347237736
1.878716588 2.38228631 0.1567996591
1.907185674 2.416651011 0.2656253278
1.902036667 2.409261942 0.3717580736
1.904842019 2.411084175 0.4799924791
1.907284737 2.413307667 0.5896626115
1.907718182 2.412127495 0.7000442743
1.903266668 2.404773235 0.8101556897
1.736897111 2.189062595 -0.7371687293
1.942640185 2.446614742 -0.7112918496
1.936375856 2.437849522 -0.5969133377
1.945174336 2.447174311 -0.4884399474
1.940513015 2.439559221 -0.3776077926
1.935479164 2.432361603 -0.268239975
1.93844378 2.434340477 -0.1608818769
1.946579576 2.442807436 -0.05382142588
1.928211331 2.429311037 0.05343747512
1.893232465 2.383533001 0.1573230326
1.9176687 2.41343236 0.2659739256
1.920319438 2.415037155 0.3737079501
1.918166041 2.410603762 0.4812439382
1.914473772 2.40509963 0.5892809629
1.919768691 2.410027027 0.7013939619
1.91044569 2.396603823 0.8096380234
1.74452734 2.182986975 -0.7371687293
1.947517991 2.435252666 -0.709942162
1.958364129 2.447938919 -0.6011111736
1.95370543 2.440369129 -0.4884399474
1.958945751 2.445164919 -0.379557699
1.955172777 2.439582825 -0.269808799
1.951927066 2.433791876 -0.1613005549
1.953843713 2.434437752 -0.05378652364
1.941673398 2.428813457 0.05357709154
1.910274386 2.387827158 0.1580557227
1.936040282 2.419168949 0.2673684359
1.928737283 2.40831995 0.3737079501
1.937687993 2.417766094 0.4840597808
1.921628952 2.396870852 0.588899374
1.937926054 2.415470362 0.7049931884
1.93089354 2.404984713 0.8148143888
1.756981611 2.182904243 -0.7392392755
1.958452106 2.431474447 -0.7108419538
1.973055482 2.448732376 -0.6030192375
1.969652176 2.442760468 -0.4903171659
1.96953547 2.441745758 -0.3800451756
1.971185327 2.442044258 -0.2708546519
1.960411549 2.426963091 -0.1613005549
1.978244066 2.448165417 -0.05424028635
1.955156803 2.428250313 0.05371670797
1.918182731 2.381479025 0.1580557227
1.953225732 2.423254013 0.2685886025
1.939624429 2.404663324 0.3741954565
1.953138351 2.420550585 0.4859370291
1.942317247 2.405423641 0.5927155614
1.95082438 2.415094376 0.7067928314
1.946144462 2.407583237 0.8179202676
1.769076347 2.183068991 -0.7413098216
1.97877717 2.440104008 -0.7153409719
1.983639359 2.445225 -0.603782475
1.991436601 2.453085899 -0.4937587082
1.98012495 2.43828249 -0.3805326223
1.990582585 2.449409485 -0.272423476
1.983570457 2.43904376 -0.1625566334
1.981304288 2.435386419 -0.05410066247
1.973272085 2.434181213 0.05399594828
1.934873939 2.385965109 0.1587884426
1.966272473 2.422952414 0.2692858577
1.958851099 2.41208601 0.3763890862
1.963645101 2.417127132 0.4865627587
1.958953023 2.409632444 0.5953868628
1.960051298 2.410124063 0.7072427273
1.968751192 2.419096231 0.824131906
1.773862958 2.174197197 -0.7402745485
1.98809123 2.435037613 -0.7157908678
1.99670434 2.444715977 -0.6053089499
2.002060175 2.449527979 -0.4943844378
1.997422457 2.442111492 -0.3822388351
2.000380516 2.443989277 -0.27259776
1.996709585 2.438633204 -0.1629753113
1.997396111 2.437737942 -0.05431009457
1.991449356 2.440017462 0.0542751886
1.946981788 2.383836985 0.1591024548
1.981860518 2.425675392 0.2703317106
1.979403734 2.420945644 0.3788264692
1.973320603 2.411787033 0.4868755937
1.978123665 2.416796684 0.5988214016
1.978331447 2.415327549 0.7108419538
1.974734902 2.409220695 0.823096633
1.77691257 2.161711931 -0.7382039428
2.001530409 2.434103489 -0.7175904512
2.018125296 2.45254159 -0.6091251373
2.013536453 2.445222855 -0.4950101674
2.016030312 2.447383165 -0.3841887414
2.007632971 2.435453892 -0.272423476
2.01961422 2.448246479 -0.1641267091
2.010984898 2.436919451 -0.05444971099
2.003762245 2.43768692 0.05437990278
1.969248176 2.393992662 0.1602538377
1.995802402 2.424548864 0.2710289657
1.994152427 2.421683073 0.3800451756
1.988009095 2.412506104 0.4884399474
1.991964221 2.415589571 0.6003479362
1.993371964 2.415575981 0.713091433
1.988050342 2.40827322 0.8251672387
1.779520392 2.149543285 -0.7361334562
2.006708145 2.422249317 -0.7162407637
2.02792716 2.446993113 -0.6095067263
2.02836442 2.445782423 -0.4965745509
2.036398411 2.453724146 -0.3863823712
2.029274702 2.44340682 -0.274166584
2.025595665 2.438108921 -0.1639173627
2.033965111 2.446447134 -0.05483366549
2.012685061 2.430324793 0.05437990278
1.984381199 2.39444828 0.1607771963
2.011883497 2.426769733 0.2720748186
2.006816864 2.418941498 0.3807763755
2.010717392 2.421922445 0.4918815196
2.00540185 2.414662123 0.6018743515
2.015492678 2.425089598 0.7180404067
2.004277229 2.409880638 0.8282729983
1.789861083 2.145973921 -0.7371687293
2.018897057 2.419718504 -0.7175904512
2.049464464 2.454614639 -0.6133229136
2.046181917 2.448942423 -0.4987646639
2.043676138 2.44507885 -0.386138618
2.042905092 2.442420721 -0.2748638093
2.03708148 2.433731794 -0.1641267091
2.052763224 2.451597691 -0.0551129058
2.028839588 2.432499886 0.05458933115
1.995287418 2.390573263 0.1609865427
2.030982018 2.431613207 0.2734693289
2.016521931 2.413444519 0.3810201287
2.029296875 2.427011967 0.4943844378
2.02179718 2.416330338 0.6041641235
2.01936388 2.411708832 0.7162407637
2.027561188 2.420642853 0.8344846964
1.796968102 2.140026331 -0.7371687293
2.024823427 2.409672976 -0.7166906595
2.056330681 2.44630146 -0.6129413247
2.063193321 2.452724695 -0.5009547472
2.053477764 2.439448357 -0.3863823712
2.063827276 2.45087266 -0.2766069472
2.058010578 2.442236662 -0.1651734263
2.061307907 2.444417715 -0.0551129058
2.051466465 2.442245245 0.05497328192
2.004904747 2.385123014 0.1610912085
2.045445204 2.432489872 0.2743408978
2.036436558 2.420061111 0.3832137585
2.03902936 2.421423912 0.4946973622
2.037388802 2.418621302 0.606453836
2.039911032 2.419898272 0.7207397819
2.045964241 2.425363064 0.8386257291
1.796943069 2.124889612 -0.7340628505
2.03322196 2.402590752 -0.7166906595
2.073737383 2.44959712 -0.6156126261
2.089616537 2.466610432 -0.5053349137
2.070965767 2.442865372 -0.3880885541
2.077522993 2.449733019 -0.2773042023
2.074277639 2.444174051 -0.1658014506
2.071123123 2.438730955 -0.05514780805
2.070310831 2.447283506 0.05525252223
2.020961523 2.387255907 0.1617192477
2.05392313 2.425335407 0.2743408978
2.052572966 2.422024012 0.384676218
2.0449121 2.411279917 0.494071573
2.054709911 2.421973705 0.6091251373
2.055912256 2.421677113 0.7234392166
2.051917076 2.415261507 0.8375905156
1.805601835 2.120075464 -0.7345805168
2.049181223 2.40437746 -0.7193900943
2.088643312 2.449813604 -0.61752069
2.093086243 2.453289747 -0.5040834546
2.08979249 2.447698355 -0.3900384605
2.086062193 2.442465782 -0.2773042023
2.093177319 2.449065208 -0.1666388214
2.090893984 2.445529222 -0.0554619506
2.074951172 2.435474873 0.05514780805
2.037935019 2.391181946 0.1624519527
2.067548752 2.424214363 0.2750381529
2.064880371 2.419374466 0.3854074478
2.065724134 2.41950798 0.4972002804
2.065701723 2.417772293 0.6098883748
2.071950912 2.423373461 0.7261386514
2.067448378 2.417253017 0.8406963348
1.815506101 2.116692781 -0.7356157899
2.052067757 2.391652107 -0.7175904512
2.112529039 2.460382938 -0.6221001148
2.108933449 2.455325842 -0.5059606433
2.106956244 2.451292276 -0.3917446136
2.115362406 2.459337711 -0.2800931633
2.098682642 2.439082146 -0.1664294899
2.109855413 2.45033884 -0.05574119091
2.09082675 2.437688351 0.05535723642
2.052773237 2.39163208 0.1629753113
2.083788157 2.426050425 0.2760840058
2.080653429 2.421548128 0.3868698478
2.089612484 2.430256128 0.5009547472
2.078828573 2.416862965 0.6114147902
2.091417789 2.429781199 0.7301877141
2.082178354 2.417339563 0.8432845473
1.822515965 2.110660076 -0.7356157899
2.052758455 2.375627995 -0.7148910761
2.12838006 2.462275028 -0.6243898273
2.129121542 2.461395502 -0.5087764859
2.121995687 2.451427937 -0.3929633498
2.126115322 2.455321074 -0.2804417908
2.109799385 2.434760571 -0.1666388214
2.128876925 2.455044985 -0.05602043122
2.107167006 2.439454556 0.05556666851
2.066334009 2.3904953 0.1633939892
2.104853392 2.434198618 0.2778271437
2.090393305 2.415771246 0.387113601
2.099375486 2.424440861 0.501267612
2.097536325 2.421462536 0.6144677401
2.097333193 2.419521332 0.7292879224
2.103261948 2.424650431 0.8484609127
1.832407355 2.107201576 -0.7366511226
2.063596487 2.371388674 -0.7157908678
2.138250828 2.456311941 -0.6247714758
2.149378777 2.467353344 -0.5115923285
2.134452343 2.448494911 -0.39369452
2.145149708 2.459897041 -0.2818363011
2.132730246 2.443934917 -0.1677902192
2.137434483 2.447598219 -0.05602043122
2.130105734 2.448680639 0.05595061556
2.074665308 2.383268118 0.1633939892
2.122495651 2.437354326 0.2790473104
2.114463806 2.426417828 0.3900384605
2.114317656 2.424541235 0.5028319359
2.112429619 2.421522856 0.6163758636
2.112174749 2.419525385 0.7315374017
2.121879816 2.428933144 0.852602005
1.837206721 2.097885132 -0.7356157899
2.071861267 2.364171505 -0.7157908678
2.148106575 2.450308561 -0.6251530647
2.164490223 2.46726203 -0.5131566525
2.152154446 2.451471567 -0.3954007328
2.151092052 2.449401379 -0.2814876437
2.150477886 2.446976423 -0.1685229242
2.151246786 2.446129084 -0.05616004765
2.150500059 2.454766989 0.05626476184
2.097455263 2.392531395 0.164545387
2.138873339 2.438917875 0.2800931633
2.13732338 2.435434818 0.3927195966
2.125373602 2.420116425 0.503457725
2.129939318 2.424459219 0.6190472245
2.129613638 2.42238307 0.7346867323
2.123965979 2.414258957 0.8500138521
1.839407802 2.085663557 -0.7335452437
2.085259438 2.36276865 -0.7175904512
2.165742874 2.453097343 -0.6278244257
2.177013636 2.464131832 -0.5140952468
2.175161362 2.460304022 -0.3980818391
2.167549372 2.45083189 -0.2825335264
2.172242641 2.454411745 -0.1695696414
2.165076494 2.444592476 -0.05629966781
2.159055233 2.447245836 0.05626476184
2.116369486 2.397172928 0.1653827727
2.148692131 2.432930708 0.280267477
2.151070595 2.433908463 0.39369452
2.140352249 2.420080423 0.505022049
2.147495985 2.427301884 0.6217185259
2.152265549 2.430984735 0.7396356463
2.141347647 2.41695261 0.8536372781
1.842826962 2.074898005 -0.7319923043
2.088316917 2.349648476 -0.7157908678
2.180813313 2.452859879 -0.6297324896
2.186915636 2.457992792 -0.5144081116
2.196936846 2.467521429 -0.400519222
2.186692715 2.45515275 -0.2839280367
2.187442064 2.454268694 -0.1700929999
2.184242964 2.448960304 -0.05657890439
2.171569824 2.444178581 0.05636947975
2.137993336 2.404698372 0.1664294899
2.16379261 2.432858706 0.281139046
2.164830685 2.432317972 0.394669503
2.167181015 2.43324542 0.5094022155
2.15726018 2.421257973 0.6221001148
2.168520212 2.432183981 0.7423350811
2.162633181 2.423877478 0.8588136435
1.859074116 2.078531504 -0.7356157899
2.096505642 2.342344999 -0.7157908678
2.205077887 2.462783813 -0.6343119144
2.206027269 2.462114573 -0.5169110894
2.202887058 2.456881285 -0.4000317454
2.205891848 2.459370852 -0.2853225172
2.195996284 2.446617603 -0.1700929999
2.21148634 2.46214819 -0.05706757307
2.194756031 2.45297575 0.05675342679
2.147707224 2.398708344 0.1665341556
2.186894655 2.441615582 0.2830564678
2.175958633 2.427702427 0.3951569796
2.186212778 2.437430382 0.5119051337
2.174877405 2.423941612 0.6247714758
2.1796 2.42750001 0.7432348728
2.180119753 2.426372051 0.862437129
1.865025043 2.070594788 -0.7350981832
2.102060318 2.332116842 -0.7148910761
2.216289997 2.457988024 -0.6350751519
2.229165554 2.470530987 -0.5203526616
2.219430208 2.458018541 -0.4014941752
2.230489492 2.469397783 -0.2874142528
2.217914343 2.453755856 -0.171139732
2.222750664 2.457379103 -0.05713738129
2.214012146 2.457185984 0.0570326671
2.164091587 2.400097132 0.1671621799
2.204743862 2.44432497 0.2842766345
2.195060968 2.431880236 0.3971068859
2.196032286 2.431249857 0.5122180581
2.189907074 2.42361784 0.6266795397
2.193289042 2.425658226 0.7450344563
2.200239897 2.43164134 0.8670958877
1.863156557 2.054054976 -0.731474638
2.118044853 2.33342433 -0.7175904512
2.230136156 2.456050158 -0.6366016269
2.247072935 2.472970009 -0.5225427151
2.237345695 2.46053648 -0.4032003582
2.240436077 2.463071346 -0.2875885665
2.238566637 2.459290981 -0.1720817685
2.236701012 2.455519199 -0.05727700517
2.231982946 2.459808588 0.05727700517
2.183197975 2.404356956 0.1679995656
2.211923599 2.435138464 0.2841023207
2.216887951 2.43889308 0.3995442688
2.205834389 2.425031185 0.5125308633
2.216851234 2.436288357 0.632022202
2.21355176 2.430954933 0.7490836382
2.2087152 2.423945665 0.8670958877
1.867709756 2.044685602 -0.7304394245
2.120918751 2.320262671 -0.7157908678
2.245320559 2.455494165 -0.6385097504
2.255692244 2.465110779 -0.5225427151
2.256216288 2.464817286 -0.4051502645
2.250365257 2.456705093 -0.2877628803
2.261982679 2.467657804 -0.1732331663
2.258345842 2.462827444 -0.05762604997
2.240555048 2.452002764 0.05727700517
2.201938868 2.408897877 0.1688369364
2.228478432 2.436223745 0.2851482034
2.230749607 2.436996222 0.400519222
2.225869656 2.43081522 0.5153467059
2.225342512 2.428534746 0.632022202
2.233450413 2.436531305 0.7531327009
2.22327137 2.423725367 0.8696841002
1.879710078 2.044169426 -0.7325099707
2.120684385 2.304611921 -0.713091433
2.272065401 2.468257666 -0.6438523531
2.2732234 2.467786789 -0.5247327685
2.275138617 2.469000816 -0.4071001709
2.267955065 2.459481716 -0.2889830768
2.264735937 2.454271317 -0.1728144735
2.274639368 2.464140415 -0.05783547834
2.256796122 2.453390121 0.05748642981
2.216677427 2.40893054 0.1693602949
2.243293762 2.436147928 0.2860197723
2.244199276 2.435425043 0.4014941752
2.248646498 2.43939662 0.5187882781
2.23737669 2.425471544 0.6331670284
2.252091169 2.440568209 0.7567319274
2.243091106 2.429113388 0.8743427992
1.883853316 2.035089731 -0.731474638
2.130963326 2.300426483 -0.7139912248
2.288245201 2.469349384 -0.6461420655
2.288109779 2.467477322 -0.526297152
2.289143801 2.466864824 -0.408075124
2.290084362 2.466149092 -0.2907261848
2.286454678 2.461381197 -0.1738611907
2.300926924 2.475224972 -0.05828924105
2.271713495 2.453228474 0.05766095221
2.227788448 2.404107571 0.1695696414
2.264904022 2.443307877 0.2877628803
2.257663727 2.433790445 0.4024691284
2.26386714 2.438771963 0.5203526616
2.256095648 2.42954731 0.6362199783
2.260596037 2.432692528 0.7567319274
2.264711618 2.435416222 0.8795191646
1.899205327 2.036648273 -0.7345805168
2.137650728 2.291549683 -0.7135413885
2.307997465 2.472427368 -0.6491950154
2.30927515 2.472065687 -0.5291129947
2.303163052 2.464660168 -0.4090500772
2.315008402 2.47560358 -0.2928179204
2.300920248 2.458817244 -0.1742798835
2.310919285 2.468638659 -0.05832414702
2.292537928 2.458445549 0.05797509849
2.244342327 2.405078411 0.1701976806
2.286082029 2.448096514 0.2893316746
2.27427578 2.434598923 0.4039315581
2.276413679 2.435183048 0.5212911963
2.277055264 2.434165955 0.6396545172
2.274824858 2.430080891 0.7585315704
2.286404371 2.441596746 0.8846955895
1.901012897 2.02437377 -0.7325099707
2.147370338 2.285118818 -0.7139912248
2.330060005 2.478660822 -0.6530112028
2.330070972 2.47693944 -0.5319287777
2.324426174 2.46921134 -0.4112437367
2.325001001 2.468958378 -0.2929922044
2.324555635 2.46675992 -0.1754312664
2.32543993 2.465970755 -0.05846376345
2.31796217 2.467516661 0.05839395523
2.26134944 2.405568123 0.1708257049
2.301438808 2.447358131 0.2902032435
2.296787262 2.440704107 0.4063689411
2.293448687 2.435452461 0.5231684446
2.307076693 2.449067831 0.645760417
2.296660423 2.436306238 0.7630305886
2.301965714 2.440227032 0.887283802
1.902758718 2.012110472 -0.7304394245
2.166048765 2.288933277 -0.7175904512
2.352195501 2.484769344 -0.6568273902
2.342778206 2.473093748 -0.532867372
2.345323086 2.474047661 -0.4134373963
2.343201637 2.470948219 -0.2942124009
2.346901178 2.473117828 -0.1764779985
2.345049143 2.469439268 -0.05874300376
2.325187683 2.457957029 0.05835904926
2.284837008 2.413614273 0.1719770879
2.309968233 2.43930912 0.2902032435
2.313486099 2.441316605 0.4078314006
2.312809467 2.438899279 0.5256714225
2.31426096 2.439574957 0.645378828
2.318566799 2.442408085 0.7675296068
2.309139729 2.430775404 0.8867661357
1.915099382 2.011052847 -0.7325099707
2.161926746 2.268661022 -0.7135413885
2.379818916 2.496438265 -0.6621699929
2.358214617 2.472046614 -0.5344317555
2.365848303 2.479182243 -0.415631026
2.362821341 2.474280596 -0.2956069112
2.359658718 2.469242811 -0.1767919958
2.36427927 2.473213434 -0.05902224407
2.343408108 2.459961653 0.05860338733
2.301095009 2.414700031 0.1726051271
2.328093529 2.441324472 0.2914234102
2.332957029 2.4447155 0.4097812772
2.339981079 2.451219559 0.5300515294
2.329544067 2.438579321 0.6472869515
2.330693245 2.438931942 0.768879354
2.33054018 2.437066078 0.8919425011
1.924430966 2.007480383 -0.7335452437
2.168089628 2.26007247 -0.713091433
2.390803814 2.491365194 -0.66293329
2.378714085 2.477035522 -0.5372475386
2.376807451 2.474185705 -0.4161185026
2.384821653 2.48079443 -0.2973500192
2.369218111 2.462844372 -0.1768966764
2.389107466 2.482649803 -0.05944110081
2.362624884 2.463723898 0.05888262391
2.311855555 2.409937859 0.1728144735
2.348593712 2.446526766 0.2929922044
2.341051817 2.436964989 0.4097812772
2.350833893 2.446295738 0.5306773186
2.343060493 2.436501503 0.6488133669
2.345522642 2.438212395 0.7711288333
2.352006435 2.443242311 0.8971188664
1.924369574 1.994137526 -0.7309570909
2.172864437 2.250067234 -0.7121916413
2.410399437 2.494298935 -0.6659861803
2.400644064 2.483336687 -0.5403761864
2.389569759 2.470154762 -0.4168497026
2.410096645 2.48963213 -0.2994417548
2.39030838 2.467469215 -0.1778387129
2.397759676 2.474294424 -0.05944110081
2.387448788 2.473139524 0.05930148065
2.324414968 2.406164169 0.1731284857
2.36361742 2.445888519 0.2938638031
2.362918139 2.443460226 0.4122186899
2.371722698 2.450849771 0.5334931016
2.362476826 2.439590931 0.6518663168
2.360799551 2.437007904 0.7733783722
2.371277332 2.446114779 0.9012600183
1.927627325 1.98291409 -0.7294041514
2.189249277 2.250469685 -0.7148910761
2.416785955 2.482634783 -0.6652229428
2.420754671 2.48584342 -0.5428791642
2.415231705 2.478440762 -0.4197745621
2.423378229 2.485061884 -0.2999646962
2.407705069 2.467268944 -0.1784667522
2.412399292 2.471213818 -0.05958072096
2.409043312 2.477275133 0.05961562321
2.348542452 2.41337204 0.1742798835
2.376734495 2.441492319 0.2943867147
2.388481855 2.451844454 0.4151435494
2.383446455 2.444969893 0.5341188312
2.386482239 2.446375132 0.6560641527
2.38468647 2.443680763 0.7783272266
2.389675379 2.447081566 0.9048834443
1.932178497 1.973075628 -0.7283688784
2.196118593 2.241039276 -0.7144411802
2.42861867 2.476562977 -0.6659861803
2.433998823 2.481185198 -0.5438177586
2.435424805 2.480903864 -0.4217244983
2.431073189 2.474742174 -0.2997903526
2.433532953 2.475519657 -0.1797228158
2.429852486 2.470910549 -0.05979014561
