# .PCD v0.7 - Point Cloud Data file format
VERSION 0.7
FIELDS x y z
SIZE 4 4 4
TYPE F F F
COUNT 1 1 1
WIDTH 1282
HEIGHT 1
VIEWPOINT 0 0 0 1 0 0 0
POINTS 1282
DATA ascii
1.430563927 2.498915911 0.7599447966
1.159491777 2.019681692 -0.6124179363
1.209774613 2.105562925 -0.5506767631
1.466354132 2.551100731 -0.5637125373
1.466194749 2.548761129 -0.4590302706
1.461216569 2.538057566 -0.35445261
1.465887785 2.545143843 -0.2532491982
1.459285378 2.531636715 -0.1509380341
1.461897373 2.534126282 -0.05036585033
1.455039263 2.533459425 0.05029603839
1.414387465 2.460691452 0.146541819
1.450206041 2.521985769 0.250808835
1.442949653 2.507343531 0.3500652909
1.444853306 2.508622646 0.4518342614
1.443541169 2.505336046 0.5537905097
1.440876245 2.498691559 0.6559538841
1.445071459 2.503946781 0.7630506158
1.146213889 1.980508924 -0.6015475392
1.469111681 2.536391973 -0.6667515039
1.474266768 2.544267893 -0.5633309484
1.484991789 2.560716152 -0.4621589482
1.478039384 2.546676159 -0.3564025164
1.476763487 2.543457985 -0.2535978258
1.478148818 2.543796062 -0.1519847512
1.47375083 2.534193277 -0.05047056451
1.469886303 2.538748026 0.05050547048
1.429978371 2.467835903 0.147274524
1.45800221 2.515184164 0.250634551
1.457670808 2.512593508 0.3515277505
1.454592705 2.505272627 0.452147156
1.460166812 2.51386261 0.5568434596
1.460362077 2.512179613 0.6609027982
1.453803658 2.498886824 0.7630506158
1.161881447 1.991513848 -0.6062062383
1.491713524 2.554808378 -0.6730501652
1.489080787 2.549277067 -0.5656206608
1.493921995 2.55551672 -0.4621589482
1.49148643 2.55032897 -0.3576211929
1.487646222 2.541726112 -0.2539464533
1.493074417 2.548962116 -0.1526127905
1.489224195 2.541368961 -0.05071489513
1.480753541 2.537056684 0.0505752787
1.465765953 2.508360147 0.2504602075
1.476454496 2.52462554 0.3539651334
1.472867131 2.517485619 0.4552758336
1.474885583 2.518915176 0.559133172
1.476563692 2.52077508 0.664501965
1.467943788 2.504051924 0.766156435
1.493259788 2.538090706 -0.6699008346
1.5035007 2.554477215 -0.5679103732
1.504392982 2.553953409 -0.4627847075
1.505981803 2.555630684 -0.3590836525
1.504163027 2.550508499 -0.2553409338
1.50151968 2.543996572 -0.1526127905
1.491186619 2.535579443 0.05064508691
1.463531613 2.487561703 0.1490539461
1.487218618 2.525804758 0.2527262568
1.483810067 2.51800561 0.35372141
1.486223936 2.521095753 0.4568401873
1.482232213 2.512319803 0.5587515235
1.490858793 2.525933743 0.6672013998
1.484100223 2.512476444 0.7702975273
1.430063248 2.414258242 -0.7402745485
1.508625031 2.544858456 -0.6730501652
1.519974589 2.562986851 -0.5709633231
1.518903852 2.559142113 -0.4646618962
1.518947959 2.557185411 -0.3600585759
1.518146753 2.553806067 -0.2562125027
1.516072273 2.549303293 -0.1532408148
1.521827936 2.556949615 -0.05123846978
1.505702853 2.540942907 0.05085451901
1.473224282 2.484156132 0.1491586268
1.503718615 2.534567595 0.2541207671
1.495191813 2.518192053 0.35445261
1.50107038 2.526081324 0.4587174058
1.498580337 2.520891666 0.5618044734
1.498671055 2.519039154 0.6667515039
1.499777794 2.518900871 0.7739210129
1.446828127 2.422268391 -0.7444156408
1.526494741 2.554632902 -0.6770992279
1.531374097 2.560767889 -0.5717265606
1.536388278 2.567118168 -0.4671648741
1.529905319 2.555273771 -0.3605460823
1.537293315 2.565581322 -0.2579556108
1.533623815 2.557432175 -0.1540782005
1.534859776 2.55848074 -0.05137808993
1.478812933 2.473855257 0.1488445997
1.518113136 2.537587643 0.2549923062
1.512128949 2.52658391 0.3564025164
1.509878516 2.52082634 0.4587174058
1.513866901 2.525485039 0.5640941858
1.510900736 2.518543005 0.6681011915
1.515520811 2.52524519 0.7775444984
1.447302699 2.403963089 -0.7402745485
1.541882634 2.55903554 -0.6797986627
1.544356942 2.562132835 -0.5732530355
1.553503394 2.575270891 -0.4696678221
1.546441674 2.561545372 -0.3622522652
1.544180155 2.556787968 -0.2576069832
1.550807357 2.565737247 -0.1549155712
1.543191195 2.551127195 -0.05134318396
1.532100439 2.54380703 0.05113375187
1.497148871 2.483813524 0.1497866511
1.524903655 2.528861046 0.2546437085
1.530609608 2.536321402 0.3585961759
1.524214387 2.523729801 0.4602817595
1.534855723 2.54034996 0.5686736107
1.527750254 2.526593924 0.671700418
1.525766969 2.521325827 0.7780621052
1.431633115 2.359258413 -0.727851212
1.561932325 2.571960211 -0.6847476363
1.561446548 2.570148945 -0.5763059258
1.562482715 2.569832802 -0.4696678221
1.560533643 2.564610243 -0.3634709418
1.557238936 2.558190107 -0.2583042383
1.563910007 2.567131281 -0.155334264
1.561456203 2.561091185 -0.05165733024
1.555497885 2.562375307 0.05162242055
1.513069868 2.490520716 0.1505193561
1.535790563 2.526928186 0.2549923062
1.545643926 2.541138649 0.3600585759
1.538149714 2.526830912 0.4618461132
1.541672349 2.531622887 0.5679103732
1.542644739 2.53123045 0.6743998528
1.538581848 2.522582054 0.7801327109
1.430787921 2.339414597 -0.723192513
1.56479609 2.556519985 -0.6820482016
1.579634905 2.579751968 -0.5797405243
1.575572848 2.571099758 -0.4709192812
1.578815937 2.574377775 -0.3656645715
1.574495196 2.566324234 -0.2596987188
1.579131126 2.571868896 -0.1559622884
1.574127793 2.562714338 -0.05179694667
1.56234622 2.553518057 0.05155261233
1.529661298 2.499117851 0.1513567269
1.553969026 2.536842108 0.2565611005
1.553466678 2.534035683 0.3598148823
1.555814385 2.53687191 0.4646618962
1.550499558 2.526226282 0.5679103732
1.565750957 2.549076796 0.6806984544
1.551996469 2.525695324 0.7827208638
1.446041584 2.345917225 -0.7268159389
1.58451736 2.569562435 -0.6869971156
1.595848322 2.585916996 -0.5824118257
1.592391133 2.579307795 -0.4734222293
1.589432001 2.572505236 -0.3661520779
1.591824651 2.574370623 -0.2610932291
1.582398176 2.558125019 -0.1554389298
1.593587518 2.574207544 -0.0521459952
1.579200268 2.561940908 0.05183185264
1.539423466 2.495463133 0.1514613926
1.573281884 2.548355103 0.2583042383
1.564990163 2.533937693 0.3605460823
1.571931243 2.54318738 0.4668520093
1.567127705 2.534429789 0.5709633231
1.571118474 2.538899422 0.6793487668
1.568939805 2.533402205 0.7868620157
1.468080521 2.364085436 -0.7340628505
1.599648237 2.573946953 -0.6896964908
1.604414225 2.580610991 -0.5824118257
1.611820221 2.590506315 -0.4765509069
1.601550341 2.571995974 -0.3668832779
1.609834552 2.584297657 -0.2626620233
1.607168078 2.578008413 -0.1570090055
1.602564096 2.568628788 -0.0521459952
1.594465613 2.566604137 0.05204127729
1.552343845 2.496858597 0.1518801004
1.593299627 2.561733961 0.2602216601
1.582218289 2.541941166 0.3624959588
1.578709483 2.534331799 0.4662262499
1.581157565 2.537274599 0.572871387
1.583064556 2.538360596 0.6806984544
1.58595705 2.541020155 0.7910030484
1.480422854 2.365497351 -0.7361334562
1.623105645 2.591468573 -0.695995152
1.617583036 2.581649303 -0.5839383602
1.62505126 2.59155798 -0.4778024256
1.621068478 2.583205223 -0.3693206608
1.618846416 2.578661919 -0.2626620233
1.61828053 2.575766563 -0.1572183669
1.613649964 2.566404343 -0.05221580341
1.612963676 2.576277971 0.05235542357
1.566353083 2.499886751 0.152403459
1.604346633 2.559534073 0.2605702877
1.600576282 2.551536798 0.3646896482
1.593848825 2.538843393 0.4681034684
1.598358393 2.545040131 0.5759243369
1.600212097 2.546018362 0.6842976809
1.596872687 2.538740396 0.7920383811
1.500007987 2.378288984 -0.7418274879
1.638380885 2.595675945 -0.6986945868
1.632873178 2.585947275 -0.586228013
1.636196494 2.589210749 -0.4784281552
1.638564706 2.590952635 -0.3712705672
1.628286123 2.572711706 -0.2626620233
1.636878014 2.585288525 -0.1581604034
1.631160736 2.574269533 -0.05249504
1.624081612 2.574013948 0.05242523178
1.584666252 2.509603024 0.1533454955
1.616464138 2.558971167 0.2610932291
1.620079994 2.562713861 0.3671270311
1.607982755 2.541610479 0.4696678221
1.611431479 2.546081066 0.5774508119
1.617432356 2.553586721 0.6878969073
1.609862685 2.539677143 0.7941089272
1.507677674 2.371145248 -0.7413098216
1.649524093 2.593229294 -0.6995943785
1.650773883 2.593194962 -0.5892809629
1.649922609 2.589859009 -0.4796796143
1.658266902 2.60195756 -0.3737079501
1.645828485 2.58044982 -0.2640565038
1.648491383 2.582638979 -0.1583697498
1.648746848 2.582042933 -0.05277428031
1.63520205 2.571704388 0.05249504
1.605212212 2.522591352 0.1544968933
1.638674259 2.573196411 0.2631849349
1.62901628 2.557042599 0.3671270311
1.628524542 2.554305553 0.4731093943
1.624976158 2.546778679 0.5789772868
1.63831687 2.565708876 0.692845881
1.62183857 2.538925648 0.7956618071
1.512819171 2.360987663 -0.7397568822
1.665328622 2.597008944 -0.7022937536
1.670416951 2.603941202 -0.5930971503
1.665354252 2.59405899 -0.4815568328
1.667793155 2.595861673 -0.3737079501
1.664972544 2.5894835 -0.2656253278
1.662899494 2.585267305 -0.1588931084
1.667940259 2.59111619 -0.05308842659
1.653250575 2.579161644 0.05277428031
1.613368034 2.515010118 0.1543922126
1.651951432 2.574167252 0.2638822198
1.644813061 2.56107688 0.3685894608
1.646420598 2.561612844 0.4756123424
1.637042284 2.54604435 0.5801221728
1.644098759 2.555058479 0.6914961338
1.641592026 2.549206734 0.8008381724
1.526702881 2.363541365 -0.7423450947
1.672269106 2.587906122 -0.7013939619
1.687411666 2.609341621 -0.5957684517
1.683438778 2.601203442 -0.4840597808
1.681159019 2.596690178 -0.3746829331
1.68700254 2.603720665 -0.2677170634
1.683229208 2.595913649 -0.1599398255
1.686769605 2.600376606 -0.05340256914
1.673092961 2.590172768 0.05312332883
1.628643513 2.519426584 0.1550202519
1.658128023 2.563077211 0.2633592784
1.660214782 2.565318346 0.3700518906
1.656425476 2.557508469 0.4759251773
1.657040715 2.556502342 0.5839383602
1.659816265 2.558824539 0.6941955686
1.656789422 2.553184748 0.8039440513
1.528210521 2.348750353 -0.7392392755
1.691926718 2.59838295 -0.7058929801
1.692841649 2.598796129 -0.5946236849
1.703921318 2.613810062 -0.487501353
1.696721554 2.600780964 -0.3761453629
1.695627093 2.598112345 -0.2677170634
1.694013596 2.593661547 -0.1601491719
1.688820124 2.584724665 -0.05319313705
1.687579393 2.59269619 0.05329785123
1.641348243 2.520706892 0.1554389298
1.673145533 2.567579746 0.2644051313
1.675664902 2.569484711 0.3715143204
1.669215441 2.558618784 0.4771766961
1.67731595 2.569075823 0.5881361365
1.675753355 2.564726114 0.6973448992
1.669475436 2.554144382 0.8060145974
1.536400437 2.343401194 -0.7392392755
1.71122098 2.609053373 -0.7103919983
1.710520625 2.606001854 -0.5976766348
1.711494803 2.606494427 -0.4871884882
1.710786939 2.603435278 -0.3773640692
1.710158944 2.600501299 -0.2685886025
1.71577704 2.608052731 -0.1614052355
1.709927678 2.597186565 -0.05357709154
1.70055294 2.593775272 0.05343747512
1.659997582 2.529991865 0.1563809812
1.685378313 2.566720486 0.2649280727
1.695074558 2.58050561 0.3739517033
1.686818004 2.565981388 0.4796796143
1.685825706 2.563499689 0.5881361365
1.693891764 2.573804855 0.7013939619
1.684756041 2.557981968 0.8091204166
1.54735744 2.343129158 -0.7407921553
1.722467542 2.606315613 -0.7112918496
1.727815509 2.613416433 -0.6007295251
1.723853469 2.6054461 -0.4881270826
1.73082304 2.613999605 -0.3798014522
1.724729419 2.60281992 -0.2694601715
1.724869847 2.602048159 -0.1614052355
1.728932858 2.606198788 -0.05389123783
1.711800456 2.591160774 0.05350728333
1.677631378 2.537510157 0.1572183669
1.701573491 2.57275033 0.2661482692
1.704072595 2.574572563 0.3739517033
1.702309251 2.569959164 0.4815568328
1.698017597 2.562508583 0.5892809629
1.708250046 2.575997353 0.7036435008
1.70115304 2.563352108 0.8127439022
1.559145808 2.34226656 -0.7423450947
1.731554151 2.600287676 -0.7112918496
1.746091843 2.620136023 -0.603782475
1.74435091 2.615545034 -0.49125579
1.744344473 2.614546776 -0.3807763755
1.745973706 2.615010977 -0.2713775933
1.7410537 2.605672121 -0.1620332748
1.748020411 2.615110397 -0.05420537665
1.731916189 2.601815224 0.05385633186
1.687585354 2.533300877 0.1573230326
1.720938921 2.581415892 0.2677170634
1.715251327 2.57191205 0.3744391799
1.722235203 2.580432177 0.4846855104
1.716121316 2.569328785 0.5923339128
1.723094225 2.577819824 0.7058929801
1.714385271 2.563822508 0.8148143888
1.564084888 2.331996441 -0.7407921553
1.742159724 2.595541239 -0.7117417455
1.757416606 2.617284298 -0.6045457125
1.763386726 2.624196053 -0.494071573
1.755676031 2.611736298 -0.3812638521
1.761764407 2.61881876 -0.272423476
1.751253247 2.601235867 -0.1621379405
1.756021857 2.607333899 -0.05417047068
1.749239087 2.607074261 0.05410066247
1.699758053 2.532369375 0.1576370448
1.73438251 2.582009077 0.2684143186
1.733526707 2.578787088 0.3763890862
1.736743212 2.58260107 0.4862498641
1.733849168 2.576352596 0.5953868628
1.73163271 2.572092056 0.7058929801
1.738437057 2.580252171 0.8220613599
1.577214718 2.334801912 -0.7433803678
1.761670828 2.605894327 -0.7162407637
1.774884343 2.624452591 -0.6075986624
1.778721809 2.628149748 -0.4959488213
1.768778443 2.612475395 -0.3822388351
1.777143955 2.622859001 -0.2734693289
1.772200346 2.613597631 -0.1632893234
1.772515893 2.613080978 -0.05441480875
1.766832948 2.614513636 0.05437990278
1.717094541 2.539956331 0.1584744155
1.751867533 2.589444637 0.269808799
1.753197432 2.58946228 0.3788264692
1.747514009 2.580097914 0.4868755937
1.752296329 2.585215092 0.5988214016
1.753277302 2.585690498 0.7112918496
1.748069644 2.576071262 0.8225790262
1.571908832 2.310391665 -0.7371687293
1.77907753 2.612924099 -0.7198399901
1.78956151 2.626353741 -0.6095067263
1.790765882 2.627133131 -0.4968874156
1.78683567 2.619405031 -0.3841887414
1.785166144 2.614993811 -0.2732950151
1.788073301 2.61729002 -0.1639173627
1.78952539 2.618434191 -0.05465914309
1.775492907 2.608640432 0.05437990278
1.733819962 2.545502186 0.1592071205
1.760444283 2.583621502 0.269808799
1.770721197 2.596755266 0.3807763755
1.764304638 2.585403681 0.4890657067
1.764630914 2.583946943 0.5999662876
1.767789364 2.587599516 0.7135413885
1.760320067 2.574738979 0.824131906
1.58692205 2.314173937 -0.7402745485
1.785333753 2.601566076 -0.718490243
1.812512279 2.639197588 -0.6140861511
1.804856539 2.627064943 -0.4981388748
1.814417839 2.639010668 -0.3880885541
1.807160854 2.626488447 -0.2752124369
1.804449797 2.620589018 -0.164545387
1.808184743 2.625032425 -0.05493837968
1.787303805 2.605413914 0.05444971099
1.749921083 2.549009562 0.1598351598
1.776668906 2.587006092 0.2708546519
1.782476306 2.593519449 0.3812638521
1.782723665 2.59194088 0.4915686548
1.776315331 2.580696583 0.6007295251
1.786102533 2.593943596 0.717140615
1.77961266 2.582585573 0.8287906647
1.593196154 2.305164099 -0.7392392755
1.787096739 2.583786249 -0.7153409719
1.826182723 2.639312267 -0.6156126261
1.825718045 2.636673212 -0.501267612
1.819097996 2.626133442 -0.387113601
1.820857882 2.626714706 -0.275909692
1.815863848 2.617556095 -0.1647547334
1.826457024 2.631847858 -0.05521761999
1.810490012 2.618582249 0.05486857146
1.764488459 2.551099062 0.1603585184
1.797479987 2.596858025 0.27259776
1.789708734 2.583705664 0.3807763755
1.809762716 2.611680031 0.4965745509
1.794263601 2.58738637 0.603782475
1.79847908 2.592496157 0.718490243
1.796326756 2.587467432 0.8324140906
1.609661222 2.312551975 -0.7433803678
1.802337646 2.587440491 -0.7180404067
1.839415312 2.639684439 -0.617139101
1.842360497 2.641947031 -0.503457725
1.827797294 2.620085955 -0.387113601
1.840962887 2.63699913 -0.2776528001
1.835972071 2.627892971 -0.1658014506
1.835173965 2.625777006 -0.05521761999
1.826019168 2.622410774 0.0550779961
1.775221109 2.548511982 0.1605678499
1.818614125 2.6088624 0.2745152116
1.807353735 2.590780735 0.3827263117
1.811630011 2.59594512 0.4946973622
1.81744802 2.602346182 0.6087434888
1.807065606 2.586518049 0.718490243
1.812646627 2.592578411 0.8360375762
1.608449578 2.294546843 -0.7392392755
1.813146949 2.584639549 -0.7189401984
1.850875258 2.636460781 -0.6179023385
1.864735484 2.655220747 -0.5072121024
1.855195761 2.63967514 -0.3910134137
1.859326839 2.643593788 -0.2790473104
1.856629252 2.63780117 -0.1668481827
1.846631646 2.622624636 -0.0552874282
1.85077858 2.639263153 0.05556666851
1.79557991 2.558647871 0.1616145819
1.829545736 2.606078148 0.2748638093
1.83191061 2.607513428 0.386138618
1.827496886 2.599301815 0.4965745509
1.831040502 2.602408409 0.6102700233
1.827299237 2.59613061 0.7229892612
1.828361034 2.595711231 0.8391433954
1.607930779 2.276013851 -0.7350981832
1.821482301 2.576385736 -0.718490243
1.874132395 2.648891687 -0.6224817634
1.87559557 2.649981499 -0.5075250268
1.87403667 2.645817518 -0.3929633498
1.866698742 2.633510828 -0.2786986828
1.875529647 2.644010305 -0.1676855385
1.870118141 2.635408878 -0.05570628494
1.862748384 2.635727406 0.05563647673
1.815324783 2.566725969 0.1625566334
1.840235472 2.600981951 0.2750381529
1.848337293 2.610502958 0.3876010776
1.842722297 2.60064435 0.4981388748
1.845108271 2.602086067 0.6117964387
1.848077774 2.605310202 0.7274883389
1.844571471 2.5984447 0.8422492743
1.616262555 2.270104885 -0.7350981832
1.821867347 2.556995392 -0.7148910761
1.88792491 2.648728848 -0.6240082383
1.88873744 2.647912979 -0.5084635615
1.899867296 2.661550999 -0.3963756561
1.89440608 2.652920961 -0.2814876437
1.887069702 2.640697956 -0.1678948998
1.890936017 2.645132065 -0.05605533347
1.872395515 2.628882647 0.05563647673
1.832386613 2.571759224 0.1632893234
1.859009266 2.607198238 0.2764326334
1.864811778 2.613405704 0.3890635073
1.871299028 2.621529341 0.503457725
1.861026525 2.605215073 0.6140861511
1.867813468 2.612787247 0.7315374017
1.863744855 2.606131792 0.8469079733
1.6354357 2.280147552 -0.7402745485
1.831473351 2.552522659 -0.7153409719
1.909754515 2.659665108 -0.6282060146
1.910185218 2.659282684 -0.5119051337
1.905206442 2.650401115 -0.3956444561
1.912962317 2.659231663 -0.282882154
1.895816922 2.634424925 -0.1678948998
1.909505963 2.651497364 -0.05633457005
1.896253943 2.643783808 0.05609023944
1.841351986 2.565347672 0.1632893234
1.880885243 2.618492603 0.2783500552
1.875784159 2.61043191 0.3895509839
1.883898854 2.619792223 0.5043963194
1.877680302 2.610185862 0.6167575121
1.878745317 2.609741449 0.732437253
1.879605532 2.609015226 0.8500138521
1.642988682 2.27471137 -0.7402745485
1.847221255 2.55559063 -0.7180404067
1.917414188 2.651726007 -0.6278244257
1.927561879 2.663801432 -0.5140952468
1.923761368 2.656596422 -0.3975943625
1.929952502 2.664167166 -0.2841023207
1.922584653 2.652047634 -0.1694649756
1.922984958 2.651625395 -0.05647419393
1.910156131 2.64363122 0.05622985587
1.859209776 2.572176456 0.1641267091
1.901234865 2.62838459 0.2800931633
1.894197583 2.616732121 0.3915008903
1.899526954 2.623130083 0.5062735081
1.893693089 2.613153458 0.6190472245
1.896995544 2.61578846 0.7360364199
1.89505291 2.612150431 0.8531196117
1.641825557 2.256465673 -0.7361334562
1.846510768 2.536846876 -0.7144411802
1.935906529 2.657711506 -0.630877316
1.94569087 2.670167208 -0.516598165
1.939578772 2.659825325 -0.3990567923
1.93924129 2.657413721 -0.2841023207
1.938435078 2.655335665 -0.1700929999
1.934589028 2.648125648 -0.05654400215
1.933030009 2.656686544 0.05664871633
1.877581596 2.578588009 0.1649640799
1.911570907 2.623342514 0.280267477
1.918066621 2.631289482 0.394669503
1.904014707 2.610100746 0.505022049
1.916236401 2.625889301 0.6236265898
1.914853096 2.622073889 0.7396356463
1.908719778 2.611758232 0.8551902175
1.647015333 2.247892618 -0.7350981832
1.86687839 2.546100855 -0.7189401984
1.950513244 2.659193754 -0.6327854395
1.962013721 2.672913074 -0.5184754133
1.96060276 2.66903758 -0.4014941752
1.952045321 2.65544486 -0.284625262
1.963073611 2.669470787 -0.1714537293
1.953302383 2.6542418 -0.05682324246
1.942292452 2.649922371 0.05664871633
1.896020532 2.584902287 0.1658014506
1.919081807 2.615382433 0.2800931633
1.929587841 2.627779484 0.3951569796
1.924812078 2.619356155 0.5081507564
1.928878665 2.623930454 0.6247714758
1.933233142 2.627931118 0.7432348728
1.922405481 2.611302853 0.857260704
1.65983355 2.248056889 -0.7371687293
1.874596238 2.538001537 -0.718490243
1.982420921 2.682022333 -0.6400361657
1.976495504 2.672056913 -0.5197268724
1.98053515 2.676538467 -0.4036878347
1.973158836 2.664626837 -0.2863683701
1.972843885 2.662258148 -0.1714537293
1.9720819 2.660259008 -0.05710247904
1.957468987 2.651170492 0.05682324246
1.916901946 2.594331264 0.1668481827
1.940499783 2.624351501 0.2818363011
1.945832491 2.630603075 0.3966194093
1.948046207 2.63167429 0.5119051337
1.936146379 2.613687515 0.6240082383
1.956777692 2.639614344 0.7486336827
1.941866279 2.618541479 0.8619195223
1.669976115 2.245350122 -0.7382039428
1.87108767 2.513917446 -0.7135413885
2.004666328 2.692409515 -0.6442340016
1.992893219 2.674645424 -0.5216041207
1.992704749 2.67244482 -0.4041753113
1.995552659 2.675290108 -0.2882858217
1.986904621 2.661756992 -0.1718724221
1.993785858 2.669034243 -0.05745152757
1.975529075 2.655208111 0.05706757307
1.92997539 2.592094421 0.1671621799
1.957980275 2.62874651 0.2830564678
1.961392164 2.631412029 0.3978381157
1.965947032 2.635599852 0.5140952468
1.958171487 2.624222517 0.6282060146
1.965980291 2.632767439 0.7486336827
1.960701466 2.623786926 0.8660606146
1.677804232 2.239506483 -0.7382039428
1.889202952 2.51984477 -0.717140615
2.017586708 2.69010663 -0.645378828
2.014074326 2.68347168 -0.5247327685
2.01155901 2.678169966 -0.4061252177
2.019240141 2.687422514 -0.2903775275
2.00938797 2.672364473 -0.173023805
2.012709379 2.67484045 -0.05773076415
1.996778846 2.664297104 0.0574166216
1.945004106 2.593330145 0.1676855385
1.976710916 2.634644985 0.284450978
1.982485175 2.640423298 0.4002754986
1.983440638 2.639776468 0.5162853599
1.983834863 2.63934207 0.633548677
1.982186556 2.635233402 0.7513331175
1.982628703 2.633904219 0.8717545867
1.683283448 2.230552435 -0.7371687293
1.893290281 2.507013798 -0.7153409719
2.02459836 2.679913998 -0.6446155906
2.036534071 2.693757534 -0.5281743407
2.031672716 2.685381174 -0.4083188772
2.033419371 2.686712265 -0.2910748124
2.028349161 2.678072691 -0.1738611907
2.024451017 2.670985699 -0.05780057609
2.015703917 2.670080185 0.05769586191
1.962473035 2.597680092 0.1684182584
1.991899967 2.635678053 0.2853225172
2.001270056 2.646152973 0.402225405
1.998604655 2.640712261 0.5178496838
2.007257462 2.651183605 0.6381281018
1.996081114 2.634510517 0.7531327009
1.996477842 2.633126736 0.8738251925
1.681707263 2.212358952 -0.7330275774
1.90674746 2.506595135 -0.717140615
2.048206806 2.691579103 -0.6491950154
2.04951334 2.691348553 -0.5291129947
2.051863909 2.692482233 -0.410512507
2.045201778 2.682766199 -0.2914234102
2.053434134 2.691618443 -0.17522192
2.045896053 2.679797411 -0.05814962462
2.028643847 2.667802334 0.05780057609
1.984832168 2.608297348 0.1695696414
2.002295494 2.630293369 0.2854968309
2.022523403 2.654942274 0.4046627879
2.020984411 2.650999546 0.5212911963
2.020070553 2.648844242 0.6392729282
2.018270969 2.644567013 0.7580816746
2.008002758 2.629211664 0.8748604655
1.691768885 2.209542513 -0.7340628505
1.910745144 2.493736029 -0.7153409719
2.067145109 2.696877956 -0.6522479653
2.061300516 2.687311888 -0.5297387242
2.070919037 2.697901249 -0.4124624133
2.065472841 2.689834118 -0.2929922044
2.06281662 2.684434652 -0.17522192
2.06499052 2.685320616 -0.0584288612
2.048886776 2.6749928 0.05811471865
2.002430916 2.612449169 0.1703023463
2.024800062 2.640680552 0.2874142528
2.031779289 2.647865534 0.4046627879
2.043457747 2.661164284 0.5247327685
2.02930522 2.641776323 0.6392729282
2.03698945 2.649867296 0.7616809011
2.031303644 2.64056015 0.881072104
1.706548572 2.212803364 -0.7371687293
1.914676547 2.480879784 -0.7135413885
2.095740795 2.714511156 -0.6583538651
2.082746267 2.69573164 -0.532867372
2.085181713 2.696937323 -0.4134373963
2.09313488 2.706247568 -0.2956069112
2.079509974 2.686693907 -0.1758499593
2.086596251 2.693905592 -0.05877790973
2.065541506 2.677324057 0.05832414702
2.018859148 2.614930153 0.1709303707
2.043748856 2.646210909 0.2888087332
2.053148508 2.6564641 0.4071001709
2.062403679 2.666515112 0.5272357464
2.052930593 2.653310061 0.6438523531
2.054578781 2.653525829 0.7648301721
2.057073593 2.654833317 0.8883190751
1.711892724 2.203781366 -0.7361334562
1.928108096 2.480335712 -0.7153409719
2.105204344 2.707178593 -0.6583538651
2.106700897 2.707152843 -0.536621809
2.10190177 2.699038506 -0.4148997962
2.112363338 2.711498737 -0.2970013618
2.099928379 2.693594456 -0.1767919958
2.097976923 2.690125704 -0.05884771794
2.088372231 2.687465668 0.05870809779
2.029971838 2.611374378 0.171139732
2.059090853 2.646923304 0.2896803021
2.070944071 2.660246372 0.4088063538
2.073662996 2.662777424 0.5278614759
2.073040485 2.660065174 0.6472869515
2.06382823 2.646338463 0.7648301721
2.070618391 2.654089928 0.8903895617
1.713622332 2.190185308 -0.7335452437
1.931519032 2.46778965 -0.7135413885
2.124326706 2.712177515 -0.6614068151
2.124195576 2.711035728 -0.5388118625
2.123088837 2.707675457 -0.4173371792
2.124275923 2.707243204 -0.2973500192
2.122413874 2.703898191 -0.1779433936
2.118472338 2.696938276 -0.0591618605
2.104664087 2.689976692 0.05891752616
2.051388502 2.61999774 0.1721864492
2.072003841 2.644424915 0.2902032435
2.092000961 2.668987274 0.4112437367
2.084163904 2.657077789 0.5281743407
2.090334415 2.66398716 0.6499582529
2.089442492 2.660937071 0.7711288333
2.089420319 2.658997774 0.8945307136
1.719680905 2.182972431 -0.7330275774
1.952185273 2.476336479 -0.7180404067
2.135739803 2.708201885 -0.6621699929
2.139764309 2.71135807 -0.5403761864
2.14236927 2.712711334 -0.4192870855
2.134476423 2.701747894 -0.2975243032
2.14174819 2.709007502 -0.1787807792
2.14104867 2.707151651 -0.05954581499
2.122705936 2.69360733 0.0591618605
2.072429657 2.628865719 0.1732331663
2.088165283 2.646925211 0.2912490964
2.111144543 2.674133539 0.4131936431
2.11010313 2.671855211 0.5325545073
2.109360218 2.668996096 0.6530112028
2.107179403 2.664327145 0.7742781639
2.103021622 2.658113718 0.8966012597
1.732094288 2.183009624 -0.7350981832
1.955541015 2.463742971 -0.7162407637
2.159833908 2.719177485 -0.6667494774
2.162262201 2.721259356 -0.5438177586
2.163708687 2.721128941 -0.4217244983
2.158780575 2.712989569 -0.2996160686
2.158183813 2.711265802 -0.1794088036
2.15920639 2.710610628 -0.05979014561
2.139084816 2.6959517 0.05937128887
2.094012737 2.637257576 0.1742798835
2.10482955 2.64897871 0.2922949791
2.122470617 2.670226336 0.4136811197
2.136633396 2.686116219 0.5369346738
2.123086929 2.668132782 0.6545376778
2.131784916 2.677142382 0.7801268697
2.118306398 2.658311129 0.8991894722
1.736911654 2.174235106 -0.7340628505
1.956827641 2.447769642 -0.7135413885
2.176195621 2.721200228 -0.6690391302
2.182856083 2.727576256 -0.5466336012
2.174434423 2.715109825 -0.4219682217
2.177731752 2.718254805 -0.3010105491
2.173880577 2.711507559 -0.1799321622
2.18492341 2.72333312 -0.06024390832
2.160965681 2.704090595 0.05972033739
2.109443188 2.63773036 0.1748032421
2.127292871 2.659098387 0.2942124009
2.141704321 2.675198078 0.415631026
2.154641628 2.689433575 0.5391247272
2.142210722 2.672960758 0.6575906277
2.143554449 2.672725677 0.7810266614
2.143292665 2.670486212 0.9059187174
1.746913433 2.171168804 -0.7350981832
1.970249295 2.446994781 -0.7153409719
2.193070889 2.722760439 -0.6713288426
2.201041937 2.730705261 -0.5488237143
2.197607517 2.724499702 -0.4246493578
2.199719429 2.726141691 -0.3027536869
2.19713378 2.720996141 -0.1810835451
2.195674181 2.717244864 -0.06027881801
2.179167986 2.707435846 0.05996467173
2.122397184 2.635016918 0.1751172543
2.144061327 2.660965443 0.2952582538
2.160998344 2.680067778 0.4175809324
2.172700405 2.692656755 0.5413148403
2.168792248 2.686853886 0.66293329
2.156545639 2.669774294 0.7823764086
2.167172909 2.681018591 0.9121304154
1.749615788 2.159054518 -0.7330275774
1.97877717 2.440104008 -0.7153409719
2.207508564 2.721187592 -0.6728553176
2.221765041 2.736808777 -0.5516394973
2.217118263 2.729137182 -0.4265992641
2.215505362 2.726176977 -0.303625226
2.216700554 2.7257061 -0.1819209307
2.212718725 2.718870401 -0.06048824638
2.201198578 2.71534586 0.06031372026
2.150455475 2.650858641 0.17668733
2.155848742 2.65655899 0.2956069112
2.187859535 2.694082022 0.4209932685
2.18333292 2.686588764 0.5416277051
2.190541983 2.694500923 0.6667494774
2.183069706 2.683393002 0.7886750102
2.176519156 2.673437119 0.9121304154
1.757142305 2.152933598 -0.7330275774
2.002075911 2.451292992 -0.7207397819
2.240595579 2.742351294 -0.6801061034
2.240056992 2.739742041 -0.5538296103
2.242972374 2.741354465 -0.4297678471
2.235101461 2.730762482 -0.3050197065
2.241389036 2.736492395 -0.1831769943
2.234873056 2.726594925 -0.06083729491
2.216986656 2.715391397 0.06048824638
2.163487434 2.647975683 0.1770013571
2.172673225 2.658273697 0.2966527641
2.204791784 2.695647478 0.4224556983
2.207709312 2.697295904 0.5453821421
2.202422142 2.689875364 0.6675127149
2.20724225 2.693846464 0.7940738797
2.196862459 2.679267406 0.9167891145
1.770778894 2.154249907 -0.7356157899
2.008145094 2.441278934 -0.7198399901
2.262627363 2.749674559 -0.6839222312
2.254630327 2.738005161 -0.5550810695
2.260102987 2.742699623 -0.4312303066
2.256026745 2.73677969 -0.3065885305
2.25474 2.733274221 -0.1834910065
2.255832434 2.732657671 -0.06115143746
2.232802629 2.715358496 0.06066277251
2.191751719 2.663542509 0.1785714328
2.192069769 2.662979126 0.2980472445
2.221758842 2.697129726 0.4239181578
2.222138166 2.695669413 0.5466336012
2.216792583 2.688231468 0.6690391302
2.227795839 2.699651957 0.7981229424
2.218502045 2.686478853 0.9219654799
1.773360729 2.142102957 -0.7335452437
2.009194613 2.425250769 -0.717140615
2.278476238 2.749317169 -0.6858303547
2.284349442 2.754446983 -0.5600869656
2.273467064 2.73937583 -0.4319615364
2.278292179 2.744217873 -0.3083316386
2.274478197 2.737676382 -0.1843283772
2.288369656 2.752444267 -0.06177972257
2.256298065 2.724488497 0.06104671955
2.207408905 2.663563967 0.1790947914
2.212797165 2.669115067 0.2996160686
2.238765717 2.698523521 0.4253805578
2.250460863 2.71069479 0.5513266325
2.243724108 2.701620817 0.6743817925
2.245924234 2.702350378 0.8012722731
2.240219831 2.693570852 0.9271418452
1.789487481 2.146285534 -0.7371687293
2.012654781 2.412236929 -0.7153409719
2.303156137 2.759433508 -0.6904097199
2.306614399 2.761616707 -0.563215673
2.293198109 2.743609905 -0.4339114428
2.303194523 2.754589796 -0.3104233742
2.295553923 2.743508101 -0.1852704287
2.295396805 2.741372585 -0.06170991436
2.286286116 2.741168261 0.06160520017
2.221812725 2.661975384 0.1795134693
2.223375797 2.662905693 0.2997903526
2.258354902 2.702878475 0.4273304641
2.268779516 2.713430166 0.5535167456
2.261958599 2.70431304 0.6770531535
2.255344391 2.694493532 0.8012722731
2.262011766 2.700546026 0.9323183298
1.789514303 2.13114953 -0.7340628505
2.023569584 2.408180952 -0.7162407637
2.302667856 2.739355087 -0.6873568296
2.331499815 2.771687746 -0.5669701099
2.312988758 2.747737169 -0.4358613491
2.319213152 2.754152775 -0.3112949133
2.31798768 2.75075078 -0.1863171607
2.312685728 2.742516041 -0.061919339
2.306130409 2.745419502 0.06188444048
2.246512413 2.672550201 0.1807695329
2.235222816 2.658177614 0.3001389802
2.28566885 2.716243982 0.43074283
2.28205514 2.710026503 0.5544553399
2.287827253 2.715921164 0.6820141673
2.282320976 2.707463741 0.8075708747
2.280144691 2.702969313 0.9359417558
1.78446877 2.110138655 -0.7288864851
2.03196311 2.401103258 -0.7162407637
2.329975605 2.752277613 -0.692699492
2.344989538 2.768055916 -0.5679087043
2.340536833 2.760845661 -0.4392736852
2.33396554 2.752120256 -0.3119921684
2.339206934 2.756347179 -0.1872591972
2.337779284 2.752716541 -0.06233820319
2.32344842 2.746513844 0.06209386885
2.266152143 2.676886559 0.1816069037
2.247062445 2.653400421 0.3004876077
2.310537815 2.726421356 0.4336676896
2.302998066 2.715604544 0.5572711229
2.307454824 2.719894648 0.6850671172
2.296802044 2.705423117 0.8093704581
2.294569731 2.700881958 0.9380123019
1.796833634 2.109780073 -0.7309570909
2.035276413 2.388062716 -0.7144411802
2.342115402 2.747116327 -0.6934626698
2.366177082 2.773377419 -0.5707244873
2.363049984 2.767755032 -0.4417110682
2.360380173 2.763651133 -0.3142582178
2.359194756 2.760311604 -0.188096568
2.365569592 2.765815258 -0.06282686442
2.343396902 2.750563383 0.06237310171
2.293622971 2.690238476 0.1830723286
2.275705099 2.668278694 0.3031022847
2.327772379 2.727399349 0.4351301193
2.330424786 2.728577852 0.5616513491
2.322035313 2.717794418 0.6865935922
2.320161581 2.71368289 0.8143194318
2.319053888 2.710471153 0.9442239404
1.806702256 2.106428385 -0.7319923043
2.038522482 2.375028849 -0.7126415372
2.347852945 2.734456062 -0.6923178434
2.388716698 2.78008461 -0.5738532543
2.383051395 2.771530628 -0.4436609745
2.383004665 2.77050066 -0.3160013556
2.376634121 2.761141539 -0.1887246072
2.386956215 2.771176577 -0.0631410107
2.366005898 2.757542133 0.06272215396
2.305601358 2.685247183 0.1832816601
2.290198565 2.666363716 0.3037995398
2.341161489 2.723773003 0.4358613491
2.352815866 2.735403061 0.5647799969
2.34431386 2.724553823 0.6904097199
2.33216238 2.708521366 0.8152192235
2.339851379 2.715530872 0.948882699
1.816570163 2.103032351 -0.7330275774
2.044252396 2.364949703 -0.7117417455
2.349679708 2.71733284 -0.690028131
2.410040617 2.785172701 -0.5766690373
2.401806831 2.773700476 -0.4453671277
2.404402256 2.775718212 -0.3175701201
2.394106388 2.761884212 -0.1893526316
2.401855469 2.768870354 -0.06328062713
2.386075974 2.761371613 0.06300138682
2.321493149 2.684736013 0.1838050187
2.322953463 2.685477257 0.3069371283
2.363646269 2.730593681 0.438298732
2.364937544 2.730159044 0.5654057264
2.367952108 2.732675314 0.6946075559
2.363306999 2.725392342 0.8228675723
2.365775108 2.726315498 0.9556120038
1.823899508 2.096678734 -0.7330275774
2.060171843 2.366618872 -0.7144411802
2.3668859 2.717998266 -0.6923178434
2.426237583 2.784188747 -0.5782333612
2.431045294 2.787740707 -0.449023217
2.427174568 2.782321692 -0.3193132579
2.42212224 2.77457428 -0.1908180416
2.42203021 2.772517681 -0.06355986744
2.410139799 2.76962018 0.06338534504
2.353147507 2.702222109 0.1855844408
2.329696894 2.674347162 0.3065885305
2.39403367 2.746268272 0.4421985447
2.390036345 2.739749193 0.5691601634
2.390384436 2.739185572 0.6984237432
2.388188839 2.734739542 0.8282663822
2.381634235 2.725313425 0.9582002163
1.822296739 2.080127239 -0.7294041514
2.073559284 2.365273952 -0.7162407637
2.373770714 2.706766844 -0.691554606
2.44245553 2.783126593 -0.5797977448
2.443379641 2.782222748 -0.4495107234
2.443446398 2.781316757 -0.320184797
2.442341566 2.778103352 -0.1916554272
2.442260981 2.776056767 -0.06383910775
2.427700281 2.770214319 0.06359477341
2.371784925 2.704502344 0.1863171607
2.342957735 2.670693636 0.3071114421
2.416702509 2.752812386 0.4446359277
2.412622452 2.746230841 0.5722888708
2.406412125 2.738198042 0.7003318071
2.408015013 2.738093853 0.8318656087
2.398790121 2.72568512 0.9613060355
1.830824375 2.075202703 -0.7299218178
2.071485758 2.346333981 -0.7126415372
2.383203983 2.69846487 -0.691554606
2.463929653 2.787904501 -0.5826135874
2.480694294 2.804902554 -0.4546292126
2.462382078 2.783215761 -0.3214049935
2.46526289 2.784515619 -0.1927021444
2.467364073 2.785905838 -0.06425796449
2.443971872 2.769218922 0.06376929581
2.399246931 2.717583179 0.1877825558
2.352266788 2.662498236 0.3071114421
2.428925991 2.747334719 0.4451234043
2.434802055 2.753012657 0.5754175782
2.427665472 2.743013382 0.7037664056
2.439523697 2.754471302 0.8395139575
2.419344664 2.73072958 0.9659647346
1.840623736 2.071686983 -0.7309570909
2.074076414 2.333625793 -0.7108419538
2.390000343 2.687195063 -0.6907913685
2.48629117 2.794477224 -0.5857422352
2.489982843 2.796660185 -0.4546292126
2.486659765 2.790968418 -0.3233224154
2.479799509 2.782288313 -0.1931208223
2.490381956 2.792201519 -0.06460700929
2.466423988 2.776047468 0.06411834806
2.415351868 2.716656208 0.1883059144
2.378763676 2.673621178 0.3093775213
2.443301678 2.745196581 0.4460983574
2.457535982 2.759247541 0.5785462856
2.451113701 2.751072168 0.7079641819
2.448643684 2.746366978 0.8395139575
2.449440956 2.745331287 0.9742469788
1.85649848 2.075651884 -0.7345805168
2.082209349 2.326372385 -0.7108419538
2.391040087 2.670479298 -0.6885016561
2.517120838 2.809321404 -0.5907481313
2.511657238 2.801252842 -0.4568228722
2.521178484 2.810887098 -0.3266343474
2.508174419 2.79442358 -0.1945862323
2.510804176 2.795392275 -0.0648862496
2.492100477 2.785303593 0.0645372048
2.431482077 2.715647936 0.188829273
2.408885717 2.689463377 0.3121664822
2.471419096 2.757345915 0.4495107234
2.472427845 2.756534576 0.5797977448
2.471191406 2.754189014 0.7110171318
2.469932318 2.750853539 0.8435630798
2.469338894 2.748259783 0.9783880711
1.854681611 2.059111357 -0.7309570909
2.09553647 2.324879169 -0.7126415372
2.408235073 2.670865774 -0.6907913685
2.541469336 2.816649675 -0.5941897035
2.529400349 2.801310301 -0.4582853019
2.536317348 2.807982683 -0.3273315728
2.539340258 2.809360266 -0.1962609887
2.525913 2.792542458 -0.06502587348
2.520545959 2.7973876 0.06502587348
2.452983379 2.72049427 0.1897713244
2.41425395 2.676601648 0.3116435707
2.494330645 2.763437271 0.4519481063
2.495276451 2.762545824 0.5829263926
2.499218225 2.765939236 0.7163597941
2.49520421 2.759560108 0.8489618897
2.491876841 2.753950119 0.983564496
1.850177407 2.039746046 -0.7262982726
2.106256962 2.320437908 -0.7135413885
2.417543888 2.662442446 -0.6907913685
2.549955368 2.806301117 -0.5938768387
2.567209005 2.823306084 -0.4634037912
2.55146575 2.805008411 -0.3280288279
2.562576294 2.815248489 -0.1973077059
2.554497242 2.804405451 -0.06551453471
2.54238987 2.801899672 0.06534001231
2.479919672 2.731136799 0.1911320686
2.415545225 2.659308672 0.310597688
2.519983768 2.77234149 0.4548729658
2.518195868 2.768432379 0.5860551
2.512821198 2.761555195 0.7175046802
2.520566702 2.76812315 0.8543606997
2.509282351 2.753801823 0.9866702557
1.862498283 2.038980484 -0.7283688784
2.106456041 2.304440498 -0.7108419538
2.426823616 2.653986931 -0.6907913685
2.563736916 2.801754475 -0.594815433
2.590454102 2.828968525 -0.4658411741
2.577390194 2.813715696 -0.3301205635
2.580484629 2.81512022 -0.1979357302
2.576437235 2.808733463 -0.06582868099
2.557549953 2.798913479 0.06547963619
2.505612135 2.740150452 0.1923881173
2.469189644 2.699374914 0.3163499534
2.535007477 2.769384384 0.4558478892
2.545189142 2.778562069 0.5901224017
2.531730652 2.762898684 0.7201759815
2.543382406 2.773672581 0.8588597178
2.538470984 2.766377687 0.9944348335
1.877450228 2.040998697 -0.731474638
2.121086836 2.304241896 -0.713091433
2.437402487 2.646944284 -0.691173017
2.602951765 2.82474637 -0.6016985774
2.601659775 2.821367502 -0.4660849273
2.610162258 2.829597235 -0.333083868
2.593005657 2.809030056 -0.1981450766
2.60250783 2.817350149 -0.06624753773
2.586261988 2.810569048 0.06596829742
2.519220114 2.735795736 0.1927021444
2.496146202 2.709789276 0.3186160028
2.558113098 2.775115013 0.4582853019
2.569606543 2.785631895 0.5935639739
2.554673195 2.768473148 0.7239921689
2.56230402 2.77479887 0.8620090485
2.565157175 2.775944233 1.001164079
1.887189388 2.037266731 -0.7325099707
2.122492552 2.289678574 -0.7108419538
2.450631142 2.642738819 -0.6923178434
2.642355919 2.847499132 -0.6085816622
2.631754875 2.83408761 -0.4697410166
2.633583069 2.835066795 -0.3348269761
2.625913143 2.824829102 -0.1999244988
2.620497704 2.817034006 -0.0664569661
2.608290434 2.814724445 0.0662824437
2.540976286 2.740166187 0.1936441809
2.520495653 2.717126608 0.3205334544
2.589392424 2.789447308 0.4621851146
2.587380648 2.78532958 0.5954411626
2.584367037 2.781111956 0.7297164202
2.586571217 2.781536341 0.8669579625
2.586676598 2.779700518 1.005822897
1.891653299 2.027841806 -0.731474638
2.134462118 2.286528826 -0.7121916413
2.454480886 2.628429651 -0.6907913685
2.656326532 2.842587471 -0.6095202565
2.651122093 2.835033655 -0.4714471698
2.650269508 2.833131075 -0.335698545
2.658960819 2.840433836 -0.201703921
2.64398694 2.822462797 -0.06680601835
2.638563633 2.827533484 0.06680601835
2.569609165 2.751716852 0.1951095909
2.538124561 2.717047691 0.3215793073
2.616737127 2.799242735 0.4653537273
2.60788393 2.787820816 0.5979440808
2.612840176 2.792142153 0.7350590825
2.612249851 2.789559126 0.8723567724
2.610893726 2.786161184 1.011516929
1.896075249 2.018409729 -0.7304394245
2.149103642 2.286164045 -0.7144411802
2.467676401 2.624135971 -0.6919362545
2.685184479 2.853438377 -0.613900423
2.678693056 2.844550133 -0.4746157825
2.669705153 2.834014893 -0.3369187117
2.679818869 2.842762232 -0.2025412917
2.671661139 2.832126856 -0.06725978106
2.65115571 2.821220875 0.06687582284
2.595618486 2.760189772 0.1963656545
2.566705227 2.728489399 0.3240196705
2.640098333 2.804546118 0.4677911103
2.631143808 2.793080091 0.6010728478
2.627955675 2.788720369 0.7365855575
2.640689611 2.800271749 0.8786554337
2.627233505 2.784054995 1.014105082
1.897799611 2.006165028 -0.7283688784
2.14635396 2.267326117 -0.7108419538
2.47277236 2.611228943 -0.6907913685
2.701922894 2.851216555 -0.615464747
2.710460663 2.858229637 -0.4785155952
2.701521873 2.8478055 -0.3397077024
2.700725794 2.844979286 -0.2033786774
2.701694012 2.845001936 -0.06778335571
2.678854942 2.830831766 0.06732958555
2.61848855 2.766070843 0.1974123716
2.602247 2.746995449 0.3273315728
2.655335426 2.801075459 0.4687660635
2.66621685 2.811573744 0.6070173383
2.649837494 2.792346239 0.7400200963
2.663866997 2.805168629 0.8831544518
2.648425579 2.78793335 1.018763781
1.914117813 2.009319782 -0.7319923043
2.152515888 2.258785725 -0.7103919983
2.479161739 2.599740267 -0.690028131
2.716816664 2.847958565 -0.6167162657
2.7254076 2.854968309 -0.4794905484
2.726585627 2.854204416 -0.3416251242
2.719805002 2.846114397 -0.2041113824
2.730957747 2.855786085 -0.06827201694
2.699262619 2.833515406 0.06760882586
2.641908169 2.771370649 0.1984590888
2.615946293 2.742219448 0.3278545141
2.685166121 2.813796997 0.4724221528
2.691022635 2.817963839 0.6104589105
2.675357342 2.800578356 0.7445995212
2.679887056 2.803363085 0.8854039311
2.683513403 2.80519557 1.028599024
1.928792834 2.011327744 -0.7350981832
2.156340361 2.247039557 -0.7090423703
2.485049486 2.588672638 -0.6892649531
2.744532585 2.856976509 -0.6207835674
2.743611813 2.854023457 -0.4809530079
2.759512663 2.869561434 -0.3445884287
2.746342659 2.853872061 -0.205367431
2.745959997 2.852477551 -0.06841164082
2.729902744 2.845721006 0.06813240051
2.657999277 2.769798994 0.1989824474
2.648486853 2.757959127 0.3308178186
2.704599142 2.814426661 0.4741283059
2.708566904 2.817568064 0.6123360991
2.704169989 2.811032534 0.7499421835
2.699117661 2.803817987 0.8885532618
2.702180624 2.806022406 1.03222239
1.930434346 1.999023557 -0.7330275774
2.171901941 2.248287439 -0.7117417455
2.494071245 2.579981804 -0.6892649531
2.780080318 2.87484169 -0.6267281175
2.777908802 2.870587349 -0.4853402972
2.780599594 2.871361971 -0.3459829092
2.769687891 2.859095097 -0.2064141631
2.764250517 2.851490259 -0.06862106174
2.757382154 2.855353117 0.06858616322
2.687081814 2.780611992 0.2004478574
2.687181234 2.778776169 0.3344783485
2.730480671 2.822562456 0.4770531654
2.726629972 2.81661129 0.6142132878
2.740792513 2.830255508 0.7575744987
2.72738719 2.814443588 0.8948518634
2.729443312 2.814601421 1.038951755
1.923587441 1.978758454 -0.727851212
2.182455063 2.243485451 -0.7126415372
2.509459972 2.578731537 -0.691173017
2.801124334 2.876440525 -0.6292310357
2.804536343 2.877933979 -0.4882651865
2.805907965 2.877328396 -0.3479003608
2.80335927 2.873714447 -0.2081935704
2.796538115 2.86471796 -0.06917954236
2.779878855 2.858613729 0.06890030205
2.709308386 2.784096718 0.2013899088
2.707500219 2.781270266 0.335872829
2.759709835 2.832920313 0.4804655313
2.75712657 2.828295708 0.6189063191
2.754768372 2.824887037 0.7587193847
2.750803232 2.818855047 0.8993508816
2.751399755 2.817495346 1.043610573
1.937584877 1.978596449 -0.7304394245
2.187546253 2.233068943 -0.7117417455
2.517519474 2.568114996 -0.6907913685
2.828247547 2.883076906 -0.6329854727
2.834031105 2.887961388 -0.4916774929
2.831288338 2.883155346 -0.3498177826
2.825073242 2.874815941 -0.209030956
2.826144457 2.874905109 -0.06966821104
2.802433252 2.861750603 0.06921444833
2.739977121 2.796021938 0.2029599845
2.752551556 2.806890726 0.3402306139
2.783481121 2.837442636 0.4829029143
2.787740707 2.83979845 0.6235994101
2.776109457 2.82597661 0.7617723942
2.784340143 2.83237958 0.90699929
2.776117086 2.82302618 1.049304485
1.948549747 1.975947261 -0.7319923043
2.201190948 2.230585098 -0.7135413885
2.538882256 2.571885347 -0.6942259073
2.854954004 2.890049934 -0.63673985
2.855760574 2.888849258 -0.4936273992
2.865151882 2.897337675 -0.3527810574
2.846329212 2.876294851 -0.2098683268
2.856364012 2.884418011 -0.07015687972
2.82694602 2.86569643 0.06956349313
2.761433601 2.797329664 0.2037973553
2.787531137 2.822783709 0.3433682323
2.799445391 2.832867622 0.4838778377
2.809241295 2.840799093 0.6261023283
2.8052876 2.835808277 0.7671149969
2.806549311 2.835106373 0.9110483527
2.812276602 2.838909388 1.059139609
1.960878491 1.97461772 -0.7340628505
2.208964348 2.222887278 -0.7135413885
2.529849291 2.544908524 -0.6892649531
2.89010191 2.905274153 -0.6423715353
2.879833221 2.892931223 -0.4960647821
2.886496067 2.898612499 -0.3541755676
2.878909588 2.888976812 -0.2115430832
2.880534887 2.888590336 -0.07050593197
2.859481573 2.878509045 0.07012197375
2.785260201 2.801839828 0.2048440725
2.807202816 2.822924852 0.3445884287
2.837319851 2.851222277 0.4887526333
2.845624924 2.857569695 0.6320468783
2.835950375 2.846863747 0.7728391886
2.824684381 2.833572865 0.9137477875
2.833084583 2.840015888 1.063280702
1.955465674 1.95546639 -0.7294041514
2.208438873 2.206898212 -0.7108419538
2.5414958 2.538836718 -0.690028131
2.917001724 2.911916018 -0.6461259723
2.905373812 2.898282051 -0.4987459183
2.909292459 2.901180983 -0.3557443321
2.913027763 2.902875662 -0.2133225054
2.901430845 2.890313148 -0.07078516483
2.889310837 2.88830328 0.07061063498
2.812902689 2.810940504 0.2062048167
2.845235109 2.841266155 0.3480746448
2.858496904 2.852517843 0.4907025695
2.860680103 2.8536973 0.6332983375
2.869508743 2.860509396 0.7793267965
2.862169981 2.851202488 0.9227458239
2.857544184 2.845601082 1.068974853
1.967762351 1.954074025 -0.731474638
2.226808786 2.210546494 -0.7144411802
2.544766665 2.524419546 -0.6885016561
2.935056686 2.910572767 -0.6480031013
2.937527657 2.91099 -0.5026457906
2.930728674 2.902222872 -0.3571388721
2.936830282 2.907253027 -0.2143692225
2.934249163 2.902667999 -0.07134364545
2.911642551 2.891388178 0.07092478126
2.842545986 2.820799589 0.2076702267
2.882014513 2.857973099 0.3513865769
2.890497684 2.865382433 0.4946023822
2.888865709 2.861768484 0.6373656392
2.887349129 2.859265327 0.7816164494
2.889616728 2.859514236 0.9285945296
2.871581078 2.839682817 1.070527554
1.971481562 1.944823861 -0.7304394245
2.228960752 2.197287083 -0.7126415372
2.561515093 2.524234533 -0.6907913685
2.953644276 2.908625126 -0.6498803496
2.967480183 2.9202106 -0.5060580969
2.963061333 2.914844513 -0.3599278629
2.959779978 2.909584522 -0.2153112739
2.967187166 2.914830208 -0.07190211862
2.925990105 2.885418415 0.07102949917
2.872290611 2.830486774 0.2091356218
2.909928799 2.866576433 0.3536526263
2.914628506 2.869202137 0.4970397949
2.919961691 2.872446299 0.6420586705
2.905710459 2.857429504 0.7839061618
2.919039726 2.868533373 0.9348932505
2.909043074 2.856714487 1.080880523
1.979637742 1.939282537 -0.7309570909
2.225476265 2.178587914 -0.7090423703
2.560487986 2.505666494 -0.6881200671
2.979314327 2.913490534 -0.6533219814
2.991853714 2.923707485 -0.50849545
3.000296116 2.930937052 -0.3632397354
2.978494406 2.907605648 -0.2159393132
2.994521379 2.921210527 -0.07232097536
2.964619875 2.903169155 0.07172759622
2.897855043 2.835810423 0.2102870345
2.952675581 2.888445616 0.3576617837
2.933143377 2.867335558 0.4985021353
2.945513248 2.877420664 0.6455001831
2.938141823 2.869215012 0.7900120616
2.936007738 2.865132332 0.9371427298
2.939743996 2.86677289 1.088644981
1.991933703 1.937749386 -0.7330275774
2.24145174 2.178955793 -0.7117417455
2.569219589 2.496712685 -0.6881200671
3.003638268 2.916833878 -0.6564506292
3.013436794 2.924306393 -0.5104453564
