# .PCD v0.7 - Point Cloud Data file format
VERSION 0.7
FIELDS x y z
SIZE 4 4 4
TYPE F F F
COUNT 1 1 1
WIDTH 1206
HEIGHT 1
VIEWPOINT 0 0 0 1 0 0 0
POINTS 1206
DATA ascii
-0.3637296557 -2.425085068 -0.2959553003
-0.3571623862 -2.378469467 -0.2067080289
-0.3615120947 -2.401726961 -0.1250840724
-0.3618819714 -2.398496151 -0.04163964465
-0.3593385816 -2.413031578 0.04188397899
-0.6159978509 -4.126666546 0.2164626569
-0.6181905866 -4.136408806 0.3621939123
-0.1444953978 -0.9645386934 0.1146137193
-0.1327440143 -0.8829402924 0.1653033942
-0.1328758597 -0.8796393871 0.2267775238
-0.3833518326 -2.502295494 -0.3942663968
-0.372192353 -2.423800707 -0.2959553003
-0.3721228242 -2.420531988 -0.2105429024
-0.3689807355 -2.394528627 -0.1247700602
-0.3678103089 -2.381408453 -0.04136040807
-0.3617304265 -2.372226 0.04118588194
-0.6394518614 -4.183721066 0.2196028382
-0.6317210793 -4.128317356 0.3616709709
-0.3926961124 -2.504845381 -0.3948921561
-0.3802280128 -2.422553062 -0.2959553003
-0.3765448332 -2.393631935 -0.2082768381
-0.3748488128 -2.377442837 -0.1239326894
-0.3766407967 -2.386101484 -0.04146512225
-0.3724753559 -2.38675499 0.04146512225
-0.4319620728 -2.705900431 -0.6226611137
-0.3920311034 -2.444799423 -0.2988801897
-0.3835320175 -2.386468649 -0.2077539116
-0.3855891526 -2.393933296 -0.1248747408
-0.3832777739 -2.376942635 -0.04132550582
-0.1544199437 -0.9629996419 0.1146137193
-0.3994148076 -2.441752434 -0.3851931989
-0.3973510265 -2.423826694 -0.2964428067
-0.3924117684 -2.391082048 -0.2082768381
-0.392228812 -2.384758234 -0.124456048
-0.3876698613 -2.351912975 -0.04090664536
-0.1576124281 -0.9624823332 0.1146137193
-0.6850492358 -4.106902122 -0.8010789752
-0.4183575511 -2.502690315 -0.3952049911
-0.409745127 -2.445918798 -0.2993676662
-0.3997670114 -2.383802891 -0.2077539116
-0.4005508721 -2.383374453 -0.124456048
-0.398202002 -2.364348888 -0.04115097597
-0.3959603608 -2.378917217 0.04139531404
-0.5603012443 -3.359031916 0.1762686372
-0.5608667731 -3.358810425 0.2942124009
-0.1609712988 -0.9619262218 0.1146137193
-0.6914663911 -4.058037758 -0.7919201851
-0.4267583191 -2.499267578 -0.3948921561
-0.4182805121 -2.444473743 -0.2993676662
-0.4108585119 -2.396067619 -0.2089740783
-0.4061645865 -2.366214275 -0.1236186624
-0.4074694812 -2.368856907 -0.04125569016
-0.3972226381 -2.336121082 0.04066231102
-0.5800747871 -3.404309273 0.1787807792
-0.5735929012 -3.362724304 0.2947353423
-0.1730241328 -1.012233019 0.1209509224
-0.4359160662 -2.497686625 -0.3948921561
-0.4274941385 -2.446909428 -0.2998551428
-0.4188763797 -2.392656326 -0.2087997794
-0.4148345292 -2.364709616 -0.1236186624
-0.4188487828 -2.385146141 -0.04156983644
-0.4043483138 -2.328809738 0.04055759683
-0.5907050371 -3.388078213 0.2971757054
-0.1676827669 -0.9607790112 0.1146137193
-0.4460176826 -2.503928661 -0.3961436152
-0.4329713583 -2.425784111 -0.2974177599
-0.4307300448 -2.410793066 -0.2105429024
-0.428717941 -2.39470315 -0.1252934188
-0.4237040579 -2.36194396 -0.04118588194
-0.4191686809 -2.362753153 0.04118588194
-0.6028767824 -3.387957335 0.2973500192
-0.4561678767 -2.510130644 -0.3973950744
-0.4435704052 -2.435976028 -0.2988801897
-0.4291388988 -2.354392052 -0.205662176
-0.4370744824 -2.393192053 -0.1252934188
-0.4315859973 -2.358483553 -0.04115097597
-0.4323998988 -2.388823748 0.04167455062
-0.6129202247 -3.376030445 0.2964784503
-0.4634872079 -2.50075388 -0.3961436152
-0.453157872 -2.440267801 -0.2996113896
-0.4395393133 -2.364632607 -0.2067080289
-0.4476195276 -2.403432846 -0.125921458
-0.4397715032 -2.359005213 -0.04118588194
-0.4349275231 -2.355836391 0.04111607373
-0.6340827942 -3.431230307 0.1806648672
-0.4638300836 -2.452405453 -0.3013175726
-0.4566935301 -2.410065174 -0.210891515
-0.4511208534 -2.378387928 -0.1246653795
-0.449496448 -2.365314007 -0.04132550582
-0.4401504695 -2.340624332 0.04087174311
-0.6763795614 -3.589939594 0.1892479658
-0.467063576 -2.427708149 -0.3848803341
-0.4660003781 -2.417634726 -0.2971740067
-0.4628368914 -2.396718979 -0.2098456323
-0.4571457803 -2.36503315 -0.1240373552
-0.4615521431 -2.38336277 -0.04167455062
-0.4475650191 -2.335145712 0.04080192745
-0.1844251603 -0.957706213 0.1146137193
-0.4869869649 -2.482194424 -0.393953532
-0.4704310298 -2.391178846 -0.2094970196
-0.4673562348 -2.371179819 -0.124456048
-0.4683206975 -2.373889446 -0.04153493047
-0.4572466612 -2.341419697 0.04094155133
-0.1877669692 -0.9570566416 0.1146137193
-0.4897345901 -2.444221973 -0.214377746
-0.4866361916 -2.424363613 -0.1273868531
-0.4758165777 -2.368319273 -0.04146512225
-0.4673869312 -2.347572803 0.04108116776
-0.1912735254 -0.956362009 0.1146137193
-0.4811237752 -2.375408411 0.04160473868
-0.1865286231 -0.9168176055 0.109738946
-0.7972822189 -3.870337725 -1.047233939
-0.6954411864 -3.364071131 0.2968270779
-0.188922599 -0.9122732282 0.1092514694
-0.8016708493 -3.824043512 -1.035328269
-0.8210591078 -3.84956193 -1.043092847
-0.1998404562 -0.9345597029 -0.177515164
-0.190122202 -0.8875968456 -0.13708812
-0.5248431563 -2.43572855 -0.04279150441
-0.7196177244 -3.365313292 0.17815274
-0.1893679947 -0.884830296 0.07545149326
-0.8394060135 -3.86932826 -1.049304485
-0.204480499 -0.9346969724 -0.04794086516
-0.1934774667 -0.8829245567 -0.01507708151
-0.2206337899 -1.016177416 0.01745061018
-0.7368780375 -3.388152122 0.1795134693
-0.1925450563 -0.8830915093 0.1058391258
-0.1955715567 -0.8865590692 0.01514689159
-0.202990368 -0.9186648726 0.04710348696
-0.2152209431 -0.971601367 0.1170511171
-0.1992520243 -0.8855919838 -0.13708812
-0.2117978483 -0.9398215413 -0.1131512895
-0.2030134052 -0.8971902132 -0.01535631996
-0.2008529603 -0.895627141 0.01532141585
-0.1983166486 -0.882874012 0.04521939531
-0.2299490422 -1.021195769 0.1233883053
-0.1954028755 -0.8579897285 -0.2241893411
-0.9639303684 -4.225683212 -0.9906810522
-0.2008672357 -0.8812727332 0.01507708151
-0.974621892 -4.265685558 0.3791020811
-0.8944174647 -3.864915371 -1.051375031
-0.961669445 -4.152219772 -0.974034667
-0.2037885785 -0.8806017637 0.01507708151
-0.9949128628 -4.28554678 0.3811938465
-0.899277389 -3.828076363 -1.042057633
-0.9761571288 -4.148837566 -0.974034667
-0.9754581451 -4.142621994 -0.8190150261
-0.2214642912 -0.9375908375 -0.1131512895
-0.2251232564 -0.9523389935 -0.08190101385
-0.9288470745 -3.944671631 0.210182339
-1.012774348 -4.297738552 0.3825883269
-0.9224978089 -3.866253853 -1.053445578
-0.9919922352 -4.151091099 -0.9753844142
-1.001785159 -4.188836575 -0.8289371133
-0.2275141031 -0.9483940005 -0.1146137193
-0.2237951905 -0.9321739674 -0.08015790582
-0.9277447462 -3.879246235 0.206832841
-1.025451422 -4.284488678 0.3817167878
-0.227348581 -0.9484336972 0.1146137193
-0.95691365 -3.949376345 -1.077256918
-1.032152891 -4.250179291 -0.8419120908
-0.2251855433 -0.9244496822 -0.1116888598
-0.9537729621 -3.933412552 0.06994745135
-0.9426938295 -3.881806612 0.2071468532
-1.042753577 -4.290563107 0.3825883269
-0.2306578755 -0.9476343393 0.1146137193
-1.048393011 -4.252268791 -0.8430569172
-0.2312703729 -0.9352202415 -0.1131512895
-0.9545906186 -3.87763238 0.06900501996
-0.9571949244 -3.88237071 0.2073561996
-1.062019706 -4.304306507 0.3841571212
-0.2434884161 -0.9853659868 0.1194885001
-1.071808577 -4.282865047 -0.8499261141
-0.9724835157 -3.891737223 0.06931915879
-0.9726801515 -3.886755705 0.2077748924
-1.077037573 -4.300573349 0.3841571212
-0.2372678816 -0.9460009336 0.1146137193
-0.9870454669 -3.892195463 0.06938897073
-0.9862416387 -3.883336782 0.2077748924
-1.092533708 -4.298718452 0.384331435
-0.25232023 -0.9913371801 0.1204634607
-0.6506406665 -2.508614779 -0.04453674331
-1.003117323 -3.898409128 0.06956349313
-1.005273461 -3.901145697 0.2089262903
-1.106040001 -4.289090633 0.3838084936
-0.2438664287 -0.9443214536 0.1146137193
-1.019244432 -3.904558659 0.06973802298
-1.037069321 -3.967176676 0.212694481
-0.2471612692 -0.9434643984 0.1146137193
-0.2472642362 -0.8726506233 -0.2314362824
-0.2627651989 -0.927357018 0.01612422802
-0.2570900917 -0.9049189091 0.07858909667
-0.2517440915 -0.881418705 0.2340244651
-0.2499967217 -0.8706949949 0.01511198562
-0.2625301778 -0.902458787 0.01570536941
-0.2564014792 -0.8667078018 -0.1058391258
-0.2662711143 -0.8971911073 -0.01563555934
-0.2939419448 -0.9974437952 0.01745061018
-0.266523093 -0.8866809011 -0.015461036
-0.2671081424 -0.8948555589 0.0156006543
-0.2980083525 -0.9971062541 0.05233708769
-0.2616070807 -0.8599709868 -0.04490537941
-0.2732669711 -0.8971756101 -0.01567046531
-0.2657542527 -0.8785582185 0.01532141585
-0.2669245601 -0.8813165426 0.04605676979
-0.26578933 -0.8618203998 -0.0150421774
-0.2676481903 -0.8738011718 0.01525160577
-0.2635576129 -0.8593752384 0.04490537941
-0.2907629013 -0.946903646 0.08294688165
-0.286452651 -0.932286799 0.1146137193
-0.2676044405 -0.8581236601 -0.04490537941
-0.2724735737 -0.8785914183 0.01535631996
-0.2690726519 -0.8660221696 0.0756257996
-0.2690672874 -0.8649389744 0.1060828716
-0.2680236399 -0.8610542417 0.1361495107
-0.2820199728 -0.9049057364 0.1759886891
-0.2798610032 -0.8968762755 0.2069515437
-0.2904770076 -0.930326581 0.2495536208
-0.2878751457 -0.9124683738 -0.04794086516
-0.2717936933 -0.866235137 0.01514689159
-0.2723939717 -0.8670885563 0.045428738
-0.2708985209 -0.8612763882 0.07527717948
-0.2686529458 -0.8525771499 0.1348980367
-0.2826577723 -0.8964759707 0.1744622141
-0.2828336656 -0.895943284 0.2069515437
-0.2913939953 -0.921938777 0.2474830449
-0.2837841511 -0.8876085281 -0.01556575019
-0.299028188 -0.9415163994 0.01654308476
-0.2766295075 -0.8699391484 0.04563808069
-0.3003332615 -0.9439117908 0.08294688165
-0.2863967121 -0.899024725 0.1107138991
-0.2728277743 -0.8553981781 0.1355237812
-0.302498281 -0.9478527904 0.1851475388
-0.2824006081 -0.8838128448 0.2042521238
-0.3087375164 -0.9650759101 0.2599063516
-1.406692743 -4.370849133 -0.8842716813
-1.427658319 -4.430688858 -0.7306005955
-0.2830938399 -0.876998961 0.1392782032
-1.147290587 -3.524716377 -0.8458126187
-1.420725465 -4.362178802 -0.8835085034
-1.416782856 -4.344922543 -0.7171472311
-0.2980355024 -0.9113019705 -0.04804553464
-0.2849266827 -0.8722499013 0.1386524588
-0.3091081679 -0.9457178712 0.1851475388
-1.259695411 -3.826881647 -1.06793952
-1.135201573 -3.446652889 -0.8278164864
-1.432400346 -4.34389019 -0.8808370829
-1.441986799 -4.367836952 -0.7218402028
-0.3013735414 -0.9102035761 -0.04804553464
-0.3027039766 -0.9147568345 0.179041639
-1.25595355 -3.771140337 -1.053445578
-1.15152514 -3.453561068 -0.8305159211
-1.451282263 -4.350038052 -0.8831268549
-1.454722047 -4.355282784 -0.7205887437
-0.3045489192 -0.9091460705 -0.04804553464
-1.330752373 -3.970290184 -0.0723907873
-1.474457264 -4.41693449 0.4036800265
-0.2852344215 -0.8534661531 0.1053516492
-0.3102580607 -0.9267264009 0.1817129552
-0.3103493452 -0.9259250164 0.2154996693
-1.147595763 -3.406079531 -0.9514709115
-1.149898171 -3.410944223 -0.8210679293
-1.484664321 -4.398890495 -0.8941937685
-0.3075621128 -0.908131063 -0.04804553464
-1.344602823 -3.965620756 -0.0723907873
-1.331879258 -3.953035355 0.07211155444
-1.484129071 -4.394771576 0.4021112025
-0.2880631089 -0.8525155187 0.1053516492
-0.2864489853 -0.8467639089 0.1348980367
-0.3064056635 -0.9052367806 0.177515164
-0.3090401292 -0.9119713306 0.2123503685
-1.49298358 -4.40071106 1.23358357
-1.150163889 -3.376653433 -0.9442239404
-1.153620481 -3.382931948 -0.8152192235
-1.152189732 -3.363356113 -0.1841190457
-1.358437777 -3.960903168 -0.0723907873
-1.34954071 -3.959718466 0.07232097536
-1.358983994 -3.982873917 0.2183467597
-1.50706315 -4.414337635 0.4043772519
-0.3133792579 -0.9153061509 0.1798048764
-0.3122215271 -0.9108870625 0.2123503685
-1.518995166 -4.42653656 1.24238348
-1.166348815 -3.385403872 -0.9478474259
-1.171776295 -3.397306919 -0.8197182417
-1.166157722 -3.37910223 -0.6865935922
-1.159999847 -3.347990513 -0.1834910065
-1.378808618 -3.975030184 -0.0727398321
-1.364005923 -3.956874132 0.07235588133
-1.371575952 -3.974329948 0.2181374133
-1.524413466 -4.414700508 0.4049001932
-0.3186536431 -0.9217774272 0.1146137193
-0.3146451712 -0.9086410999 0.1786600202
-0.3071012497 -0.8858555555 0.2065016329
-1.53633821 -4.426681995 1.243936419
-1.17498076 -3.372190237 -0.9452592731
-1.178493381 -3.378475666 -0.8161190152
-1.175357819 -3.367596865 -0.6850671172
-1.173000574 -3.347690821 -0.1837003529
-1.543099403 -4.418757439 0.4057717621
-0.3218692243 -0.9206595421 0.1146137193
-0.3005210161 -0.8586336374 0.1374009848
-1.555235982 -4.441058159 0.9064055681
-0.2908497751 -0.829608202 0.1930045784
-1.561377048 -4.448635578 1.251700997
-1.201299787 -3.405583382 -0.823767364
-1.189347863 -3.356754065 -0.1844330579
-1.561167598 -4.420858383 0.4064690173
-1.563656569 -4.41808176 0.7356064916
-1.56941843 -4.431900978 0.905642271
-1.570636749 -4.430427551 1.075262666
-1.58012712 -4.452260971 1.25428915
-1.359287858 -3.815216064 -1.073633432
-1.267517805 -3.553714037 -0.8611092567
-0.3244380057 -0.9071179032 -0.1131512895
-1.580609202 -4.426640511 0.4075148702
-1.585724711 -4.431194782 0.738735199
-1.586202502 -4.430092335 0.9064055681
-1.59003818 -4.43592453 1.077962041
-1.603488803 -4.468537807 1.260500789
-1.374560833 -3.815900564 -1.075186372
-1.277270317 -3.541935682 -0.8593096733
-0.3107266426 -0.8593099713 -0.1070578173
-0.3234401643 -0.8939811587 -0.07946065813
-1.210032821 -3.340857506 -0.1840143651
-1.601464272 -4.436087608 0.4089093506
-1.609387875 -4.453170776 0.5762548447
-1.606559396 -4.440493107 0.7412381172
-1.600319624 -4.420836449 0.905642271
-1.608832359 -4.439508438 1.080211639
-1.620394468 -4.466546059 1.261536121
-1.39977169 -3.843754053 -1.084503889
-0.3103164732 -0.8488979936 -0.1058391258
-0.3197149038 -0.874135077 -0.0777175352
-1.227181077 -3.351617336 -0.1848517358
-1.617622137 -4.432342529 0.4090836644
-1.616748571 -4.425150871 0.5733299851
-1.617299676 -4.421872139 0.7390480638
-1.623163939 -4.435504436 0.9098401666
-1.633033752 -4.457653046 1.086060405
-1.627993822 -4.439097404 1.255324483
-0.3253487647 -0.8837959766 -0.2407537699
-0.3215345442 -0.8701540232 -0.1087639853
-1.249271512 -3.375409365 -0.1864218116
-1.633773923 -4.428538799 0.409258008
-1.63768661 -4.43437767 0.5752798319
-1.637520671 -4.429168701 0.7412381172
-1.645447731 -4.448224545 0.913656354
-1.652644515 -4.462890625 1.08875978
-1.647508264 -4.444255829 1.258430243
-0.4079289436 -1.096302509 -0.3018350601
-0.319013536 -0.8541494608 -0.106814079
-1.2659446 -3.384122849 -0.1871545315
-1.657321453 -4.439791679 0.5767422915
-1.66265142 -4.449331284 0.7456182837
-1.661653042 -4.444292068 0.9140379429
-1.668895483 -4.458919525 1.089209676
-1.667078614 -4.449332714 1.261536121
-0.3544177115 -0.9399235845 -0.1524187028
-0.3191890121 -0.8456019163 -0.1058391258
-1.295407414 -3.426388264 -0.1897713244
-1.447536945 -3.840930223 0.3553957343
-1.678414583 -4.448838711 0.5786922574
-1.683755994 -4.458284855 0.7481212616
-1.675767899 -4.434792042 0.9132746458
-1.683071494 -4.449420929 1.088309765
-1.68601954 -4.452519417 1.264124274
-0.3394081593 -0.8906873465 -0.1442840993
-1.298806071 -3.399456978 -0.1885152608
-0.367177844 -0.9600352645 -0.01724117994
-1.694640398 -4.444808006 0.5789359808
-1.702125669 -4.459762573 0.7493727207
-1.701743245 -4.45642662 0.9189989567
-1.713900447 -4.483565331 1.098207712
-1.713288903 -4.477279186 1.272924066
-0.3354166746 -0.8710628748 -0.1411554217
-1.310664654 -3.394902468 -0.1885152608
-0.3748519421 -0.9699391723 -0.01745061018
-0.3830310106 -0.9967898726 0.01793927886
-1.725502849 -4.483391285 0.4165790379
-1.716569066 -4.455536842 0.5811296105
-1.715549946 -4.448264599 0.7484340668
-1.728597641 -4.479765415 0.9251048565
-1.727433562 -4.472102165 1.096858025
-1.73308742 -4.482082844 1.276029944
-0.357078284 -0.917751193 -0.1492900103
-1.327587605 -3.403331757 -0.1892479658
-0.3763750792 -0.9693491459 0.01745061018
-1.737871885 -4.464316845 0.5830795169
-1.738239884 -4.460654259 0.7515627742
-1.744223952 -4.473704338 0.9251048565
-1.740908742 -4.460598469 1.095508218
-1.746613503 -4.470607758 1.274477005
-0.3493290842 -0.8895545602 -0.177515164
-1.368968964 -3.478891373 -0.4538980126
-1.340924025 -3.402392864 -0.1894573122
-0.3863289952 -0.9847835898 0.01776475459
-0.3833190501 -0.9761087894 0.05275577307
-1.759983897 -4.474849224 0.5852732062
-1.760312438 -4.471102715 0.7543786168
-1.762707829 -4.474895 0.9266313314
-1.765761137 -4.478062153 1.101356983
-1.762917757 -4.46628046 1.274994731
-0.3611201644 -0.9102282524 -0.1820945889
-1.771973252 -4.457300186 -0.5838107467
-1.351314902 -3.393980503 -0.1892479658
-0.3904068172 -0.9840471745 0.05327913165
-1.509939671 -3.803971291 0.3543498814
-1.781748772 -4.479614258 0.7568815351
-1.779043317 -4.470538616 0.9270129204
-1.789315343 -4.491785049 1.106305838
-1.784221172 -4.474455357 1.279135823
-0.3555308282 -0.8870940804 -0.177515164
-1.787520885 -4.451087952 -0.5838107467
-0.3351294994 -0.8340814114 -0.07492855936
-1.366135001 -3.396654606 -0.1896666437
-1.5157938 -3.780184984 0.3526067436
-1.576740265 -3.928207397 0.5145889521
-1.803267241 -4.488031387 0.7593845129
-1.797566533 -4.471588612 0.9285394549
-1.806438208 -4.489128113 1.107205749
-1.804159999 -4.478951454 1.282241702
-1.801737189 -4.446045876 -0.7531271577
-1.806778073 -4.454018593 -0.5850294232
-1.391514659 -3.425172091 -0.1915507466
-1.534215689 -3.787797451 0.3538269401
-1.580746174 -3.898764133 0.5114203691
-1.823379159 -4.492691517 0.7612617612
-1.82202816 -4.487113953 0.9331188202
-1.825031877 -4.490015984 1.109005332
-1.827792048 -4.492310047 1.287935615
-1.82472837 -4.458011627 -0.7562558651
-1.821562171 -4.445847988 -0.5847856998
-1.408011198 -3.431380749 -0.1921787858
-1.557235837 -3.806391478 0.3560929894
-1.594345927 -3.89322257 0.5114203691
-1.833057165 -4.471677303 0.7587587833
-1.843639374 -4.495258331 0.9361717701
-1.843654871 -4.490828991 1.110804915
-1.845664501 -4.491262913 1.289488554
-0.4060676098 -0.9837314487 -0.2357452661
-1.845561862 -4.464393139 -0.7584459186
-1.847695827 -4.465141773 -0.5881980062
-0.5450485349 -1.316513538 -0.1209467873
-1.449801445 -3.498403788 -0.1962609887
-1.610202312 -3.893136501 0.5121515989
-1.855455399 -4.481678009 0.761574626
-1.863076091 -4.497864246 0.938079834
-1.869022012 -4.507768154 1.116653562
-1.862812519 -4.488361359 1.290523887
-0.4094989002 -0.9823080301 -0.2357452661
-1.852144599 -4.440751553 -0.9270129204
-1.861894846 -4.459747314 -0.7587587833
-1.870925546 -4.476980209 -0.5906354189
-0.5404179692 -1.292544603 -0.1188550442
-1.495931745 -3.57438755 -0.2008665502
-1.618298054 -3.878169775 0.3639370203
-1.876421452 -4.487931252 0.7637646794
-1.884068966 -4.504011631 0.9407511353
-1.892272472 -4.519191265 1.121152639
-1.885935664 -4.499648571 1.295700312
-1.878303289 -4.459589958 -0.9323556423
-1.889729977 -4.482343674 -0.7637646794
-1.888856888 -4.47590971 -0.5913665891
-0.5294273496 -1.253940463 -0.1153688207
-1.534056664 -3.629854441 -0.2043207139
-1.640427709 -3.889116526 0.5131265521
-1.902833223 -4.506831169 0.768144846
-1.904362559 -4.50825882 0.9430409074
-1.905759454 -4.507174492 1.119803071
-1.90690136 -4.505491734 1.299323678
-1.89155376 -4.44758606 -0.9312107563
-1.903816819 -4.472085476 -0.7631388903
-1.902912974 -4.46563673 -0.5908791423
-0.5377079248 -1.261248708 -0.1162403747
-1.548286438 -3.628151417 -0.2045300752
-1.918468952 -4.504322052 0.5959976315
-1.922426581 -4.50924778 0.7697092295
-1.923168898 -4.508807182 0.9445673227
-1.920714974 -4.498702049 1.119353056
-1.93020916 -4.516571999 1.304500103
-1.924884796 -4.482447147 -0.9399879575
-0.5397440195 -1.253873944 -0.1157174483
-1.544344425 -3.584205866 -0.2023319602
-1.940454245 -4.512186527 0.5979475975
-1.938155293 -4.502509594 0.7697092295
-1.946661592 -4.520098209 0.9483835101
-1.944121122 -4.509865284 1.123852015
-1.954381943 -4.529318333 1.310194016
-0.5441175699 -1.251982212 -0.1157174483
-1.555252433 -3.575130701 -0.2021226138
-1.96014595 -4.514489651 0.5991662741
-1.959371924 -4.508398533 0.7718992829
-1.964776397 -4.518676281 0.9495283961
-1.972294807 -4.531641483 1.131050467
-1.97095263 -4.524240017 1.310711741
-0.5428807139 -1.237303734 -0.1144972667
-1.578163505 -3.593452454 -0.203483358
-1.676943302 -3.829260111 0.3620195687
-1.979079962 -4.514892101 0.6001412272
-1.98462081 -4.523238182 0.7756536603
-1.981326342 -4.513588905 0.9499100447
-1.996724248 -4.544354439 1.135999441
-1.992954493 -4.531479359 1.314852834
-0.5520183444 -1.249820828 -0.3054801226
-0.5687820911 -1.287167192 -0.2652873099
-0.5597500205 -1.265532255 -0.2124895453
-0.567600131 -1.282070756 -0.1670175493
-0.5512308478 -1.244509816 -0.1153688207
-1.599601388 -3.608006239 -0.2046347409
-1.78643024 -4.046553612 0.07650955766
-1.982677102 -4.48684454 0.2548772395
-1.996431708 -4.515839577 0.4282579422
-1.996434689 -4.51158762 0.6006287336
-2.003597975 -4.523508549 0.776905179
-2.006614447 -4.528184414 0.9544894099
-2.015735626 -4.544482708 1.137799144
-2.01659894 -4.542151928 1.320029259
-0.5587584972 -1.253225684 -0.3068298101
-0.565273881 -1.26724422 -0.2614711523
-0.5665801764 -1.268981934 -0.2134281397
-0.5574929118 -1.247459531 -0.1626302451
-0.5571981668 -1.246215701 -0.1157174483
-1.621160865 -3.62245369 -0.2057861239
-1.78914845 -4.01472187 0.07602088898
-2.012158871 -4.510905266 0.2566566467
-2.022737741 -4.532495975 0.4305239916
-2.025125027 -4.533590317 0.6045285463
-2.026632309 -4.532716274 0.779720962
-2.024813652 -4.526528358 0.9556342959
-2.033178806 -4.540975571 1.138698816
-2.040343046 -4.552713871 1.325205564
-0.5478191972 -1.218384385 -0.3463519514
-0.5655288696 -1.256598949 -0.3081795275
-0.5624395609 -1.249151945 -0.2580365837
-0.5734410882 -1.272399306 -0.2143667489
-0.5675579906 -1.258172512 -0.164336428
-0.5541687012 -1.227918983 -0.1141486466
-1.630506516 -3.609492064 -0.205367431
-2.043385267 -4.531923294 0.6052597761
-2.048943043 -4.540018559 0.7822239399
-2.051912546 -4.544482708 0.9609768987
-2.05624032 -4.549833298 1.142747998
-2.05781436 -4.549084187 1.326240897
-0.5544638634 -1.221742153 -0.3479048312
-0.5674939156 -1.2492944 -0.3068298101
-0.5676087737 -1.248968363 -0.2584182024
-0.5721536875 -1.257803321 -0.2121766806
-0.5752365589 -1.26341033 -0.1653113812
-0.5567997098 -1.222350717 -0.113800019
-1.65469563 -3.629220724 -0.206832841
-2.065051794 -4.541842937 0.432790041
-2.067415476 -4.542830467 0.6076971292
-2.070510149 -4.545422077 0.784414053
-2.074276686 -4.551585197 0.9640299082
-2.078579903 -4.556811333 1.146347165
-2.073681355 -4.541873455 1.326240897
-0.5675746799 -1.239119172 -0.3535988927
-0.5694149137 -1.24199152 -0.3054801226
-0.5719650984 -1.246979356 -0.2584182024
-0.5740682483 -1.250412822 -0.2112380713
-0.5763276815 -1.254179597 -0.164336428
-0.5560696721 -1.20953846 -0.1127541512
-1.667354107 -3.623422623 -0.206832841
-1.793585181 -3.894162893 -0.0741360262
-0.433201164 -0.9453215003 0.01745061018
-2.085048199 -4.543660164 0.4336615801
-2.086574078 -4.542801857 0.6086720824
-2.095440149 -4.557909966 0.7878555655
-2.090151787 -4.544316769 0.9640299082
-2.101808786 -4.565459728 1.150396347
-2.100841045 -4.559170723 1.333487868
-0.5702754259 -1.233623385 -0.3525635898
-0.5712918639 -1.234690547 -0.3041304052
-0.5763143897 -1.244975209 -0.2584182024
-0.5759381652 -1.243024111 -0.2102994472
-0.5763093233 -1.24325645 -0.1631177366
-0.5653195977 -1.218433857 -0.113800019
-1.67915082 -3.615768909 -0.2067281753
-2.111780643 -4.559857845 0.4359276295
-2.1024189 -4.535490513 0.6086720824
-2.116361141 -4.563480377 0.790045619
-2.113441229 -4.55302 0.9674645066
-2.120218992 -4.565535069 1.15219593
-2.125720024 -4.57320118 1.339699507
-0.5792617202 -1.242230535 -0.355669409
-0.5770315528 -1.236320972 -0.3050302267
-0.5812704563 -1.24483633 -0.2587998211
-0.5825662613 -1.246476173 -0.2112380713
-0.5779064894 -1.235943675 -0.1623865068
-0.5507771373 -1.176852584 -0.1099651605
-0.4175093472 -0.8908822536 -0.01647327468
-2.132793188 -4.56546545 0.4371477962
-2.125855684 -4.546475887 0.6111094952
-2.138178825 -4.570751667 0.7925486565
-2.136853218 -4.563766479 0.9712806344
-2.139480591 -4.567302227 1.15444541
-2.149074793 -4.583618641 1.344875932
-0.5833776593 -1.24030292 -0.355669409
-0.5786380768 -1.229111195 -0.3036805093
-0.5828856826 -1.237573385 -0.2576549649
-0.5841695666 -1.239177108 -0.2102994472
-0.5788285732 -1.226737857 -0.1614115536
-0.5574343204 -1.180327535 -0.1104881018
-0.4232509136 -0.8957988024 -0.04972028732
-0.4240361452 -0.8966503739 -0.01661289483
-1.905488372 -4.045701981 0.2321634442
-2.150467873 -4.563775063 0.4376707375
-2.153622627 -4.566332817 0.6147655845
-2.15496397 -4.56504631 0.7928614616
-2.160359383 -4.574407578 0.9750968218
-2.161240339 -4.572139263 1.1575948
-2.17084527 -4.588312626 1.348499298
-0.5821192861 -1.225940585 -0.3520459533
-0.569545567 -1.198920488 -0.2964820564
-0.5857316852 -1.231882572 -0.2568917274
-0.5861606598 -1.231676817 -0.2093608528
-0.573720634 -1.20499444 -0.1587304324
-0.5495511293 -1.153194308 -0.1080477387
-0.4351297915 -0.9122685194 -0.05076700822
-2.168036699 -4.55766201 0.4378450811
-2.178931475 -4.578505039 0.617446661
-2.177682161 -4.571763515 0.7953644395
-2.181335449 -4.57531929 0.9770048857
-2.188893795 -4.587050438 1.163443446
-2.186848164 -4.580707073 1.348499298
-0.5964117646 -1.24480772 -0.3582576215
-0.535174787 -1.115996361 -0.2757865489
-0.5976709127 -1.245761395 -0.2603262961
-0.5947318673 -1.238526702 -0.2109252065
-0.5841527581 -1.215407729 -0.1604366004
-0.5544368625 -1.15306437 -0.108222045
-1.824359417 -3.789045811 -0.07270493358
-1.885322809 -3.931450844 0.2263018191
-2.192553997 -4.568027973 0.4395881891
-2.195697784 -4.570487499 0.617446661
-2.203895569 -4.58549881 0.7991188765
-2.201547623 -4.576524258 0.9789130092
-2.208273888 -4.586405277 1.16524303
-2.216238499 -4.600892544 1.356781602
-0.6015942097 -1.244457603 -0.3587752581
-0.567720294 -1.173863053 -0.2910832465
-0.6003050208 -1.240133286 -0.2595630586
-0.601418674 -1.241881371 -0.2118638009
-0.5890458822 -1.215250254 -0.1606803238
-0.5610672235 -1.156499863 -0.1087449864
-1.840195179 -3.788051128 -0.07280964404
-1.825086713 -3.775373697 0.07249549776
-1.886856079 -3.899675608 0.224836424
-2.218907118 -4.581864834 0.4416798949
-2.216035604 -4.573900223 0.6189091206
-2.225921154 -4.590219975 0.8013089299
-2.225281239 -4.58686161 0.9827291965
-2.23623848 -4.605352879 1.171991587
-2.237351894 -4.603553772 1.359887362
-0.6158764958 -1.263293505 -0.3649868965
-0.59916085 -1.22791791 -0.3054801226
-2.220118999 -4.547889233 -0.9754784107
-2.236929655 -4.578271389 -0.8003703952
-0.5897957683 -1.206053615 -0.1597053856
-0.5640236735 -1.152843356 -0.10857068
-1.836500764 -3.765384912 0.07242568582
-1.87942934 -3.849990129 0.2223242968
-2.23933506 -4.585223198 0.4427257776
-2.240705729 -4.5839715 0.6213465333
-2.246271133 -4.591294289 0.8028733134
-2.248183489 -4.593172073 0.9857820868
-2.251443148 -4.595768929 1.17154181
-2.261911869 -4.613061905 1.365063787
-1.819068193 -3.698463678 -1.092786193
-2.206039667 -4.481289864 -1.143197894
-2.242052555 -4.552440643 -0.9781497121
-2.255517244 -4.575749874 -0.8013089299
-0.5922455192 -1.200427055 -0.159217909
-0.5592260361 -1.133001208 -0.1068275571
-1.855813384 -3.771510601 0.07267002016
-1.887562156 -3.832655191 0.2216962725
-2.26237154 -4.591675758 0.4441202581
-2.263716936 -4.590364456 0.62329638
-2.267530203 -4.594053745 0.8047505021
-2.275503635 -4.608181477 0.9907431006
-2.270925522 -4.594869614 1.173341393
-2.280570507 -4.610332966 1.366616607
-1.835401654 -3.699013233 -1.09485662
-2.22513628 -4.480543613 -1.144997597
-2.264044762 -4.556893826 -0.9808210731
-2.274114609 -4.573154926 -0.8022475243
-0.5955476761 -1.196575284 -0.1589741707
-0.5578492284 -1.120341182 -0.1057816893
-2.118517637 -4.250947475 -0.2467128336
-2.281933546 -4.590888023 0.444817543
-2.28945303 -4.601984978 0.6259775758
-2.294118166 -4.607329369 0.8085048795
-2.295076609 -4.607239246 0.9922695756
-2.302602291 -4.618306637 1.181439519
-2.29923749 -4.60752964 1.368169546
-1.84484303 -3.685674667 -1.092786193
-2.219813824 -4.430933475 -1.134199858
-2.287853718 -4.564759731 -0.9842556119
-2.290064096 -4.565188885 -0.8022475243
-0.6006116271 -1.196263194 -0.159217909
-0.5617565513 -1.118387103 -0.1057816893
-1.896373987 -3.783673763 0.2196028382
-2.305088997 -4.59714222 0.4462119937
-2.307283878 -4.597513676 0.6264650226
-2.315506935 -4.609884739 0.8103821278
-2.316434145 -4.609724998 0.9945593476
-2.322211504 -4.617204189 1.183239102
-2.323124647 -4.61500597 1.372828245
-1.865952015 -3.692357302 -1.096927166
-2.271991968 -4.491936207 -1.15219593
-2.311570168 -4.568202972 -0.9869269729
-2.32096386 -4.582796097 -0.8069406152
-0.5998154879 -1.183324456 -0.1577554792
-0.5687500834 -1.121552825 -0.1063046232
-1.923636556 -3.790055513 -0.2205448598
-2.331722498 -4.606033325 0.4479551315
-2.333891869 -4.606328011 0.6289023757
-2.344805002 -4.62386322 0.8144494295
-2.342111588 -4.61655426 0.9979938865
-2.346099615 -4.620417595 1.186388493
-2.353956461 -4.631885052 1.380592942
-1.87707448 -3.682378292 -1.095891833
-2.280574322 -4.470090389 -1.148596764
-2.33285737 -4.570598125 -0.9892166853
-2.347730637 -4.595776558 -0.8106950521
-0.5994238257 -1.172386408 -0.1565367877
-0.569032371 -1.112465382 -0.1056073755
-1.893167734 -3.697982311 -0.2155206203
-2.362282753 -4.626257896 0.4507441223
-2.354474068 -4.606991768 0.6301211119
-2.364529371 -4.622684479 0.8157008886
-2.36357832 -4.61883688 1.000283718
-2.371985197 -4.631278515 1.191337466
-2.383329153 -4.64942646 1.388357401
-1.889917135 -3.6758039 -1.095891833
-2.312212944 -4.493292809 -1.156694889
-2.353289604 -4.571155548 -0.9911246896
-2.372805357 -4.605113506 -0.8138237596
-0.5962340236 -1.156172156 -0.1545868665
-0.5701715946 -1.105160356 -0.1050844416
-2.371552229 -4.608605862 0.2694266438
-2.382979631 -4.626839638 0.4516156912
-2.379635334 -4.616390228 0.632558465
-2.381656647 -4.618329525 0.8163266778
-2.392292738 -4.634982109 1.005626321
-2.395292044 -4.63682127 1.194936633
-2.400508165 -4.644929886 1.389392734
-1.899179339 -3.662324429 -1.093821406
-2.303768158 -4.440625668 -1.144997597
-2.378278732 -4.580336571 -0.9949409366
-2.393527031 -4.607737064 -0.8157008886
-0.6055586934 -1.164756417 -0.1560492963
-0.5685079098 -1.092558861 -0.1040385738
-1.909994841 -3.669065475 -0.2145785689
-2.397745848 -4.619800091 0.2705780268
-2.397277832 -4.614957333 0.4512670636
-2.405915499 -4.629610538 0.6354833245
-2.410523415 -4.634523392 0.8207067847
-2.410368919 -4.632248402 1.006771207
-2.416955233 -4.64095211 1.198085904
-2.420279026 -4.643374443 1.39146328
-1.916684031 -3.666278839 -1.096927166
-2.335516691 -4.463636875 -1.153095722
-2.406201601 -4.596776009 -1.000283718
-2.405929804 -4.592354774 -0.8144494295
-0.6068553329 -1.157361269 -0.1553180963
-0.5758299232 -1.097725034 -0.1047358215
-1.918147922 -3.653534412 -0.2140551955
-2.213787079 -4.213070869 -0.08237355947
-2.422193527 -4.627326965 0.2715200782
-2.421811342 -4.624632359 0.4530101717
-2.429433584 -4.635250092 0.6374332309
-2.434028625 -4.64007473 0.8232098222
-2.435645819 -4.641191006 1.010587335
-2.44854641 -4.661815643 1.205734372
-2.449955463 -4.660548687 1.399227858
-1.922262311 -3.645895004 -1.092786193
-2.334713459 -4.424434185 -1.144997597
-2.427732229 -4.59876585 -1.002573371
-2.4330194 -4.604887486 -0.8182038665
-0.6062517762 -1.146461725 -0.1540994048
-0.5731361508 -1.083380461 -0.1035156399
-2.241588593 -4.230054855 -0.08286222816
-2.218536854 -4.206050396 0.08230374753
-2.441128731 -4.624142647 0.2718340755
-2.45003581 -4.639053822 0.455276221
-2.445599079 -4.626741409 0.6374332309
-2.463141918 -4.655995846 0.8275899291
-2.455505133 -4.639601231 1.01211381
-2.462979078 -4.649796486 1.204834461
-2.470734358 -4.66050148 1.40181601
-1.949488163 -3.666453838 -1.101068258
-2.357467175 -4.430019855 -1.148596764
-2.451150894 -4.60412693 -1.005626321
-2.461154699 -4.619030476 -0.8222711682
-0.604645431 -1.133828878 -0.1526369601
-0.5750387907 -1.077857494 -0.1031670198
-2.256340981 -4.222204208 -0.08286222816
-2.248231173 -4.226528168 0.08286222816
-2.46288681 -4.626171112 0.2724621296
-2.475580215 -4.648058414 0.4570193291
-2.472939968 -4.639197826 0.64035815
-2.483098745 -4.654341221 0.8288413882
-2.484627247 -4.655249596 1.017456412
-2.492967844 -4.666954041 1.211583018
-2.498826981 -4.673996449 1.408545375
-1.951320052 -3.639196157 -1.09485662
-2.400559902 -4.473277569 -1.162093759
-2.466278791 -4.593812943 -1.005244732
-2.481937885 -4.619111061 -0.8238354921
-0.6095397472 -1.133459687 -0.1528806984
-0.5759658813 -1.070579886 -0.1026440784
-1.960089684 -3.640282154 -0.2144739032
-2.257784605 -4.189657688 -0.08237355947
-2.257299185 -4.208081245 0.08265279979
-2.48752284 -4.633383274 0.273404181
-2.496504068 -4.648165226 0.457890898
-2.50321722 -4.65676403 0.6440141797
-2.501202106 -4.649124146 0.8294671774
-2.516636848 -4.67194891 1.215182185
-0.4597548246 -0.8527875543 0.2480006814
-1.965848088 -3.635761261 -1.095891833
-2.397611856 -4.430592537 -1.153095722
-0.614438951 -1.133070111 -0.1531244367
-0.5758991241 -1.06155777 -0.1019468307
-1.971831679 -3.631662607 -0.2143692225
-2.285762548 -4.206349373 -0.08286222816
-2.285293579 -4.224801064 0.08314146847
-2.514140844 -4.643992424 0.2745555639
-2.517457008 -4.648182392 0.4587624371
-2.527971029 -4.663704872 0.6462078691
-2.528719187 -4.661200523 0.8332215548
-2.533923388 -4.668849468 1.024325609
-2.540370703 -4.676834583 1.218781352
-0.4544246495 -0.8359021544 0.2433419526
-1.984076023 -3.639054298 -1.098997712
-2.421462774 -4.437592506 -1.157144904
-2.388228178 -4.374867439 -0.9605953097
-2.471503973 -4.523663521 -0.8097564578
-0.6136285663 -1.122209907 -0.1519057453
-0.5786449909 -1.05779314 -0.1017725244
-1.98545599 -3.626509428 -0.2144739032
-2.30043149 -4.198344707 -0.08286222816
-2.292367697 -4.202753067 0.08286222816
-2.537034988 -4.647458553 0.275288254
-2.54512763 -4.660349369 0.4608542025
-2.551851511 -4.668786526 0.6481577158
-2.554454565 -4.669675827 0.8363503218
-2.560572863 -4.678920746 1.028523326
-2.557616949 -4.669647694 1.219231367
-2.573636532 -4.695005894 1.423039198
-1.998628259 -3.635492086 -1.100033045
-2.427545309 -4.412038326 -1.152645826
-2.434725046 -4.423262596 -0.9731886983
-2.511109591 -4.558263302 -0.8175781369
-0.612749517 -1.111369252 -0.1506870538
-0.5861829519 -1.062745094 -0.1024697721
-1.986518979 -3.598574638 -0.2132178396
-2.340215206 -4.235797405 -0.08376975358
-2.33015132 -4.236779213 0.08369994909
-2.559019804 -4.649073601 0.2759163082
-2.570028305 -4.667144775 0.462422967
-2.570049763 -4.663328171 0.6486452222
-2.573601484 -4.665918827 0.8372888565
-2.574993134 -4.666516304 1.027760148
-0.4683312774 -0.8480308056 0.213700071
-2.594681978 -4.694447517 1.425627351
-2.015989065 -3.636941195 -1.102621198
-2.296764851 -4.138363361 -0.9117481709
-2.57784152 -4.640994549 -0.8341601491
-0.6089093685 -1.095343232 -0.1487371475
-0.5860154033 -1.053727746 -0.1017725244
-1.997126579 -3.588127851 -0.2130084783
-2.32968545 -4.182182312 -0.08286222816
-2.364321709 -4.263595104 0.08439804614
-2.578140497 -4.645351887 0.2762303054
-2.597910881 -4.679047585 0.4645147026
-2.594024658 -4.668210506 0.6505951285
-2.601393223 -4.677624702 0.8410432935
-2.596992254 -4.667793274 1.030049801
-0.4674964547 -0.8395804763 0.2119004577
-2.623278379 -4.707299232 1.432356715
-2.02772975 -3.628195763 -1.102103591
-2.467799902 -4.411992073 -1.157144904
-2.284353495 -4.0823493 -0.9010629654
-2.608504295 -4.657820702 -0.83885324
-0.61952281 -1.105332732 -0.1504433006
-0.5809201598 -1.036035061 -0.1002037227
-2.080013037 -3.706541061 -0.2205448598
-2.369729519 -4.21935606 -0.08376975358
-2.38504529 -4.265788078 0.08460746706
-2.606043816 -4.657239437 0.2774863839
-2.61714673 -4.675166607 0.4650376439
-2.624858141 -4.68510437 0.6542512178
-2.630264759 -4.690914154 0.8451105952
-2.630559921 -4.689519882 1.036918998
-0.4732862711 -0.8430413008 0.2132501751
-2.640639305 -4.699798107 1.432874322
-2.033744097 -3.609314442 -1.098480105
-2.473613262 -4.386376381 -1.152645826
-2.303413153 -4.082900047 -0.9029709697
-2.626689911 -4.652127266 -0.8394790292
-0.6204476357 -1.097978711 -0.1497121006
-0.5825721025 -1.030532122 -0.0998551026
-2.394295931 -4.228460312 -0.08411879838
-2.399921179 -4.257436752 0.08460746706
-2.638967991 -4.677685738 0.2792657912
-2.639325857 -4.676413059 0.4660835266
-2.658288956 -4.702340126 0.8488650322
-2.660442829 -4.704233646 1.0422616
-2.664801121 -4.708104134 1.239027023
-2.662742853 -4.700636864 1.435980082
-2.04633069 -3.602193117 -1.098480105
-2.498541355 -4.394655704 -1.157144904
-2.32638669 -4.090193272 -0.9064055681
-0.6282070875 -1.102705598 -0.1506870538
-0.5841927528 -1.025030375 -0.09950647503
-2.422179699 -4.244812489 -0.08460746706
-2.389079094 -4.203831673 0.08369994909
-2.664336681 -4.686271667 0.2803125083
-2.662531137 -4.679293633 0.4673036933
-2.672237158 -4.692540169 0.6579072475
-2.679734945 -4.70379734 0.8507422805
-0.4743309319 -0.8319281936 0.1778967828
-2.694740772 -4.722468853 1.245325685
-2.688850403 -4.710236549 1.441674232
-2.063692331 -3.603409767 -1.101068258
-2.354321957 -4.105891705 -0.9117481709
-0.6209884882 -1.081678987 -0.1480059177
-0.5847895145 -1.017802238 -0.09898354113
-2.450942278 -4.260599136 -0.08509614319
-2.438783407 -4.258355618 0.08495652676
-2.684651375 -4.683873653 0.2807312012
-2.688762426 -4.687252998 0.4690468311
-2.691735983 -4.690539837 0.6588822603
-2.709911346 -4.71839571 0.855122447
-0.47317487 -0.823541522 0.1763703078
-2.712329149 -4.716886044 1.246225476
-2.711057425 -4.710868359 1.444779992
-2.077561855 -3.599893093 -1.102103591
-2.540091753 -4.397797108 -1.162543654
-2.369889498 -4.101461887 -0.9125114679
-2.674455404 -4.62483263 -0.8394790292
-0.6178002357 -1.06747818 -0.1462997645
-0.5913345218 -1.020926952 -0.09950647503
-2.46579957 -4.252017498 -0.08509614319
-2.697987556 -4.669286251 0.2804171741
-2.712268114 -4.692110538 0.4704412818
-2.722009182 -4.705171108 0.6622946262
-2.725375414 -4.707198143 0.8548095226
-2.736294985 -4.724157333 1.052946925
-2.733664513 -4.715819359 1.248475075
-2.745904207 -4.733125687 1.454615116
-2.088797808 -3.58891511 -1.101068258
-2.592689514 -4.452898026 -1.179639935
-2.392812967 -4.106318951 -0.9155643582
-2.734179258 -4.688374519 -0.8529323339
-0.6215226054 -1.065315127 -0.1462997645
-0.5928854346 -1.015415311 -0.09915785491
-2.480627298 -4.243384361 -0.08509614319
-2.734374285 -4.694357395 0.2825106084
-2.747509003 -4.713120937 0.4735789299
-2.746417046 -4.709359169 0.664244473
-0.4774794281 -0.8180912137 0.143345505
-2.763493776 -4.731048584 1.056763172
-2.764699459 -4.729321003 1.254773617
-2.769235849 -4.735184669 1.458238602
-2.092514753 -3.566605806 -1.096409559
-2.545842171 -4.335816383 -1.150846243
-2.419065475 -4.118254662 -0.9201438427
-2.755533457 -4.687315941 -0.8544966578
-0.6252375245 -1.063139081 -0.1462997645
-0.5863202214 -0.9961691499 -0.09741473943
-2.531972408 -4.296720982 -0.08635271341
-2.760856628 -4.70200634 0.2835573256
-2.769999743 -4.713809013 0.4746247828
-2.778754234 -4.724927902 0.6679006219
-0.4793303311 -0.8147169948 0.1430326253
-2.790948868 -4.739982128 1.060960889
-2.784323692 -4.726843357 1.2565732
-2.786729336 -4.727153301 1.458756328
-2.110229492 -3.569625378 -1.099515438
-2.564175367 -4.334058762 -1.152645826
-2.434707642 -4.113589287 -0.9209070206
-0.6317952871 -1.066183329 -0.1470309645
-0.589620471 -0.9942193627 -0.09741473943
-2.546206951 -4.288300991 -0.08635271341
-2.787621021 -4.711733818 0.2847087383
-2.797797441 -4.725169659 0.4767165184
-2.794406414 -4.715687752 0.6679006219
-2.80694294 -4.734959126 0.8651341796
-2.803647041 -4.725636005 1.059816003
-2.819874525 -4.751101017 1.265571237
-2.815215588 -4.739478588 1.465485573
-2.133918285 -3.582524538 -1.105727077
-2.612460375 -4.382443428 -1.167942524
-2.458391428 -4.122354507 -0.9247231483
-2.802757502 -4.6960783 -0.8595025539
-0.62838763 -1.052041888 -0.1453247964
-0.5939362049 -0.993968904 -0.09758905321
-2.809166193 -4.710551262 0.2852320969
-2.821617603 -4.729554176 0.4781110287
-0.4898046255 -0.8203524351 0.1121763363
-2.831561565 -4.738697529 0.8676371574
-2.828367472 -4.731479645 1.063250661
-2.84244585 -4.751261711 1.268270731
-2.845634222 -4.752828121 1.472732544
-2.150388241 -3.581678629 -1.107797503
-2.593617201 -4.316504478 -1.152645826
-2.474789143 -4.117113113 -0.9254864454
-2.833388805 -4.709963322 -0.8638827205
-0.623865068 -1.036236644 -0.1433748901
-0.6004857421 -0.9970098734 -0.09811198711
-2.828678846 -4.705852032 0.285546124
-2.844270229 -4.729920864 0.4791569114
-0.4926652014 -0.8186376691 0.1121763363
-2.859294891 -4.747398853 0.8710787296
-2.864117146 -4.753528118 1.070501447
-2.864043951 -4.749655247 1.270520091
-2.875185013 -4.764367104 1.479461789
-2.148875237 -3.551011801 -1.100550652
-2.624820948 -4.334094524 -1.159844279
-2.496266842 -4.120203495 -0.9281577468
-2.858006001 -4.71355772 -0.8663856983
-0.6212995648 -1.023870111 -0.1419124603
-0.5946573019 -0.9795795083 -0.09654318541
-2.222389698 -3.658066034 -0.2221149504
-2.607641459 -4.307424545 0.08719042689
-2.857507467 -4.716448307 0.2868021727
-0.4968988895 -0.8198317289 0.08015790582
-2.885027647 -4.756249905 0.677893877
-2.877899408 -4.740766525 0.8717044592
-2.895978689 -4.768672466 1.076225638
-2.894776821 -4.762942314 1.276818871
-2.893804789 -4.757603645 1.480497003
-2.170311213 -3.558332682 -1.10520947
-2.646024704 -4.334886551 -1.162543654
-2.542351961 -4.163407326 -0.9399879575
-2.880622625 -4.713665962 -0.8682629466
-0.6248697639 -1.021695137 -0.1419124603
-0.5980731249 -0.9774978161 -0.09654318541
-2.622661591 -4.298295975 0.08719042689
-2.88644433 -4.726899624 0.2880582511
-0.4904097915 -0.8027899861 0.07858909667
-2.898506165 -4.741069317 0.6771626472
-2.900616407 -4.740801811 0.8735817075
-2.91055727 -4.755185604 1.075462461
-2.921563148 -4.769427299 1.28131783
-2.919481516 -4.7622962 1.485155821
-2.184970379 -3.551618338 -1.105727077
-2.634043455 -4.278229713 -1.149946451
-2.559349298 -4.155286312 -0.9403695464
-2.90388298 -4.710978031 -0.8698272705
-0.6183659434 -1.002393365 -0.1394750774
-0.6007755995 -0.9734986424 -0.09636886418
-0.5177725554 -0.8412981629 0.01654308476
-0.5059672594 -0.8214739561 0.04835955054
-2.926641226 -4.749753952 0.4843862355
-2.922940731 -4.740043163 0.6786250472
-2.933322191 -4.753163815 0.877961874
-2.93188858 -4.748986721 1.076607347
-2.953171015 -4.779726028 1.287166595
-2.95095396 -4.772411346 1.491885066
-2.203461885 -3.553821325 -1.108832836
-2.66540122 -4.295502663 -1.157144904
-2.571766615 -4.142991543 -0.9396063089
-2.927606583 -4.71255827 -0.872017324
-0.6166206002 -0.991799593 -0.138256371
-0.6010133028 -0.9663199782 -0.09584593773
-2.969985485 -4.767770767 -0.09734772146
-0.5143818259 -0.8292896152 0.01633365639
-0.4951378703 -0.7976431251 0.04699881747
-2.958969116 -4.764897346 0.4870008826
-2.953090668 -4.751729488 0.6817936897
-2.969718218 -4.774766445 0.8839063644
-2.965042353 -4.765393734 1.082713127
-2.980138063 -4.785930634 1.291665673
-2.979855776 -4.781756401 1.498096824
-2.216878176 -3.547746181 -1.109350443
-2.721708298 -4.352263927 -1.175140977
-2.574760199 -4.115680218 -0.9354085326
-2.961858034 -4.730774403 -0.8773360848
-0.6221868992 -0.9930054545 -0.1387438476
-0.594859302 -0.9490227699 -0.09427713603
-2.977041006 -4.742132187 -0.09703358263
-0.51303339 -0.8207065463 0.01619403623
-2.963906288 -4.737719059 0.2906750441
-2.989324808 -4.776495457 0.489266932
-2.987572193 -4.769992352 0.6859372258
-2.989514589 -4.76939249 0.8848450184
-2.996260643 -4.778300762 1.088055849
-3.003041267 -4.785402775 1.294365048
-3.009886026 -4.792593479 1.504826069
-2.234395266 -3.548160315 -1.111938715
-2.580734015 -4.093382359 -0.9323556423
-2.994166136 -4.745465279 -0.8820291758
-0.6351881027 -1.005933881 -0.1409375072
-0.5917841792 -0.9368336797 -0.09323126823
-3.002128839 -4.745230198 -0.09731282294
-0.5073679686 -0.8053750992 0.01591479778
-2.998533487 -4.756066799 0.2924544513
-3.011292934 -4.774458408 0.4901385307
-3.020097017 -4.784715176 0.6895933151
-3.017749548 -4.77729845 0.888286531
-3.023409605 -4.784409523 1.091871977
-3.025976896 -4.784772396 1.297064424
-3.034862041 -4.795115948 1.508967161
-2.225028992 -3.506085396 -1.101068258
-2.585532188 -4.069434643 -0.9289210439
-3.022370577 -4.753321648 -0.8854706883
-0.6291039586 -0.9886377454 -0.1387438476
-0.5886309147 -0.924677968 -0.09218539298
-0.5181683302 -0.8127350807 -0.01612422802
-3.026727438 -4.767520905 0.09787129611
-3.026899576 -4.764113903 0.293605864
-3.034353018 -4.774006844 0.4911843836
-3.039978027 -4.779168129 0.6903245449
-3.043952942 -4.781733513 0.8911023736
-3.048528671 -4.787074089 1.094924927
-3.061511517 -4.803762436 1.305162668
-3.060931206 -4.799152374 1.51362586
-2.246621609 -3.512944698 -1.105727077
-2.606072187 -4.070305347 -0.9312107563
-3.043207169 -4.74939537 -0.8867221475
-0.6368373632 -0.9931198359 -0.1397188157
-0.5972342491 -0.9310023785 -0.09305694699
-0.5169030428 -0.8051595688 -0.04794086516
-0.5145165324 -0.8008271456 -0.01591479778
-3.046583891 -4.76197958 0.09797601402
-3.057510614 -4.775386333 0.2949666083
-3.066044092 -4.786874294 0.4936247468
-3.071638346 -4.791924953 0.6937369108
-3.073426247 -4.791030407 0.894856751
-3.072641373 -4.787970543 1.097596169
-3.091952085 -4.814361572 1.311011434
-3.089153528 -4.806315422 1.519319892
-2.274568081 -3.529438972 -1.113491654
-0.5681497455 -0.8805829883 -0.1954512298
-3.064054012 -4.745382309 -0.8879736662
-0.6316811442 -0.9775524735 -0.1377688944
-0.6069700718 -0.9389515519 -0.09410282224
-0.522965014 -0.8083810806 -0.04825488105
-3.013619184 -4.654781342 -0.09609115869
-3.07835722 -4.774845123 0.0984646827
-3.0795753 -4.773075104 0.2954899371
-3.094619513 -4.794556141 0.4955421686
-3.093732357 -4.789511681 0.6949555874
-3.107288837 -4.806816578 0.8998626471
-3.103195429 -4.798646927 1.102557302
-3.116149187 -4.814991951 1.314160705
-3.121665716 -4.819824696 1.52708447
-2.280561447 -3.511756659 -1.110385776
-2.807870865 -4.320439816 -1.179639935
-0.5744304657 -0.8835322857 -0.1965960711
-3.101068497 -4.766116142 -0.8939181566
-0.6372559667 -0.9786685705 -0.138256371
-0.6058940291 -0.9301493168 -0.09340557456
-0.5159672499 -0.7914924026 -0.04731283337
-3.021106958 -4.630835533 -0.09581191838
-3.104810715 -4.779163361 0.09877882153
-3.107104063 -4.779040813 0.2965366542
-3.123286486 -4.802097321 0.4974596202
-3.12126112 -4.795320034 0.6973930001
-3.128361702 -4.802561283 0.9011141062
-3.134932518 -4.810813427 1.107899904
-3.143584013 -4.820407391 1.318659782
-3.147972584 -4.823459625 1.531743288
-2.104515553 -3.21603632 -1.018246174
-2.790906191 -4.261704445 -1.166142941
-2.604442596 -3.975460768 -0.9155643582
-3.138265371 -4.786650658 -0.8998626471
-0.6363123655 -0.9697992802 -0.1372814327
-0.5949244499 -0.9063754082 -0.09113952518
-0.5253062248 -0.7997024059 -0.04794086516
-3.043843985 -4.630287647 -0.09602134675
-3.136807919 -4.791719437 0.09926749021
-3.134712458 -4.784873009 0.2975833714
-3.145490646 -4.799497128 0.4983311594
-3.148868084 -4.800994396 0.6998303533
-3.152694702 -4.803172588 0.9033042789
-3.168947935 -4.826098442 1.114005804
-3.172162056 -4.827320099 1.323608637
-3.174344063 -4.826968193 1.536401868
-2.837964773 -4.300732136 -1.179639935
-3.156044006 -4.777314663 -0.9001755714
-0.6440728307 -0.9741957784 -0.138256371
-0.5607156157 -0.8477917314 -0.08521293849
-0.5765984058 -0.8711452484 -0.05254642665
-3.139497042 -4.739667892 -0.09853449464
-3.160121441 -4.790755749 0.09947691858
-3.163499594 -4.792236805 0.2987347841
-3.172106504 -4.803451061 0.4998999536
-3.183119774 -4.816471577 0.7037302256
-3.184697866 -4.81520462 0.9076843858
-3.190108776 -4.821557045 1.115532279
-3.204055786 -4.838965893 1.329907298
-3.200777769 -4.830351353 1.541060686
-2.141883373 -3.22379303 -1.025493145
-0.5849376917 -0.8797360063 -0.2339456528
-2.701720715 -4.06180048 -0.9399879575
-3.184740067 -4.784358025 -0.903617084
-0.6362971663 -0.9555318356 -0.1358189881
-0.527210176 -0.7911164761 -0.07946065813
-0.6051235795 -0.9073446393 -0.05495388061
-3.110805035 -4.662692547 -0.09713830054
-2.771697998 -4.170161247 0.08670176566
