# .PCD v0.7 - Point Cloud Data file format
VERSION 0.7
FIELDS x y z
SIZE 4 4 4
TYPE F F F
COUNT 1 1 1
WIDTH 1259
HEIGHT 1
VIEWPOINT 0 0 0 1 0 0 0
POINTS 1259
DATA ascii
-4.03751564 2.962595463 0.9651747346
-4.238061428 3.112025738 1.203934669
-4.18061018 3.072087288 1.378522277
-2.573303938 1.895815969 -0.8448374271
-2.679235458 1.975302458 -0.7585315704
-2.680937529 1.977279544 -0.6392729282
-2.713859081 2.003023386 -0.5275486112
-2.897022724 2.139773846 -0.4370800555
-2.967947006 2.192959785 -0.3191389441
-3.574881554 2.64334178 -0.2308027148
-3.907767057 2.89159584 -0.0841537118
-3.747507095 2.76189065 0.08055850863
-3.922086477 2.89266777 0.253202498
-4.271315098 3.151386738 0.4606798589
-4.283561707 3.162733078 0.6486452222
-4.28407383 3.165421247 0.8369759917
-4.039779186 2.98600769 0.9682276845
-4.274174213 3.161567211 1.217431784
-4.16675663 3.08436203 1.377487063
-2.55736208 1.897879958 -0.8417316079
-2.661372423 1.976509452 -0.7553822398
-2.680322886 1.991309047 -0.6407994032
-2.708436012 2.013662815 -0.5278614759
-2.908647537 2.164092541 -0.4400048852
-2.974658728 2.214012861 -0.3207077384
-3.570438385 2.659383774 -0.231116727
-3.910476685 2.914778471 -0.08443294466
-3.737843513 2.774955273 0.08055850863
-3.918378115 2.911105156 0.253621161
-4.273081779 3.175785303 0.4620743692
-4.282052994 3.184773445 0.6501076818
-4.282506466 3.187432528 0.83885324
-4.054526806 3.018849611 0.9743335843
-4.319367409 3.21838522 1.233628273
-4.176098347 3.113900661 1.384216428
-2.547626972 1.904481888 -0.8406963348
-2.65601778 1.986954093 -0.7558321357
-2.676499128 2.003005743 -0.6415626407
-2.715620756 2.033761978 -0.5306773186
-2.870894432 2.151612997 -0.4353738427
-2.981259108 2.235139608 -0.3222765625
-3.564329147 2.67422843 -0.2313260883
-3.932260752 2.952424049 -0.08513104171
-3.740945816 2.797566652 0.0808377564
-3.920984983 2.934338808 0.2544585466
-4.287489414 3.209786177 0.4648633599
-4.261377811 3.192560196 0.6486452222
-4.283997536 3.211841822 0.8413561583
-4.157048225 3.117796898 1.001810074
-4.339278698 3.256837606 1.242626309
-4.174471378 3.135420084 1.387322187
-2.519358158 1.897094131 -0.8334493637
-2.674194098 2.015881777 -0.6427074671
-3.53484416 2.666599274 -0.6946206689
-2.995697975 2.262342453 -0.3247168958
-3.647389174 2.756497622 -0.2373970449
-3.92193079 2.966132164 -0.08513104171
-3.798242092 2.861140013 0.08230374753
-3.923477173 2.957625866 0.2552959323
-4.298530579 3.241526842 0.4673036933
-4.26922226 3.221764803 0.6515701413
-4.253844261 3.212491035 0.8376017809
-4.218197823 3.186726809 1.019364595
-4.312338829 3.260212898 1.238127232
-4.181987286 3.163960695 1.393533826
-2.469623804 1.873187304 -0.8189555407
-2.837661982 2.153902769 -0.8125198483
-2.892297745 2.196168184 -0.6976605058
-3.193649054 2.426748276 -0.6286053061
-2.92058897 2.220867395 -0.4453671277
-3.017911434 2.295704365 -0.3280288279
-3.764880419 2.8659935 -0.245770812
-3.921097994 2.987074137 -0.08534047008
-3.845579863 2.917896509 0.08356032521
-3.929036856 2.983380795 0.2563426495
-4.293534756 3.261333227 0.4680009484
-4.270593166 3.246257067 0.6535199881
-4.214304447 3.205792427 0.8319700956
-4.278916359 3.25611949 1.036918998
-4.31023407 3.282329559 1.240826607
-4.167845726 3.176196575 1.392498612
-2.487631559 1.900561929 -0.8272377253
-2.851799965 2.180365086 -0.81881845
-2.875257254 2.199094534 -0.6953707933
-3.05809927 2.340630531 -0.6032629013
-3.053076744 2.338478088 -0.4670598805
-3.014624834 2.309859991 -0.3285517693
-3.189023972 2.445255995 -0.2084029317
-3.891608715 2.98613596 -0.08492161334
-3.865558386 2.954374075 0.08422351629
-3.931290627 3.006784678 0.2571800351
-4.282124043 3.276300669 0.4680009484
-4.293910503 3.287695169 0.6588822603
-4.21876955 3.232497215 0.835098803
-4.273756027 3.275814533 1.038445473
-4.323491096 3.31633091 1.24802506
-4.179719448 3.208370209 1.400263071
-2.520787954 1.93986702 -0.8406963348
-2.875051022 2.214086771 -0.8278164864
-2.845789433 2.192344666 -0.690028131
-3.013928413 2.323551178 -0.5960668921
-2.994601011 2.310318232 -0.4592602551
-2.943452358 2.271676779 -0.3215793073
-3.223148108 2.489334106 -0.2112290561
-3.871068239 2.980046988 0.08457256109
-3.933427572 3.030241251 0.258017391
-4.295912743 3.31068635 0.4707899392
-4.291839123 3.309937239 0.6603446603
-4.163673878 3.213411093 0.82633847
-4.175271034 3.223525763 1.017074823
-4.333477497 3.348083735 1.254323721
-4.177665234 3.230029345 1.40336895
-2.492625237 1.93208468 -0.8334493637
-2.802633286 2.173944473 -0.8089206219
-2.780730247 2.157732487 -0.6759082675
-2.781126738 2.159596682 -0.5510137677
-2.781179905 2.161193371 -0.4273304641
-3.03617692 2.360197306 -0.3327352405
-3.201827765 2.490759373 -0.2103917003
-3.782302856 2.944442749 -0.08296694607
-3.892247915 3.018048525 0.08527065814
-3.938605785 3.056196213 0.2590641081
-4.306364059 3.34276557 0.4732302725
-4.281827927 3.326115608 0.6605884433
-4.149311543 3.225501299 0.8257127404
-4.176393032 3.247721434 1.020127773
-4.318687916 3.36079669 1.253423929
-4.192276001 3.264771461 1.412168741
-2.56200242 2.00021553 -0.8593313098
-2.764315128 2.15971899 -0.7999225855
-2.768541098 2.163799047 -0.6747633815
-2.782907963 2.176592827 -0.552891016
-2.782998323 2.17822957 -0.4287929237
-3.049882889 2.387976646 -0.3351756036
-3.145949364 2.464967012 -0.2072515488
-3.750484228 2.939698458 -0.08247827739
-3.913208961 3.056233644 0.08596875519
-3.931597471 3.071699858 0.2592734694
-4.307225704 3.367594719 0.4746247828
-4.282698631 3.350827694 0.6625383496
-4.101259708 3.210021973 0.8182038665
-4.186668873 3.27922821 1.025470495
-4.313065052 3.380659819 1.255223513
-4.211831093 3.302496195 1.422521472
-2.536781788 1.99481678 -0.8531196117
-2.752542734 2.1652596 -0.7985728979
-3.095373631 2.437568665 -0.6173419952
-2.833447933 2.23290801 -0.4378112257
-2.988337755 2.356660843 -0.3292489946
-3.131485939 2.470436811 -0.206832841
-3.704101324 2.924272299 -0.08167546988
-3.925059557 3.086499214 0.08645743132
-3.93968606 3.100226641 0.2605295479
-4.30483675 3.390005827 0.4756706655
-4.299632072 3.387122869 0.6669256687
-4.090029716 3.224318504 0.8182038665
-4.240517139 3.344153881 1.041498423
-4.32630682 3.414260149 1.262421966
-4.263952255 3.367465496 1.444262385
-2.822196007 2.238449097 -0.5638414025
-2.817861319 2.236614943 -0.4365925491
-2.929014921 2.325672626 -0.3234967291
-3.135352373 2.49129343 -0.2076702267
-3.675088406 2.922249317 -0.08125660568
-3.926802874 3.110112906 0.08673666418
-3.953883648 3.133809328 0.2622042596
-4.309184074 3.416639805 0.4774137735
-4.292447567 3.405812502 0.6676568985
-4.088031769 3.24594593 0.8200811148
-4.238041401 3.366261721 1.043788075
-4.323516369 3.436615705 1.265121341
-4.291480064 3.413598061 1.457720995
-2.550332546 2.033717394 -0.862437129
-2.6187644 2.090531111 -0.6430891156
-2.604467154 2.080607414 -0.5212911963
-2.841048241 2.271227837 -0.4414673448
-2.936438799 2.348326445 -0.3252398372
-3.627404928 2.90506053 -0.0804188922
-3.925301313 3.131283998 0.08694609255
-3.958529711 3.160051346 0.2632509768
-4.303457737 3.436635256 0.4781110287
-4.292939186 3.430688143 0.6696067452
-4.085932732 3.267598867 0.8219583631
-4.246195316 3.396977663 1.048749089
-4.323663712 3.461430073 1.268720508
-4.318738461 3.459961176 1.471179605
-2.564305067 2.05954361 -0.8696841002
-2.640100479 2.121936083 -0.772028625
-2.597188711 2.08968544 -0.5212911963
-2.772801161 2.232578278 -0.4319615364
-3.061903954 2.467998743 -0.203902036
-3.592339277 2.897616863 -0.07986041903
-3.933053255 3.159996271 0.08736494929
-3.961484432 3.185113668 0.2641930282
-4.30696106 3.464123249 0.4798541367
-4.294854641 3.456855774 0.6718004346
-4.086809158 3.291753292 0.8244612813
-4.214437485 3.395766735 1.043788075
-4.314589024 3.478948116 1.269620419
-4.312648296 3.479868174 1.473250031
-2.551091671 2.063622952 -0.8676134944
-2.626618624 2.126234293 -0.770228982
-2.698700905 2.1853652 -0.6667494774
-2.645128727 2.143511295 -0.5325545073
-2.885254622 2.339769125 -0.4509731233
-3.051492691 2.475461006 -0.34005633
-3.05327034 2.478671789 -0.203902036
-3.569786072 2.900051832 -0.07958117872
-3.943762541 3.191316128 0.08785361797
-3.944132566 3.193896055 0.2637743652
-4.282457829 3.469102144 0.4784596264
-4.287387848 3.475577116 0.6725316644
-4.06608963 3.298532248 0.822584033
-4.193411827 3.403035164 1.041498423
-4.326622486 3.513643503 1.276818871
-4.303473473 3.497337818 1.474285364
-2.546868801 2.074955225 -0.8686488271
-2.625221968 2.140316248 -0.772028625
-2.614986181 2.132729769 -0.6476685405
-2.790666819 2.277635336 -0.5638414025
-2.812496424 2.297086716 -0.440736115
-3.03357482 2.478534698 -0.3390104473
-3.04460001 2.489313841 -0.203902036
-3.528687954 2.887169123 -0.07888308167
-3.938799143 3.210116386 0.0879932344
-3.954628944 3.225315571 0.2652397454
-3.890554667 3.174188852 0.4355790317
-4.284455299 3.498054028 0.6739940047
-4.057609558 3.315206289 0.8232098222
-4.219510078 3.448712826 1.051038861
-4.238908768 3.467036247 1.254323721
-4.213502407 3.448709965 1.447368264
-2.509741306 2.059324503 -0.8582960367
-2.617735386 2.149466276 -0.772028625
-2.631798744 2.161783218 -0.6537744403
-2.788803339 2.292380095 -0.5650929213
-2.812125921 2.313196182 -0.4419548213
-3.000288963 2.468853474 -0.3362214565
-3.035891533 2.499927282 -0.203902036
-3.94457221 3.23780179 0.08837718517
-3.960323572 3.253045321 0.2663911581
-4.253819942 3.497857571 0.6710692048
-4.061266422 3.341901779 0.82633847
-4.221088409 3.474648952 1.0544734
-4.219260216 3.475616932 1.252074242
-4.188022137 3.452339172 1.442709446
-2.499559164 2.065611362 -0.857260704
-2.601205587 2.151139259 -0.7693291903
-2.675668716 2.213505268 -0.6667494774
-2.780785084 2.30210042 -0.5650929213
-3.000857592 2.486938953 -0.3372673392
-3.025609016 2.509234428 -0.2037973553
-3.936328411 3.254099846 0.08844700456
-3.967410564 3.282126904 0.2676472068
-4.26124382 3.526461124 0.4802027345
-4.247699738 3.517749548 0.672044158
-4.060223103 3.364880085 0.828528583
-4.224048138 3.501892567 1.058289647
-4.216102123 3.497788906 1.254773617
-4.169999599 3.462000847 1.4406389
-2.489364147 2.07185173 -0.8562254906
-3.590951204 2.990805626 -1.068964005
-2.667926311 2.222831011 -0.6667494774
-2.687768459 2.240953684 -0.5475721955
-2.986436844 2.491739035 -0.4724221528
-2.970743656 2.479525089 -0.3348269761
-2.970845461 2.481369734 -0.2006572038
-3.268111944 2.731596947 -0.07364735752
-3.894209623 3.242230654 0.08774890751
-3.962068081 3.301068783 0.2680658996
-4.242786407 3.536210537 0.4795055091
-4.25521183 3.549086094 0.6752127409
-4.057551861 3.386627197 0.8304057717
-4.127404213 3.446153402 1.036918998
-4.099185944 3.425019741 1.223280549
-4.076377869 3.408379793 1.412168741
-2.490999699 2.087975264 -0.8593313098
-3.637225628 3.050911427 -1.086060405
-2.66015029 2.232131004 -0.6667494774
-2.661776304 2.235078812 -0.5438177586
-2.944285631 2.474053144 -0.4670598805
-2.971221209 2.497571945 -0.335872829
-2.959108829 2.489153624 -0.2004478574
-3.258557558 2.742987394 -0.07364735752
-3.838431597 3.218543768 0.08673666418
-3.962760448 3.32515049 0.2689032853
-3.845856428 3.228200436 0.4355790317
-4.128798008 3.468157768 0.656932354
-4.060826778 3.413480997 0.8335344791
-4.092811108 3.441585779 1.031194687
-4.066329479 3.421742678 1.216981769
-4.064455509 3.42258811 1.412168741
-2.460077047 2.076719284 -0.8510490656
-2.635858059 2.229050159 -0.5400633812
-2.908355951 2.461233616 -0.462672621
-2.944237232 2.492480516 -0.3337811232
-2.916875601 2.471065283 -0.1981450766
-3.209304333 2.720724583 -0.0727398321
-3.805784941 3.213859558 0.0862479955
-4.12974596 3.491141319 0.4693954587
-4.104542255 3.472292185 0.6549824476
-4.056425095 3.434016943 0.835098803
-4.083769321 3.458389044 1.031957984
-4.06030798 3.440954447 1.218781352
-4.040697098 3.426759005 1.408027768
-2.42337656 2.06026721 -0.8406963348
-2.550137758 2.169569969 -0.7630305886
-2.49499321 2.123405695 -0.6285876632
-2.631068707 2.240799189 -0.5406891108
-2.905790329 2.476521254 -0.4636475444
-2.920357227 2.489816189 -0.3320379853
-2.926465034 2.496788263 -0.1994011402
-3.207391977 2.738402843 -0.07291436195
-3.754937172 3.193441153 0.08534047008
-3.988121748 3.394157648 0.2722527981
-4.100847244 3.491327286 0.4674780071
-4.115062237 3.505909443 0.6586384773
-4.080490112 3.478913784 0.842607677
-4.080635071 3.480267286 1.034247637
-4.069024086 3.472818375 1.225080132
-2.433779478 2.083791018 -0.8469079733
-2.60823679 2.237109184 -0.5375604033
-2.9061656 2.4944067 -0.4651100039
-2.902578592 2.492207766 -0.3309921324
-2.893493891 2.486162424 -0.1977263838
-3.211459398 2.761315584 -0.07322850078
-3.739210129 3.20262742 0.08523575962
-3.982316017 3.413256168 0.2726714909
-3.799739838 3.257921457 0.4341845214
-4.093760967 3.512495518 0.657176137
-4.072818279 3.496997356 0.8435462713
-4.059526443 3.486814022 1.031957984
-4.06278801 3.492081881 1.226879716
-4.037178993 3.472521544 1.41527462
-2.426490784 2.092273951 -0.8469079733
-2.600412369 2.246199369 -0.5375604033
-2.89744091 2.504536152 -0.4651100039
-2.899890423 2.50753665 -0.3316893876
-2.896880388 2.5067029 -0.1985637695
-3.220428705 2.787654638 -0.07364735752
-3.708323479 3.198681116 0.08478199691
-3.989120722 3.442100763 0.2739275098
-3.734055996 3.224288702 0.4279093146
-4.050737858 3.50144124 0.8413561583
-4.069602489 3.520230055 1.037682295
-4.035840034 3.493487597 1.222380638
-4.025641441 3.485890388 1.41527462
-2.445427895 2.123531342 -0.8562254906
-2.424679518 2.10625577 -0.7315374017
-2.598911762 2.259995222 -0.5388118625
-2.859169722 2.488068104 -0.4602352083
-2.858063936 2.488858223 -0.3278545141
-2.861444235 2.492681265 -0.1966796666
-3.687126398 3.201782942 0.08453766257
-3.989141941 3.466485023 0.2747649252
-3.770889521 3.279139042 0.4334872663
-4.059272766 3.531159163 0.6554698944
-4.053390503 3.528528929 0.8444848657
-4.078634739 3.551755428 1.043024898
-4.044801235 3.524775505 1.228679299
-4.045481205 3.527854919 1.426662683
-2.374377966 2.075683117 -0.8334493637
-2.461313725 2.153199673 -0.7450344563
-2.591006994 2.269053459 -0.5388118625
-2.850467682 2.498032808 -0.4602352083
-2.840805769 2.490441799 -0.3268086612
-2.858731747 2.507922411 -0.1970983595
-3.621661186 3.179468155 -0.08342070878
-3.674423218 3.213316917 0.0845027566
-3.992046595 3.493543148 0.2758116424
-4.067825794 3.563621759 0.6588822603
-4.051446915 3.551771641 0.8466749787
-4.080971718 3.578916788 1.046841025
-4.052978516 3.556868792 1.234977841
-4.038948536 3.54705286 1.42873323
-2.361317396 2.07885313 -0.8313788772
-2.447933674 2.156625509 -0.7432348728
-2.587515354 2.28200388 -0.5397504568
-2.841730595 2.507967472 -0.4602352083
-2.823132515 2.492431641 -0.3257627785
-2.843972921 2.512596607 -0.1966796666
-3.664474726 3.239772558 -0.084677279
-3.651178598 3.215550184 0.08422351629
-3.996310234 3.521981239 0.2769630253
-4.120859623 3.635583162 0.6696067452
-4.076044083 3.598577499 0.8544966578
-4.096414089 3.617831945 1.054091811
-4.078502178 3.60454917 1.246675372
-4.049696445 3.581607342 1.437015414
-2.369947433 2.101180792 -0.8370729089
-2.417067289 2.144464254 -0.7360364199
-2.576580048 2.288398743 -0.5391247272
-2.798832178 2.48754096 -0.4546292126
-2.78910327 2.479765415 -0.3227995038
-2.803849459 2.494629145 -0.1944815516
-3.659117222 3.257863045 -0.08481689543
-3.629459143 3.218987465 0.08397918195
-4.007892132 3.557122231 0.2786377668
-3.736923218 3.317795277 0.4334872663
-4.312934399 3.831894875 0.7032427192
-4.088555336 3.635095835 0.8598154187
-4.135104179 3.677774429 1.067448378
-4.112477779 3.660222054 1.261072278
-4.106413841 3.657396555 1.461861968
-2.369803667 2.115873814 -0.8396610618
-3.365767479 3.007230043 -1.032072067
-2.571520805 2.30001235 -0.5397504568
-2.793090582 2.499943733 -0.455116719
-3.677499771 3.297314644 -0.08551499248
-3.616710186 3.23030448 0.08394428343
-3.998429775 3.57375288 0.2788471282
-4.36398983 3.90185523 0.5084412694
-4.317284584 3.862810373 0.7061675787
-4.086143017 3.658569336 0.8620054722
-4.29480648 3.84674859 1.112479329
-4.304288387 3.857949972 1.324508429
-4.283454895 3.841975927 1.530190349
-2.376769543 2.137049198 -0.8448374271
-2.367269754 2.130003452 -0.7252388
-2.560541153 2.306330681 -0.5391247272
-2.785821438 2.511007309 -0.4553604126
-2.79391861 2.519189596 -0.325414151
-3.639251709 3.286010504 -0.08488670737
-3.599464178 3.237561226 0.08380465955
-4.002260685 3.602385521 0.2799985111
-3.984625578 3.587773085 0.4653863013
-4.321472168 3.893801451 0.7090924382
-4.085083961 3.68339324 0.8645085096
-4.301763058 3.880125284 1.117821932
-4.296581745 3.878174067 1.326308012
-4.284354687 3.869852543 1.535366774
-2.357838631 2.134959459 -0.8406963348
-2.36559701 2.143487215 -0.7270384431
-2.558327913 2.32056284 -0.5403761864
-2.85591054 2.593215466 -0.3337811232
-2.835221291 2.576236725 -0.1985637695
-3.621841669 3.293311596 -0.08474709094
-3.594069481 3.255475998 0.08394428343
-4.01629734 3.640478849 0.2818826139
-3.982409716 3.611028671 0.466606468
-4.322554111 3.922203064 0.7115297914
-4.083901882 3.708252668 0.8670114279
-4.302724361 3.908319235 1.121638179
-4.300323009 3.908876896 1.331706882
-4.316550732 3.926381111 1.551931024
-2.538544178 2.318820953 -0.5378732681
-2.847344875 2.602717161 -0.4685223103
-3.600000381 3.296481371 -0.0845027566
-3.575297356 3.261262655 0.08376975358
-4.025691509 3.674673796 0.2834526896
-4.352316856 3.974209785 0.5119274855
-4.341076374 3.966727257 0.7168920636
-4.082594395 3.733150721 0.8695144057
-4.303541183 3.936565638 1.125454307
-4.295276642 3.931759834 1.334406376
-4.280026913 3.920546055 1.543648958
-2.322955132 2.133075237 -0.8334493637
-2.528980017 2.326331139 -0.5375604033
-2.90834713 2.677173138 -0.4802217782
-2.83773613 2.613090992 -0.3337811232
-3.582590818 3.303604841 -0.08436313272
-3.553583145 3.264253855 0.08352541924
-4.024604321 3.699516296 0.2842900753
-4.333046913 3.98723197 0.7178670168
-4.10150671 3.776817083 0.8763974905
-4.301327229 3.962204218 1.128507257
-4.310182571 3.973145485 1.343404412
-4.308914185 3.974759102 1.559178114
-2.230392933 2.062475681 -0.8023911119
-2.274608374 2.105572701 -0.5942420363
-2.517946243 2.332459688 -0.5369346738
-2.898983479 2.687309504 -0.4802217782
-2.828598022 2.622980118 -0.3337811232
-3.565176725 3.310647011 -0.08422351629
-3.546570778 3.280712128 0.08363013715
-4.023391247 3.724396229 0.2851274312
-3.812808752 3.530698538 0.4509184062
-4.332206726 4.014476299 0.7200606465
-4.108577728 3.809914827 0.8807777166
-4.310499191 3.998557329 1.134613156
-4.302000046 3.993469954 1.345203996
-4.297843456 3.992405176 1.560213327
-2.209042072 2.057083368 -0.7972147465
-2.295519114 2.139108419 -0.7144411802
-2.281605244 2.126886606 -0.5980582237
-2.518455744 2.349319458 -0.5388118625
-2.889585257 2.697412491 -0.4802217782
-3.533149719 3.303950787 -0.08373485506
-3.533633947 3.291709185 0.08359523118
-4.022053719 3.749312878 0.285964787
-3.791718483 3.535833836 0.4498725832
-4.331229687 4.041763306 0.7222543359
-4.115466595 3.843108177 0.8851578236
-4.315165997 4.031002045 1.139574289
-4.319354057 4.0377388 1.355101824
-4.312097073 4.033778191 1.570566058
-2.19339323 2.056852579 -0.7941089272
-2.208460331 2.072431803 -0.6892466545
-2.228362799 2.09183979 -0.5858464241
-2.513119459 2.360801458 -0.5394376516
-2.860372305 2.687948704 -0.476809442
-3.514894247 3.308794737 -0.08356032521
-3.526497602 3.308128357 0.08369994909
-4.003772736 3.757163048 0.285546124
-3.699471474 3.474034548 0.4402854443
-4.333006382 4.071812153 0.7249354124
-4.10701704 3.860793591 0.8860964775
-4.322517395 4.066218853 1.145298481
-4.325809002 4.070736885 1.361400485
-4.328231812 4.075868607 1.581436515
-2.172512531 2.050853729 -0.7889325023
-2.202992201 2.081082106 -0.6896964908
-2.209998608 2.088430166 -0.5827934742
-2.50240612 2.366407633 -0.5388118625
-2.871633291 2.716516256 -0.4802217782
-3.509708881 3.325934887 -0.08369994909
-3.509691954 3.31431222 0.08356032521
-3.992743492 3.77179122 0.2856507897
-4.002115726 3.783289433 0.4781110287
-4.339670658 4.10525465 0.7283477783
-4.11140871 3.890685081 0.8898509145
-4.313285828 4.084580898 1.146443367
-4.336336613 4.107842922 1.369048715
-4.300671577 4.076908112 1.57626009
-2.176902533 2.068692923 -0.7930736542
-2.186193705 2.078975677 -0.6865472198
-2.231509924 2.122810364 -0.590425849
-2.51171422 2.391037226 -0.5425662994
-2.862132549 2.726524591 -0.4802217782
-3.498077631 3.338165998 -0.08369994909
-3.49288559 3.320421219 0.08342070878
-3.729751587 3.549312592 0.446734935
-4.334658623 4.127837181 0.7298102379
-4.123543262 3.929542542 0.8954825401
-4.303982258 4.102923393 1.147588134
-4.337481022 4.137750626 1.373997688
-4.308773041 4.113237858 1.584542394
-2.19758296 2.102992296 -0.8034263849
-2.235222578 2.140507221 -0.7045433521
-2.224086285 2.130586863 -0.590425849
-2.611727953 2.503681183 -0.5663443804
-4.0126791 3.856094837 -0.09644020349
-3.482717514 3.333976984 0.0834556073
-3.720216513 3.56506753 0.4470835924
-4.337416172 4.159430981 0.7327350974
-4.122629166 3.956222296 0.8982983232
-4.32504034 4.151913643 1.157128692
-4.314579487 4.144766331 1.371298313
-4.291603088 4.125575542 1.583507061
-2.212485075 2.13209939 -0.8117086291
-2.227737188 2.148296356 -0.7045433521
-2.708141804 2.61430788 -0.5894966722
-4.010690212 3.881203175 -0.0967194438
-3.52432704 3.397463322 0.08474709094
-4.017711163 3.875795841 0.290361017
-4.342860699 4.193852425 0.7361474037
-4.114476681 3.976078749 0.8995497823
-4.337339401 4.192911148 1.164379358
-4.308489323 4.167930126 1.373997688
-4.307712555 4.170092106 1.594895124
-2.205029726 2.139808893 -0.8117086291
-2.290125608 2.223940611 -0.7270384431
-2.803813457 2.725637674 -0.6126489639
-2.833424568 2.756345987 -0.4802217782
-4.001414299 3.899366379 -0.09682415426
-3.535403252 3.432030916 0.08530557156
-3.829382896 3.720011711 0.2775910497
-3.798115015 3.690925598 0.459634006
-4.345272541 4.225593567 0.7390723228
-4.111896992 4.001439095 0.9020527601
-4.342371941 4.227198601 1.16972208
-4.316247463 4.204702377 1.381196141
-4.312497139 4.2039814 1.602141976
-2.16991353 2.12048912 -0.8013558388
-2.282347918 2.231921673 -0.7270384431
-2.814044237 2.754754305 -0.6170291305
-4.024888515 3.949725628 -0.09773167968
-3.529121637 3.449942589 0.08544518799
-3.980561733 3.893972635 0.2896283269
-4.356026173 4.265734673 0.7434595823
-4.123300076 4.040654659 0.9076843858
-4.338806152 4.253324032 1.172774911
-4.337713718 4.255224705 1.392893553
-4.303309441 4.224423409 1.604212523
-2.167634249 2.133848667 -0.8034263849
-2.274543762 2.239874363 -0.7270384431
-2.333580971 2.299617767 -0.6285876632
-2.812368155 2.77337122 -0.6189063191
-2.884771347 2.845764875 -0.4924087226
-4.001119614 3.953911781 -0.09748735279
-3.528458357 3.473462343 0.08572442085
-4.032395363 3.972318649 0.2944432199
-3.700662136 3.648073912 0.4509184062
-4.355243683 4.294852257 0.7458969355
-4.131667614 4.077222347 0.9126903415
-4.325980663 4.271958351 1.173538208
-4.340108871 4.288900852 1.398742318
-4.314640522 4.265224457 1.614047647
-2.173891783 2.155003071 -0.8086027503
-2.216513634 2.198788166 -0.7108419538
-2.269797802 2.2524333 -0.6133229136
-3.566580534 3.541766644 -0.7894199491
-2.848976851 2.831131458 -0.4880214036
-2.840370178 2.823565483 -0.3466801345
-2.840513468 2.825678587 -0.2077748924
-4.001467228 3.981960773 -0.09783639759
-3.527062178 3.497637033 0.08600366861
-4.034102917 4.001842022 0.2955946028
-3.747292995 3.719923258 0.4582394958
-4.347922802 4.319180965 0.747359395
-4.14543438 4.119468212 0.9189476967
-4.336101055 4.311950207 1.180407286
-4.327872753 4.306775093 1.39964211
-4.323001862 4.303427696 1.622847557
-2.185497046 2.181685925 -0.8158497214
-2.258851528 2.255698681 -0.7270384431
-3.599521399 3.598264694 -0.7994317412
-4.024065495 4.02546978 -0.6937369108
-3.558482647 3.562210321 -0.4367991984
-3.645441294 3.650534153 -0.2681705952
-3.996019363 4.004395962 -0.09804582596
-3.707915783 3.701449633 0.09075071663
-4.03282547 4.028604031 0.2965366542
-3.807557106 3.806227922 0.4673036933
-4.353227139 4.353226662 0.7507717013
-4.142199039 4.145091057 0.9214506149
-4.330103397 4.334639549 1.182697058
-4.338349819 4.345927238 1.407740355
-4.32296133 4.333536148 1.62854147
-2.202778578 2.213569641 -0.8251672387
-2.250963926 2.263569832 -0.7270384431
-2.271022558 2.284539223 -0.6179023385
-3.618958712 3.643040419 -0.8066277504
-4.023974419 4.053579807 -0.696174264
-3.553041935 3.581682205 -0.4376707375
-3.627051115 3.657564402 -0.2677519023
-3.994684696 4.031104088 -0.09835996479
-3.548302174 3.566930056 0.08712061495
-4.034227371 4.058238029 0.297688067
-3.793509722 3.817420244 0.4671294093
-4.833167553 4.867027283 0.8370552659
-4.136053562 4.167938709 0.9233278632
-4.348129272 4.383178711 1.191855907
-4.330012798 4.367964268 1.409989834
-4.309167862 4.349972248 1.629059196
-2.178359032 2.205135822 -0.8189555407
-2.243048191 2.271413803 -0.7270384431
-2.301246405 2.331974506 -0.6285876632
-3.724865437 3.777240753 -0.8335344791
-4.034885883 4.093047142 -0.700561583
-3.553102016 3.606837273 -0.4392395616
-3.605214357 3.662294149 -0.267123878
-3.994615078 4.059276581 -0.09870900959
-3.527398825 3.570758104 0.08691119403
-3.766899586 3.818532944 0.4655605853
-4.816149235 4.883869171 0.8370552659
-4.143663883 4.204862595 0.9283337593
-4.332035065 4.399085999 1.191855907
-4.316707611 4.386583328 1.410889626
-4.293957233 4.36498785 1.629059196
-2.184176922 2.2265172 -0.824131906
-2.251078844 2.296318531 -0.732437253
-2.293091774 2.339993954 -0.6285876632
-3.884420872 3.966638088 -0.8726431131
-4.044179916 4.131222725 -0.7047051191
-3.562783003 3.642004967 -0.4420285523
-3.582635164 3.664858818 -0.2663911581
-4.008374214 4.101798534 -0.09940710664
-3.536688328 3.606507301 0.08746965975
-4.065918922 4.147631168 0.3021889627
-3.7619133 3.840198517 0.466606468
-4.770443439 4.873117447 0.8321805
-4.137250423 4.227772236 0.9302110076
-4.330379486 4.428217411 1.195672035
-4.323933601 4.42317009 1.418088078
-4.31109333 4.413115978 1.641482472
-2.190264225 2.247583389 -0.8293082714
-2.285320044 2.347584724 -0.6285876632
-3.924964428 4.034718513 -0.8848450184
-4.040146351 4.15457201 -0.7064113021
-3.736748457 3.845265865 -0.4653863013
-3.833440781 3.947523832 -0.2861741483
-4.033750534 4.155243874 -0.100384444
-4.02564621 4.132442474 0.1000004932
-4.052142143 4.161091805 0.3021889627
-4.796857834 4.929273605 0.5980373621
-4.727963448 4.861869335 0.8275494576
-4.159007549 4.278295517 0.9383456111
-4.337558746 4.465084553 1.201777935
-4.309241772 4.437484741 1.418088078
-4.112119675 4.237454414 1.570566058
-2.198922873 2.271490812 -0.8355199695
-2.277110815 2.355548143 -0.6285876632
-3.899208546 4.034928322 -0.8820291758
-4.031134605 4.174362183 -0.7073862553
-3.816865683 3.958004236 -0.285964787
-4.026160717 4.176496983 -0.1005589664
-3.988279819 4.121340275 0.09940710664
-3.920965672 4.054608822 0.2933965027
-4.773561478 4.937991619 0.597165823
-4.689747334 4.854677677 0.8236495852
-4.160512447 4.309840202 0.9420999885
-4.349206924 4.508457661 1.20941031
-4.334308624 4.494581223 1.431585073
-4.171031952 4.328291416 1.599036217
-2.201291323 2.290678263 -0.8396610618
-2.259708405 2.353111029 -0.7432348728
-2.26846242 2.363878012 -0.6285876632
-3.854307652 4.017831802 -0.8751460314
-4.004818916 4.177644253 -0.7054363489
-3.78769803 3.953915596 -0.4753220379
-3.794045687 3.963312387 -0.2853367925
-3.983174562 4.162331104 -0.09986086935
-3.968992472 4.131603241 0.09930240363
-3.675093412 3.828336239 0.2759163082
-3.891851425 4.055549622 0.4880467653
-4.656808853 4.856073856 0.8209685087
-4.163821697 4.345028877 0.946480155
-4.528186798 4.728551388 1.264363289
-4.393269062 4.589269638 1.456779599
-4.390173435 4.58923912 1.690140486
-2.219549894 2.326687813 -0.8500138521
-2.269893408 2.381124735 -0.7495334744
-2.260197163 2.371782064 -0.6285876632
-3.680172443 3.864561081 -0.8385403752
-3.980630636 4.181533813 -0.7037302256
-3.746408224 3.938241959 -0.4718358219
-3.769180059 3.964950323 -0.2844994068
-3.965866089 4.17331028 -0.09979106486
-3.933122158 4.124415398 0.09877882153
-3.984184027 4.179420471 0.3004095256
-3.85909605 4.05103302 0.4857807159
-4.638978958 4.873109341 0.8209685087
-4.167695045 4.37956953 0.9508603215
-4.506240368 4.738639355 1.262836814
-4.530287266 4.765589237 1.508068562
-4.496535301 4.733394146 1.737763286
-2.174615383 2.294772625 -0.8355199695
-2.252319574 2.379264116 -0.6285876632
-3.683626652 3.893963814 -0.8422947526
-3.96401453 4.19182682 -0.7032427192
-3.731959343 3.9491961 -0.4716615081
-3.739555836 3.960002422 -0.2832433581
-3.947886705 4.182076931 -0.0996863544
-3.897420645 4.114206791 0.09822034836
-3.997768879 4.221614361 0.3025029898
-4.681006432 4.946564674 0.5921107531
-4.636433125 4.902889252 0.8234058619
-4.17214632 4.413463116 0.9552404881
-4.537689686 4.803506374 1.2761935
-4.557273865 4.825924873 1.522465467
-4.517939568 4.78761816 1.752256989
-2.084895372 2.214759588 -0.8034263849
-3.530178308 3.754002571 -0.9934144616
-3.697748423 3.934948206 -0.8485521674
-3.926986456 4.180352688 -0.6990991235
-3.710660696 3.952834129 -0.4706156254
-3.714103937 3.959272623 -0.2823013067
-3.921685934 4.182017326 -0.09937220812
-3.896089792 4.14021492 0.09853449464
-3.993326902 4.245031357 0.3032356799
-3.536016226 3.761523962 0.4479551315
-4.607916355 4.905216217 0.8212122321
-4.181829453 4.453193665 0.9608721733
-4.576816082 4.877223492 1.291839838
-4.561243057 4.86233139 1.529213905
-4.527141571 4.829353333 1.762092233
-2.076219559 2.22025013 -0.8029087186
-3.49894762 3.745603561 -0.9880717993
-3.899558544 4.178839207 -0.6966617703
-3.694814205 3.962203264 -0.4702669978
-3.694147825 3.964259386 -0.2817779183
-3.891439199 4.177440643 -0.09895334393
-3.771726847 4.034786224 0.09570720047
-3.780133486 4.045196056 0.2879535556
-3.546640158 3.7979846 0.4509184062
-4.588915825 4.917566776 0.8207247853
-4.180513859 4.481481552 0.9640008211
-4.560617447 4.892374516 1.291839838
-4.537125111 4.868874073 1.52651453
-4.521633625 4.855649471 1.766233206
-2.040084124 2.198468208 -0.7920383811
-2.565460682 2.766567707 -0.8611092567
-3.492547989 3.767649889 -0.9903615117
-3.768834114 4.068545818 -0.8717044592
-3.874662161 4.185717583 -0.6951993108
-3.664688349 3.960275173 -0.468349576
-3.670762539 3.969615936 -0.281149894
-3.861796618 4.177668095 -0.09860429913
-3.753486872 4.04630661 0.09563739598
-4.0117383 4.326219559 0.3070038855
-4.593741417 4.957314491 0.5875786543
-4.557861328 4.92204237 0.818531096
-4.182061672 4.517795086 0.9683809876
-4.541798115 4.909850121 1.291839838
-4.502991199 4.87130785 1.521565557
-4.488533974 4.857368469 1.760539293
-2.029779911 2.202734232 -0.7910030484
-2.556272268 2.775059938 -0.8611092567
-3.474057198 3.774039507 -0.9888350964
-3.85538578 4.192698479 -0.6942243576
-3.633316755 3.953971386 -0.4660835266
-3.646769762 3.970000029 -0.2803125083
-3.837724447 4.180810452 -0.09835996479
-3.764439821 4.08520174 0.09626568109
-4.010140419 4.35488987 0.3080506027
-4.548077106 4.942531109 0.5839180946
-4.529418468 4.923980713 0.8163374662
-4.187655449 4.555634499 0.9733868837
-4.501580715 4.898863316 1.28497076
-4.484176159 4.88334322 1.520665884
-4.459795952 4.86019659 1.755880475
-2.022464037 2.209453106 -0.7910030484
-2.546569824 2.783966064 -0.8611092567
-3.491994381 3.818862915 -0.9976122975
-3.738387585 4.091188431 -0.8710787296
-3.838049889 4.203199387 -0.6937369108
-3.612125635 3.957169533 -0.4650376439
-3.620775461 3.96942544 -0.2793704569
-3.820413351 4.191226006 -0.0982901603
-3.736656904 4.083564281 0.09591662884
-4.017827988 4.393917561 0.3098300099
-3.66193676 4.006116867 0.4711385667
-4.488105774 4.913378716 0.8119502068
-4.206352234 4.608158588 0.9815214872
-4.473866463 4.902945042 1.281917691
-4.455286026 4.886006355 1.516616702
-4.420684814 4.851458073 1.747080684
-2.014739275 2.216499329 -0.7910030484
-2.536836386 2.792838335 -0.8611092567
-3.518235683 3.874633312 -1.00906086
-3.72143054 4.101286888 -0.8704530001
-3.80735302 4.198924065 -0.6908119917
-3.594275951 3.965325356 -0.4645147026
-3.596170187 3.97019887 -0.2785331011
-3.805761099 4.204535484 -0.0982901603
-3.722379923 4.09658289 0.09591662884
-4.018577099 4.42565918 0.3110860586
-3.658643007 4.030676842 0.4725330472
-4.417579651 4.870202065 0.8022006154
-4.219426632 4.655012608 0.988404572
-4.413223743 4.870521069 1.269324303
-4.391114712 4.849524975 1.500420213
-4.379094601 4.839643955 1.73724556
-2.005695343 2.222084761 -0.7904854417
-2.540124416 2.816147327 -0.8656082749
-3.525724173 3.910219669 -1.015166759
-3.683290005 4.087836266 -0.8648213148
-3.776732445 4.194487095 -0.6878871918
-3.582384586 3.981433868 -0.4648633599
-3.570268631 3.969363213 -0.2775910497
-3.769672632 4.193998814 -0.09773167968
-3.710736752 4.112521172 0.09598644078
-4.02316618 4.461909771 0.3126561344
-3.627209663 4.02418375 0.4702669978
-4.423137665 4.910666943 0.8063442111
-4.282444477 4.757805347 1.007176757
-4.402761459 4.893193722 1.271232486
-4.381978989 4.873517036 1.503119588
-4.367339134 4.860648155 1.739315987
-1.991091967 2.222227097 -0.7878972888
-2.543280125 2.839513063 -0.8701072931
-3.541483402 3.956761599 -1.02394402
-3.578731775 4.001189232 -0.8435462713
-3.759422779 4.204684734 -0.6873996854
-3.568463802 3.993915558 -0.4648633599
-3.583631516 4.013708115 -0.2797891796
-3.736367226 4.186246395 -0.09724301845
-3.704364777 4.134384632 0.0961958617
-4.058194637 4.532468796 0.3166337013
-4.441426277 4.963976383 0.5790373683
-4.395380974 4.914241314 0.8043942451
-4.321099758 4.834583282 1.020317197
-4.384797096 4.90929842 1.271232486
-4.364086151 4.889546394 1.503119588
-4.34262991 4.867213726 1.736210346
-1.979470253 2.224833965 -0.7863443494
-2.532855749 2.848815441 -0.8701072931
-3.56938529 4.016057491 -1.036155701
-3.576549768 4.026948452 -0.8463620543
-3.739450693 4.211843967 -0.6864247322
-3.567724705 4.021250248 -0.466606468
-3.585497856 4.044127464 -0.2810452282
-3.577160358 4.036140442 -0.09343838692
-3.689187527 4.147933483 0.0961958617
-4.068888664 4.576459885 0.3187271357
-4.414810181 4.969022751 0.5778172016
-4.393156528 4.948130608 0.8073191047
-4.346158028 4.896913528 1.030328989
-4.359817028 4.915760994 1.268942714
-4.341383457 4.896700382 1.500870109
-4.317926884 4.873666763 1.733104467
-1.978478193 2.238623619 -0.7889325023
-2.562095404 2.901018143 -0.8836043477
-3.597626925 4.074968338 -1.0483675
-3.591927052 4.07137537 -0.8532451987
-3.722836971 4.221243382 -0.6859372258
-3.575446844 4.056975365 -0.4693954587
-3.579988241 4.064987659 -0.2816732526
-3.569042444 4.053985119 -0.0935780108
-3.672764063 4.157146931 0.09612605721
-4.081455708 4.621364117 0.3209252357
-4.381168365 4.964215755 0.5755511522
-4.366219044 4.950760841 0.8053691983
-4.336426258 4.918709278 1.031893373
-4.334406853 4.91988039 1.266271472
-4.314818859 4.89936924 1.497270942
-4.283873558 4.867656231 1.725857496
-1.968494534 2.242268801 -0.7878972888
-3.642268181 4.151747227 -1.265121341
-3.630694866 4.140014172 -1.062105775
-3.622672558 4.133774281 -0.8638827205
-3.689769745 4.21330595 -0.6825249195
-3.584881306 4.096419334 -0.4725330472
-3.584898949 4.097882271 -0.2831386626
-3.570662737 4.084484577 -0.09399686009
-3.658958197 4.169303894 0.09612605721
-4.082417488 4.655105114 0.3222859502
-4.342354774 4.953248024 0.5725879073
-4.322308064 4.933856964 0.8002507091
-4.257300854 4.864788532 1.248335361
-4.242527962 4.851323128 1.477925062
-4.228718758 4.838939667 1.710328341
-1.962801814 2.252380848 -0.7889325023
-3.630312443 4.167375088 -1.266021132
-3.642567158 4.184389114 -1.070119739
-3.648983955 4.194717884 -0.8738945723
-3.660712719 4.209681988 -0.6798437834
-3.594084024 4.135978699 -0.4756706655
-3.58295083 4.126074314 -0.2841853797
-3.566870213 4.109004498 -0.09427610785
-3.644382238 4.182050705 0.09612605721
-4.081882954 4.687401772 0.3235420287
-4.313705921 4.957107067 0.5711933374
-4.277699471 4.917462349 0.7951322198
-4.241070747 4.878793716 1.017188549
-4.243305683 4.884804726 1.249480128
-4.21705389 4.858010292 1.475225687
-4.209270954 4.850752354 1.709293127
-1.946078897 2.248992682 -0.7853090763
-3.608641624 4.173282146 -1.263771653
-3.617667437 4.1851964 -1.067066789
-3.626572132 4.198459148 -0.872017324
-3.641366243 4.218564034 -0.6791125536
-3.592640638 4.163583279 -0.4774137735
-3.598524094 4.173346043 -0.2865928411
-3.553810835 4.122944832 -0.09431100637
-3.636878014 4.204455376 0.09633549303
-4.154329777 4.804353237 0.3306597173
-4.29898119 4.975150108 0.5715420246
-4.275215149 4.95113802 0.7980570197
-4.23304987 4.904036045 1.019378543
-4.263414383 4.942700386 1.260547161
-4.233150482 4.911079407 1.486923099
-4.208705425 4.884442329 1.716022372
-1.93443954 2.25137639 -0.7837561369
-3.585894585 4.17487812 -1.260622382
-3.597922087 4.191840649 -1.065540314
-3.602339268 4.198469162 -0.8695144057
-3.624773502 4.227600574 -0.6786250472
-3.609198093 4.212409496 -0.4815972447
-3.611949921 4.217110634 -0.288790971
-3.568002939 4.168748856 -0.09507891536
-3.620310307 4.213458538 0.09626568109
-4.163555622 4.849132061 0.3327531517
-4.273805618 4.981052399 0.5704961419
-4.269113064 4.977341175 0.8000069857
-4.235189915 4.941278934 1.024071693
-4.239337444 4.947865009 1.258257389
-4.216842651 4.925089359 1.486923099
-4.185350895 4.891763687 1.7134341
-1.930725932 2.262187004 -0.7853090763
-3.562448502 4.176990032 -1.257473111
-3.580181122 4.19926548 -1.064395547
-3.57997632 4.201995373 -0.8676371574
-3.602272272 4.231160164 -0.6771626472
-3.59059763 4.220430851 -0.4810743034
-3.599793673 4.232736588 -0.2890002728
-3.596164703 4.231461048 -0.09623077512
-3.599089861 4.218464851 0.09609115869
-4.167337418 4.887952805 0.3344278932
-4.258554935 4.996715069 0.5706704259
-4.229830742 4.966522217 0.7958634496
-4.217916489 4.956031799 1.024071693
-4.204228401 4.941699982 1.252914786
-4.205936909 4.947200775 1.489172578
-4.16699791 4.904872417 1.712916493
-1.922421098 2.269248724 -0.7853090763
-2.251935482 2.659152031 -0.794523716
-2.263546228 2.674754858 -0.6728553176
-3.56837678 4.219614029 -0.8685758114
-3.597734451 4.25583601 -0.6791125536
-3.597702265 4.258811951 -0.4840376079
-3.604870558 4.270320415 -0.2906750441
-3.590400457 4.254685402 -0.09647510946
-3.5856359 4.232527256 0.09612605721
-4.170896053 4.926860809 0.3361026645
-4.241500378 5.013810158 0.5708447695
-4.202215195 4.969129562 0.7939134836
-4.206965446 4.978270054 1.025636077
-4.200022221 4.973574638 1.257112503
-4.173950672 4.946202278 1.484223723
-4.159817219 4.931199551 1.717057586
-1.916975856 2.278901339 -0.7863443494
-2.219604015 2.640536308 -0.7864254713
-2.235251427 2.660093546 -0.6671310663
-4.187021255 4.989899158 1.025010228
-4.21795702 5.030326843 1.267797828
-4.176683903 4.984642029 1.491422176
-4.173592091 4.982713699 1.729998589
-1.900339842 2.275200844 -0.7827208638
-2.209585905 2.6463871 -0.7859756351
-2.222178459 2.663358212 -0.6659861803
-4.208776474 5.051529884 1.034709215
-4.217585087 5.063898563 1.272758961
-4.186310768 5.029918671 1.500870109
-4.162349224 5.00467968 1.732586861
-1.891551614 2.280002832 -0.7822031975
-2.194116592 2.646582365 -0.7837260962
-2.204565525 2.660130739 -0.6633148789
-2.297546625 2.774296522 -0.5638414025
-3.22459197 3.895091057 0.6157405376
-4.194896221 5.070755959 1.03564775
-4.202386379 5.081614971 1.273522139
-4.176177502 5.05351305 1.503569484
-4.144853115 5.019179821 1.732586861
-1.884409666 2.288412333 -0.7827208638
-2.177433252 2.645198345 -0.7810266614
-2.191058636 2.663645029 -0.6621699929
-2.279835939 2.773543596 -0.5619641542
-3.190128565 3.882344246 -0.6118406653
-3.2066257 3.905199289 -0.4383679926
-4.170900345 5.077737331 1.034083486
-4.171275616 5.081809521 1.269705892
-4.162569046 5.074813366 1.505369067
-4.138332367 5.047061443 1.73724556
-1.883747339 2.303949118 -0.785826683
-2.168956995 2.654669762 -0.7814766169
-2.186715364 2.677358627 -0.6636965275
-2.277635336 2.79066658 -0.5638414025
-3.158313751 3.872473717 -0.608428359
-4.1456604 5.083079815 1.032206297
-4.157233238 5.100903511 1.270850778
-4.1276021 5.068157673 1.499070525
-4.113372803 5.052485943 1.734139681
-1.870823741 2.304510832 -0.7837561369
-2.144177675 2.642177105 -0.7756278515
-2.166227579 2.67125082 -0.660261929
-2.26339221 2.792066574 -0.5625899434
-3.112966061 3.842821836 -0.6020911336
-3.146894693 3.881934166 0.4334872663
-4.117945194 5.08523941 1.029703379
-4.130412102 5.102455139 1.267797828
-4.096064568 5.06363678 1.493671656
-4.085994244 5.054795265 1.729998589
-1.861958265 2.309198618 -0.7832384706
-2.133719206 2.648127556 -0.7751779556
-2.149967909 2.669246674 -0.6579722166
-3.099533796 3.85366416 -0.6020911336
-4.081604004 5.076489925 1.025010228
-4.110116959 5.113780022 1.26703465
-4.071043491 5.068787575 1.490972281
-4.053815365 5.050947189 1.72378695
-1.847849965 2.308143139 -0.7806503177
-2.123244524 2.654038191 -0.7747280002
-2.134506941 2.669068575 -0.6560641527
-2.280841112 2.854094744 -0.571976006
-3.086062193 3.864460707 -0.6020911336
-3.059971809 3.826304913 0.2545632124
-4.061392307 5.087619781 1.024384499
-4.082446098 5.115818977 1.2639817
-4.046033859 5.073826313 1.488272905
-4.024119377 5.049960136 1.718610525
-1.837377071 2.311555386 -0.7796150446
-2.105483532 2.650751829 -0.7715787292
-2.123955727 2.674966097 -0.6556825042
-3.072554588 3.875208855 -0.6020911336
-4.039928913 5.097120285 1.023445845
-4.045055389 5.105418682 1.2578758
-4.021041393 5.078751087 1.485573411
-3.995680571 5.050340176 1.713951826
-1.835280418 2.325537682 -0.7822031975
-2.086564779 2.645843267 -0.7679795027
-2.113389015 2.680822611 -0.6553009152
-3.05900979 3.885910034 -0.6020911336
-3.033182859 3.847575903 0.2545632124
-4.016005039 5.103428841 1.02188158
-4.024780273 5.116422176 1.257112503
-3.998470306 5.086628914 1.483773828
-3.978028059 5.064255714 1.713951826
-1.826368213 2.330089331 -0.7816855311
-2.080181837 2.655817032 -0.768879354
-2.099647045 2.681632519 -0.6537744403
-3.046105862 3.896033525 -0.6020911336
-3.020407915 3.85761261 0.2545632124
-3.99905777 5.116719246 1.02188158
-3.995705605 5.114269257 1.253296375
-3.969589233 5.084499359 1.479274869
-3.954081059 5.068281651 1.710846066
-1.814256787 2.332193613 -0.7801327109
-2.066113949 2.656908274 -0.767079711
-2.074144125 2.66915679 -0.6488133669
-3.032488346 3.90664196 -0.6020911336
-3.961798191 5.105676651 1.016875625
-3.972123146 5.122673035 1.2517699
-3.943766356 5.089770794 1.476575375
-3.920988083 5.062197685 1.704116702
-1.804923415 2.336983919 -0.7796150446
-2.061123848 2.670634508 -0.768879354
-2.066013098 2.6779356 -0.6491950154
-3.018148422 3.917731047 -0.6020911336
-3.93823576 5.113903522 1.015624166
-3.937449694 5.114728928 1.246427298
-3.91646862 5.091149807 1.472976089
-3.890632629 5.061219215 1.698940396
-1.796755314 2.343269587 -0.7796150446
-2.030455351 2.649968863 -0.7607811093
-2.051878214 2.678896189 -0.6476685405
-2.90732336 3.798496246 -0.750936985
-3.047870159 3.985005617 -0.6108657718
-2.979168177 3.889549732 0.2545632124
-3.915562868 5.121341705 1.014372706
-3.910035372 5.115962505 1.243374228
-3.896308899 5.1016922 1.472076416
-3.865910769 5.065554619 1.695834517
-1.782713413 2.341841936 -0.7770268321
-2.024732828 2.661692619 -0.7621307373
-2.043702126 2.687605619 -0.648050189
-3.02193594 3.979811668 -0.608428359
-3.889000177 5.121713161 1.011869788
-3.889779091 5.126452923 1.242611051
-3.866701603 5.099734306 1.467577338
-3.851424456 5.08142662 1.69686985
-2.01002121 2.660618305 -0.759881258
-2.022480249 2.679053783 -0.6442340016
-2.881400585 3.818197727 -0.750936985
-3.020674706 4.00565958 -0.6108657718
-3.863965034 5.125792027 1.00999248
-3.865669966 5.129915714 1.240321398
-3.838047743 5.096960068 1.46307838
-3.822049141 5.079402447 1.691693425
-1.724984169 2.298299551 -0.7583918571
-1.994875908 2.659823179 -0.7576317191
-2.010051012 2.68103385 -0.6430891156
-2.86805582 3.82823205 -0.750936985
-3.02333045 4.038426399 -0.6142780781
-3.834214211 5.123431683 1.006863832
-3.845386028 5.14023447 1.239558101
-3.815563917 5.104084015 1.461278677
-3.797359228 5.083425999 1.688587546
-1.712334514 2.298110008 -0.7563213706
-1.986742496 2.668334007 -0.7580816746
-1.9995085 2.686458349 -0.6427074671
-2.800445795 3.765308619 -0.7365450263
-2.983163118 4.013904572 -0.6089158058
-2.894626617 3.896196365 -0.4209368527
-3.809237242 5.127271652 1.004986644
-3.816885948 5.13944006 1.236123562
-3.793079853 5.111111641 1.459479094
-3.764631033 5.076478958 1.681858301
-1.706600428 2.307179213 -0.7573565841
-1.969308376 2.66428256 -0.754932344
-2.036787033 2.756581068 -0.6579722166
-3.781937599 5.127818108 1.002483726
-3.790768862 5.141670227 1.23345232
-3.770593405 5.1180439 1.45767951
-3.740014315 5.080255508 1.678752422
-1.697392464 2.311565638 -0.7568389177
-1.950772643 2.65857172 -0.7513331175
-2.104949713 2.869738817 -0.6835406423
-3.759346247 5.134614468 1.001232266
-3.770477295 5.151703358 1.232689023
-3.741199732 5.115446568 1.453180432
-3.717700005 5.087039948 1.676681876
-1.698417306 2.329964876 -0.7609800696
-1.946070671 2.671665192 -0.7531327009
-2.128433704 2.923094511 -0.6946075559
-2.707401276 3.720951319 -0.7221530676
-3.728626013 5.13012743 0.997790575
-3.747854233 5.158481598 1.231162548
-3.711872816 5.112704277 1.448681474
-3.696518183 5.095293999 1.675128937
-1.675550699 2.315533876 -0.7542507648
-1.936733484 2.678441525 -0.7531327009
-2.141218185 2.962329149 -0.7022399306
-2.703650475 3.743189573 -0.7246560454
-2.70377183 3.746115685 -0.5621179938
-2.711714506 3.758498669 -0.4017626047
-2.721575499 3.774946451 -0.2416886091
-2.684942722 3.726876497 -0.07947646827
-2.693331957 3.727536917 0.3986249864
-2.726504326 3.776222944 0.5667490363
-3.703762054 5.133499146 0.9959135056
-3.716045141 5.152423859 1.226583123
-3.691723585 5.122468472 1.447781563
-3.677578926 5.106599808 1.67461133
-1.665204287 2.318230152 -0.7532154918
-1.917144299 2.670938253 -0.7490836382
-2.142310619 2.98573637 -0.7060560584
-2.764232874 3.855349064 -0.7446796298
-2.995898485 4.181540966 -0.6264650226
-2.679085732 3.731089115 0.07947646827
-2.68221879 3.736828804 0.2388624698
-2.67333746 3.727201223 0.3975791037
-2.653173447 3.701816082 0.554074645
-3.683265448 5.140936852 0.9949748516
-3.688895226 5.152592182 1.223530173
-3.667017937 5.125813484 1.445082188
-3.64714098 5.099909782 1.668399692
-1.667196393 2.338184595 -0.7578741908
-1.910539389 2.680454254 -0.7499834299
-2.12732029 2.98679924 -0.7045296431
-2.820176125 3.961045265 -0.7634518147
-3.021143198 4.246447563 -0.6347521544
-2.916294813 4.102109909 -0.4366248548
-3.341408968 4.701819897 -0.3000955284
-3.240736246 4.563532352 -0.09699867666
-3.329765797 4.673335075 0.2985254526
-3.321298599 4.664890766 0.4972852767
-3.391370773 4.76507473 0.7129922509
-3.660717249 5.147324562 0.9937233925
-3.661549091 5.150397301 1.220095634
-3.647741556 5.13476944 1.444182396
-3.620369196 5.100007534 1.66425848
-1.66613102 2.353160858 -0.7609800696
-1.889915228 2.671199083 -0.7454844117
-2.11740303 2.993837833 -0.7045296431
-2.806331396 3.970866203 -0.7634518147
-2.999429703 4.247238636 -0.6332896948
-2.911149025 4.125286579 -0.4380193949
-3.336490154 4.729774952 -0.3011422455
-3.102663279 4.401565552 -0.09329877049
-3.316742897 4.686137199 0.09951182455
-3.322659492 4.697973728 0.2993628085
-3.324212551 4.701909542 0.5000742674
-3.640450001 5.156843185 0.9930976629
-3.639021873 5.156729698 1.21856916
-3.618566513 5.13154459 1.439683437
-3.59809494 5.106297016 1.662188053
-1.756334424 2.499937296 -0.8070498109
-1.880579948 2.677779675 -0.7454844117
-2.101905584 2.995149851 -0.7030031085
-2.775880814 3.958481312 -0.7590715885
-2.982305765 4.254432678 -0.6328021884
-2.91502142 4.161532879 -0.4408083558
-3.335164785 4.76488018 -0.3026076555
-3.293468714 4.687868595 0.09930240363
-3.377391577 4.810891628 0.3058524728
-3.385908365 4.82660532 0.5121017694
-3.606555223 5.146871567 0.9887174964
-3.615591049 5.163600445 1.217042685
-3.590797424 5.131998539 1.436084151
-3.575818062 5.112493992 1.660117507
-1.8492589 2.651836634 -0.8546725512
-1.862953186 2.673462868 -0.7423350811
-2.082459927 2.989581823 -0.6999502182
-2.753017426 3.955177546 -0.7565686703
-2.971227407 4.271852493 -0.6337771416
-2.882277966 4.145510197 -0.4380193949
