# .PCD v0.7 - Point Cloud Data file format
VERSION 0.7
FIELDS x y z
SIZE 4 4 4
TYPE F F F
COUNT 1 1 1
WIDTH 1210
HEIGHT 1
VIEWPOINT 0 0 0 1 0 0 0
POINTS 1210
DATA ascii
-0.5364642143 1.887021899 0.5140666962
-0.5373145938 1.898829103 -0.5171725154
-0.5422013402 1.918654323 -0.4503486156
-0.5345199704 1.892735004 -0.3740484715
-0.5396947861 1.913612723 -0.3082274199
-0.5351071358 1.899884224 -0.2372142822
-0.5323413014 1.891328812 -0.1681852043
-0.5367074013 1.90939641 -0.1017422378
-0.5328838825 1.898336887 -0.03371625394
-0.521291256 1.843431711 0.0327389203
-0.521669805 1.84723258 0.09839273244
-0.5336614251 1.890956759 0.1681852043
-0.5370541811 1.905522704 0.2379455119
-0.5295944214 1.881569505 0.302908659
-0.5325377584 1.893293738 0.3740484715
-0.5360249877 1.908246756 0.4476491809
-0.5267436504 1.877722502 0.5109608173
-0.5306835771 1.900693059 -0.5171725154
-0.533406496 1.91302669 -0.4485489726
-0.5300180912 1.902153969 -0.3755749166
-0.5298339128 1.904066563 -0.3063502014
-0.5316604972 1.913216233 -0.2386767119
-0.5284011364 1.902774453 -0.1690567583
-0.528437376 1.905484557 -0.1014282256
-0.5283895135 1.907894015 -0.03385587409
-0.5148536563 1.845239997 0.0327389203
-0.5157551169 1.850966334 0.0984974131
-0.5286612511 1.898566008 0.1687081307
-0.5261452198 1.892085552 0.2359955907
-0.5246084332 1.889116883 0.3038472533
-0.5238261223 1.887573957 0.3725219965
-0.5298806429 1.911984444 0.4480991066
-0.5217313766 1.885135531 0.5125137568
-0.5250711441 1.906258941 -0.5182077885
-0.523624897 1.903603315 -0.4458495975
-0.5244153738 1.907778859 -0.3763381839
-0.5263221264 1.917333841 -0.3082274199
-0.5216374397 1.901568055 -0.2369705439
-0.5228092074 1.908450246 -0.169405371
-0.5202021003 1.901538014 -0.101114206
-0.5231138468 1.913493514 -0.03392568231
-0.5100010633 1.852810025 0.03284363076
-0.5074948668 1.84496367 0.09807872027
-0.5230858326 1.904242516 0.1690567583
-0.518486619 1.890082002 0.2355081141
-0.5199081898 1.896561503 0.3047858775
-0.5177519321 1.891284585 0.3729035854
-0.5214807987 1.906212091 0.4462994635
-0.5190412998 1.89989996 0.5161372423
-0.5197609663 1.911717772 -0.5192430615
-0.5183310509 1.909090519 -0.4467493892
-0.5150019526 1.898138762 -0.3740484715
-0.518411696 1.913348556 -0.3072888255
-0.5148103833 1.90137136 -0.2367268056
-0.5185582042 1.917866707 -0.1701026261
-0.5154549479 1.909037471 -0.1014282256
-0.5120776296 1.897841811 -0.03361153975
-0.5043787956 1.856420755 0.03287853673
-0.5008509755 1.8447088 0.09797404706
-0.5178104639 1.90981257 0.169405371
-0.5132539868 1.895623088 0.2359955907
-0.5115517974 1.890648007 0.3035343885
-0.5130140185 1.898676991 0.3740484715
-0.5095684528 1.887236238 0.4413505793
-0.5097209811 1.890419364 0.5130314231
-0.5124167204 1.90969944 -0.5182077885
-0.5135100484 1.91644609 -0.4480991066
-0.5068501234 1.894235253 -0.3729035854
-0.5135942101 1.920782447 -0.3082274199
-0.508169651 1.903156877 -0.2367268056
-0.5082666874 1.906189322 -0.1688824445
-0.5093022585 1.912754893 -0.1015328914
-0.505449295 1.899617791 -0.03361153975
-0.5008097291 1.867740273 0.03305306286
-0.4944081903 1.846445918 0.09797404706
-0.5099298954 1.905745149 0.1688824445
-0.5100391507 1.908821702 0.2374580353
-0.501893878 1.880970478 0.3016571999
-0.5073937178 1.904250264 0.3748116791
-0.5069893003 1.904068112 0.4449497461
-0.5021256804 1.888453126 0.5119960904
-0.5034391284 1.904093742 -0.5161372423
-0.5074777603 1.922083497 -0.4489988983
-0.5044090748 1.913165808 -0.3763381839
-0.5050413609 1.916921139 -0.3072888255
-0.502201438 1.908846021 -0.2372142822
-0.5007708669 1.906112313 -0.1687081307
-0.5012750626 1.910744786 -0.101323545
-0.4994980693 1.905326247 -0.03368134797
-0.4898737669 1.854096651 0.03277382255
-0.4896757901 1.855970263 0.09839273244
-0.4998942912 1.896041751 0.1678365767
-0.5030399561 1.910678148 0.2374580353
-0.4975082576 1.892349601 0.3032215238
-0.4994142652 1.902299404 0.3740484715
-0.5009966493 1.909683585 0.4458495975
-0.49520123 1.890280724 0.5119960904
-0.4974303246 1.909665465 -0.5171725154
-0.4989574254 1.918272614 -0.4476491809
-0.4967394471 1.911114573 -0.3755749166
-0.4970191419 1.91493535 -0.306663096
-0.4986875653 1.924125314 -0.2389204651
-0.4951128364 1.911706448 -0.1690567583
-0.4951018095 1.91441679 -0.1014282256
-0.4948450923 1.914802551 -0.03382096812
-0.4815640748 1.850073814 0.03266910836
-0.483193785 1.857668281 0.09839273244
-0.4944446385 1.903646469 0.1683595181
-0.4940396249 1.904823065 0.2364830822
-0.491890341 1.897899032 0.3038472533
-0.4908029139 1.896428704 0.3725219965
-0.4949686229 1.915280581 0.4467493892
-0.4900485277 1.897609353 0.5135490298
-0.4917225838 1.915132284 -0.5182077885
-0.4916252494 1.916141391 -0.4467493892
-0.490553081 1.914738774 -0.3759565353
-0.4911565781 1.918486714 -0.3069759607
-0.4878796041 1.908459187 -0.2367268056
-0.4879443049 1.911492348 -0.1688824445
-0.487270087 1.910242081 -0.101114206
-0.4881585836 1.916518092 -0.03382096812
-0.4764204919 1.855534554 0.0327389203
-0.4747226834 1.851604819 0.09797404706
-0.4902668893 1.915011644 0.1692310721
-0.486736685 1.902604461 0.2359955907
-0.4857517481 1.901518345 0.3041601181
-0.4845117927 1.898045778 0.3725219965
-0.4857269228 1.905580997 0.4440499544
-0.4834220707 1.899308324 0.5135490298
-0.4863179028 1.920497656 -0.5192430615
-0.4844554365 1.915956616 -0.4462994635
-0.4817965627 1.906837583 -0.3740484715
-0.4854227602 1.92402041 -0.3076016903
-0.4787896872 1.900525928 -0.2355081141
-0.4840342999 1.922760606 -0.1697540134
-0.4820592999 1.917742491 -0.1014282256
-0.4795188606 1.910452366 -0.03368134797
-0.4723936617 1.866879225 0.0329134427
-0.4662998021 1.845504999 0.09755536169
-0.4844009578 1.918558717 0.169405371
-0.4820339084 1.911991239 0.2369705439
-0.4771817923 1.89553988 0.302908659
-0.4807574451 1.911148906 0.3748116791
-0.4781222641 1.90348506 0.4431501627
-0.4777287841 1.904732108 0.5145843625
-0.478675276 1.918434978 -0.5182077885
-0.4810637236 1.93087244 -0.4494488239
-0.4741884768 1.904697776 -0.373285234
-0.4801337719 1.931454062 -0.3085403144
-0.4745441377 1.911818624 -0.2367268056
-0.4739625752 1.910901785 -0.1685338169
-0.4744023085 1.915536046 -0.1012188792
-0.4714065492 1.906291008 -0.03357663378
-0.46635741 1.870457172 0.03294834867
-0.460819453 1.850997806 0.09776470065
-0.4733724594 1.90283668 0.1678365767
-0.4743992388 1.909809232 0.2364830822
-0.4700870812 1.895276785 0.3025957942
-0.4740828574 1.912815571 0.3748116791
-0.4724107087 1.908925772 0.4440499544
-0.4692237675 1.898886085 0.5125137568
-0.4682861567 1.905086279 -0.5140666962
-0.4743202329 1.932540059 -0.4494488239
-0.4703421891 1.91778183 -0.3755749166
-0.4710399508 1.923524737 -0.3069759607
-0.4683396816 1.915391564 -0.2369705439
-0.4672898054 1.912544489 -0.1685338169
-0.4691325426 1.923001528 -0.1015328914
-0.4669772983 1.915614843 -0.03371625394
-0.4579178393 1.864305615 0.03280872852
-0.4570595324 1.862214088 0.09828805923
-0.4662536085 1.902542233 0.1676622629
-0.4686730504 1.915310025 0.2369705439
-0.4642690718 1.898743868 0.302908659
-0.4664712548 1.910644412 0.3740484715
-0.467130363 1.916242838 0.4453996718
-0.4610949159 1.892923951 0.5104432106
-0.4652713239 1.921729803 -0.5182077885
-0.4656174183 1.924631953 -0.4471993148
-0.4636463821 1.919411659 -0.3755749166
-0.4637311697 1.921235681 -0.3063502014
-0.4633811116 1.922723651 -0.2377017736
-0.4606104195 1.914164186 -0.1685338169
-0.461820513 1.920662522 -0.101323545
-0.4630880952 1.928900003 -0.03392568231
-0.4493806958 1.856096029 0.03263420239
-0.4514945447 1.867681026 0.0984974131
-0.4605441689 1.90803194 0.1680108905
-0.4604577124 1.909134746 0.2359955907
-0.4581004083 1.902273774 0.3032215238
-0.4573772848 1.900728106 0.371758759
-0.458496511 1.908307433 0.4431501627
-0.4571897388 1.905792832 0.5135490298
-0.4588955343 1.923262239 -0.5182077885
-0.4584442377 1.924349785 -0.4467493892
-0.4568236768 1.919028997 -0.3751933277
-0.457021445 1.92284286 -0.3063502014
-0.4543744326 1.914672256 -0.2364830822
-0.4556388855 1.921497226 -0.1690567583
-0.4532722533 1.914488912 -0.1009048671
-0.4572725892 1.934396625 -0.03399549052
-0.4461448491 1.871269703 0.03287853673
-0.4421976209 1.857587695 0.09786937386
-0.4569810927 1.921178341 0.1690567583
-0.4519564509 1.903004885 0.2350206524
-0.4519127011 1.905783296 0.3035343885
-0.4516453743 1.906133652 0.3725219965
-0.4527292252 1.913689137 0.4440499544
-0.4514222443 1.9111377 0.5145843625
-0.4539459944 1.932375073 -0.5202783346
-0.4521705508 1.927835464 -0.4471993148
-0.4496737123 1.918700337 -0.3748116791
-0.4530085027 1.935966849 -0.3082274199
-0.4467844963 1.912380815 -0.2359955907
-0.4507418871 1.930836558 -0.1697540134
-0.4488529563 1.925785184 -0.1014282256
-0.4473443925 1.922347665 -0.03375115618
-0.4396096766 1.872815847 0.03287853673
-0.4352545142 1.857175469 0.09776470065
-0.4502716064 1.922762036 0.1690567583
-0.4462143481 1.908436775 0.2355081141
-0.4439116418 1.90157795 0.3025957942
-0.4467723966 1.915346503 0.3740484715
-0.4451637566 1.911461592 0.4431501627
-0.4438727498 1.908938289 0.5135490298
-0.4445870221 1.922654748 -0.5171725154
-0.4467529058 1.93509841 -0.4485489726
-0.4420912564 1.916432381 -0.3740484715
-0.4475775063 1.943311334 -0.309166044
-0.4405516088 1.915863276 -0.2362393439
-0.441767931 1.922689319 -0.1688824445
-0.4439146221 1.935126901 -0.1018469036
-0.440520823 1.921871305 -0.03371625394
-0.4339703918 1.878235579 0.03294834867
-0.4286445677 1.856662512 0.09766003489
-0.4417675138 1.916556001 0.1683595181
-0.4422205687 1.921589971 0.2369705439
-0.4362747669 1.897264242 0.3016571999
-0.4409619272 1.920721292 0.3748116791
-0.4376175106 1.909205079 0.442250371
-0.4375395179 1.910399914 0.5135490298
-0.4370160401 1.920427322 -0.5161372423
-0.4420612454 1.944170475 -0.4503486156
-0.4367032349 1.923707485 -0.3751933277
-0.4371975064 1.927446842 -0.3063502014
-0.4368269742 1.928929925 -0.2377017736
-0.4337361157 1.91838944 -0.1683595181
-0.4388158023 1.942432761 -0.1021609232
-0.4324891269 1.917545319 -0.03361153975
-0.4259651005 1.871864915 0.03280872852
-0.4230463803 1.862042546 0.09786937386
-0.4333113432 1.910314202 0.1676622629
-0.4358472526 1.923045516 0.2369705439
-0.4313927293 1.90648222 0.302908659
-0.4345914721 1.922172666 0.3748116791
-0.4342870116 1.923952222 0.4453996718
-0.4291708171 1.904377103 0.5114784837
-0.4306447506 1.921866059 -0.5161372423
-0.4344216883 1.941898108 -0.4494488239
-0.4316058755 1.930893064 -0.3763381839
-0.4304671884 1.928961158 -0.3063502014
-0.4292271733 1.926567793 -0.2372142822
-0.4266039431 1.917947054 -0.1681852043
-0.428999126 1.930305004 -0.1014282256
-0.427526027 1.926852107 -0.03375115618
-0.4176803231 1.865534902 0.03266910836
-0.4178506136 1.869355559 0.09818339348
-0.4287116826 1.91951859 0.1683595181
-0.4265392721 1.912930369 0.2355081141
-0.4255941212 1.911832809 0.3035343885
-0.4253211021 1.912179708 0.3725219965
-0.4301036596 1.936870933 0.4480991066
-0.4237746 1.911521912 0.5130314231
-0.4269222617 1.938524604 -0.5202783346
-0.4251281321 1.931983352 -0.4467493892
-0.4245263636 1.932461858 -0.3763381839
-0.4250865281 1.938244224 -0.3076016903
-0.4216501713 1.924176097 -0.2367268056
-0.4220349491 1.929156542 -0.1690567583
-0.4189377129 1.9182055 -0.1006955206
-0.4242076576 1.943962693 -0.03403039649
-0.4120264351 1.87088728 0.0327389203
-0.410464555 1.866901398 0.09797404706
-0.4229552746 1.92691505 0.1688824445
-0.4190083146 1.910529733 0.2350206524
-0.4197633564 1.917165995 0.3041601181
-0.4199871421 1.921397567 0.3740484715
-0.419677496 1.923202872 0.4444998801
-0.4175114334 1.914876699 0.5135490298
-0.4201524556 1.940003157 -0.5202783346
-0.4188673794 1.937338114 -0.4476491809
-0.4157049358 1.924337149 -0.3744300902
-0.4170692861 1.933923244 -0.306663096
-0.4137588143 1.921827674 -0.2362393439
-0.4157177508 1.93256557 -0.1692310721
-0.4134978354 1.92551446 -0.1010095328
-0.4140636623 1.929789782 -0.03375115618
-0.4060119092 1.876293778 0.03280872852
-0.4022574723 1.860514283 0.09755536169
-0.4141242504 1.918642282 0.1680108905
-0.4120034873 1.912052631 0.2350206524
-0.4114051163 1.910895109 0.302908659
-0.4141021669 1.926690817 0.3748116791
-0.4133709073 1.926561236 0.4449497461
-0.4128489792 1.925767303 0.5161372423
-0.4125737846 1.937678814 -0.5192430615
-0.413251996 1.942528486 -0.4485489726
-0.4077620506 1.920015097 -0.373285234
-0.4118843973 1.94109261 -0.3076016903
-0.4069716036 1.921247125 -0.2359955907
-0.4077321589 1.928157091 -0.1687081307
-0.4087612629 1.934691668 -0.1014282256
-0.4056736231 1.923396945 -0.03361153975
-0.4006209373 1.88154161 0.03287853673
-0.3970067501 1.867767811 0.09786937386
-0.4074248075 1.920076013 0.1680108905
-0.4073068798 1.921176076 0.2359955907
-0.4030966759 1.904589176 0.3016571999
-0.4093349576 1.935736656 0.3763381839
-0.4049677849 1.918387771 0.442700237
-0.4033353329 1.91396451 0.5125137568
-0.4037699997 1.92769134 -0.5161372423
-0.4084624648 1.953496695 -0.4507984817
-0.4029991031 1.929043651 -0.3748116791
-0.4034925103 1.934783459 -0.3063502014
-0.4022860229 1.932373047 -0.2372142822
-0.3997134268 1.921696067 -0.1680108905
-0.4040360451 1.945884347 -0.1019515842
-0.4005810618 1.932633519 -0.03375115618
-0.3924117386 1.875099421 0.0327389203
-0.3921187222 1.876962304 0.09828805923
-0.3990193307 1.911664724 0.1671393216
-0.4014094472 1.926472545 0.2364830822
-0.3992613256 1.919522643 0.3038472533
-0.3997805119 1.923698068 0.3736668229
-0.4010393322 1.933146715 0.4458495975
-0.3958687782 1.911577225 0.5114784837
-0.3978170753 1.932873607 -0.5171725154
-0.3988961577 1.941548467 -0.4476491809
-0.3962625265 1.930438757 -0.3748116791
-0.3959437609 1.932309747 -0.3057244718
-0.396333456 1.93765533 -0.2377017736
-0.3945990503 1.93088758 -0.1687081307
-0.3952445984 1.937498212 -0.1014282256
-0.3942319155 1.935979366 -0.03378606215
-0.385057956 1.872540355 0.03266910836
-0.3855640292 1.87831974 0.09828805923
-0.3939445615 1.920853019 0.1678365767
-0.3946818113 1.927862048 0.2364830822
-0.3921633959 1.918969154 0.3035343885
-0.3918843567 1.919311285 0.3725219965
-0.3950677216 1.938353658 0.4467493892
-0.389193207 1.912947536 0.5114784837
-0.3918328285 1.938037634 -0.5182077885
-0.3913449049 1.939108729 -0.4467493892
-0.3910733461 1.939508557 -0.3763381839
-0.3903651237 1.939489841 -0.306663096
-0.3887866437 1.935134172 -0.2372142822
-0.3890324235 1.938113689 -0.1692310721
-0.3876956105 1.93494904 -0.1012188792
-0.3886477053 1.943226457 -0.03389077634
-0.3801042736 1.881713271 0.03280872852
-0.3774255216 1.871822834 0.09786937386
-0.3895992935 1.933935165 0.1688824445
-0.3863840401 1.921443701 0.2355081141
-0.3858507872 1.922263265 0.3038472533
-0.386725992 1.928367376 0.3740484715
-0.3867685795 1.932077527 0.4449497461
-0.38478598 1.92566061 0.5145843625
-0.3858182728 1.943183184 -0.5192430615
-0.384573251 1.940463066 -0.4467493892
-0.3827758729 1.933158159 -0.3748116791
-0.3839752078 1.942778707 -0.3069759607
-0.3812604845 1.932584524 -0.2367268056
-0.3826495409 1.941414714 -0.169405371
-0.3820951283 1.942169785 -0.1015328914
-0.3799359798 1.934760094 -0.03371625394
-0.3747003675 1.888913274 0.0329134427
-0.3701138794 1.869210362 0.09766003489
-0.384005636 1.94114697 0.169405371
-0.3812131882 1.930570483 0.2364830822
-0.3787560165 1.921660423 0.3035343885
-0.3807513714 1.933557868 0.3748116791
-0.3796456754 1.931503892 0.4444998801
-0.3780612946 1.926992178 0.5145843625
-0.377892971 1.936867476 -0.5171725154
-0.3807452023 1.955116987 -0.44989869
-0.3748638034 1.926708341 -0.373285234
-0.3794148266 1.953736901 -0.3085403144
-0.3744713962 1.931889534 -0.2364830822
-0.3758310676 1.940716863 -0.1692310721
-0.3756520152 1.943426371 -0.1015328914
-0.3720031083 1.928155422 -0.03357663378
-0.3684338927 1.89014554 0.0329134427
-0.3639136553 1.87042737 0.09766003489
-0.37528494 1.930675149 0.1683595181
-0.3755656481 1.935721517 0.2369705439
-0.3708795905 1.915148377 0.3022829294
-0.3754565716 1.940592408 0.3759565353
-0.3702828884 1.917445064 0.4409006536
-0.3702059686 1.920647621 0.5125137568
-0.3704025447 1.934380054 -0.5161372423
-0.3742835522 1.958348393 -0.4503486156
-0.3696083724 1.935718775 -0.3748116791
-0.3707431257 1.945347309 -0.3069759607
-0.3695816696 1.942935228 -0.2377017736
-0.3679388762 1.93614471 -0.1687081307
-0.3699828684 1.950612426 -0.1018469036
-0.3675015867 1.941231012 -0.03378606215
-0.3610836565 1.887491584 0.03284363076
-0.3596295118 1.883457184 0.09828805923
-0.368544668 1.9319731 0.1683595181
-0.3680633605 1.933120608 0.2364830822
-0.3634550273 1.912550092 0.3016571999
-0.3668488562 1.932247281 0.3740484715
-0.3672160804 1.93787241 0.4453996718
-0.3627808988 1.918131828 0.5114784837
-0.3650752306 1.943255663 -0.5182077885
-0.3660082221 1.951981544 -0.4485489726
-0.3635725677 1.940856576 -0.3755749166
-0.3624976575 1.938862562 -0.3057244718
-0.3631609082 1.946164966 -0.2379455119
-0.3611777127 1.937417388 -0.1687081307
-0.3606147468 1.938147068 -0.101114206
-0.3599933684 1.938569903 -0.03371625394
-0.3541234732 1.886775255 0.03280872852
-0.3530531824 1.884701014 0.09828805923
-0.361798048 1.933247924 0.1683595181
-0.3598557711 1.926588297 0.2355081141
-0.3593103588 1.927400589 0.3038472533
-0.359383285 1.92965591 0.373285234
-0.3600927591 1.937226534 0.4449497461
-0.3567892313 1.92318511 0.5125137568
-0.3589893878 1.948318124 -0.5192430615
-0.357783854 1.945580602 -0.4467493892
-0.3582139909 1.949837804 -0.3771014214
-0.3564404547 1.944001913 -0.3063502014
-0.3560074866 1.945468187 -0.2377017736
-0.3554880023 1.944545984 -0.1692310721
-0.3534881473 1.937429309 -0.1010095328
-0.356806159 1.959488034 -0.03406530246
-0.3468107283 1.884066701 0.0327389203
-0.345028162 1.878064513 0.09786937386
-0.3564856946 1.942337871 0.1690567583
-0.353128016 1.927832723 0.2355081141
-0.3532911539 1.932529211 0.3044729829
-0.3526448309 1.930898786 0.373285234
-0.3522804677 1.932720423 0.4436000884
-0.3507648408 1.928220153 0.5135490298
-0.3528735638 1.953361392 -0.5202783346
-0.3520271182 1.952571392 -0.4480991066
-0.350361079 1.945279837 -0.3759565353
-0.3507012725 1.951066852 -0.3072888255
-0.3477993309 1.936869025 -0.2364830822
-0.3497528732 1.951658487 -0.1697540134
-0.3470751345 1.940617442 -0.101114206
-0.3474929929 1.944912314 -0.03378606215
-0.3420081139 1.895105362 0.0329134427
-0.338444382 1.87723279 0.09776470065
-0.3511151969 1.95141387 0.1697540134
-0.3470976353 1.932961345 0.2359955907
-0.3468811214 1.933690071 0.3044729829
-0.3462480307 1.934050322 0.3736668229
-0.3451835811 1.930041194 0.442700237
-0.3470837772 1.944587231 0.5176901221
-0.3457202017 1.950716376 -0.5192430615
-0.3472466767 1.963322878 -0.4503486156
-0.3422017395 1.93676424 -0.3740484715
-0.3462869823 1.963891625 -0.309166044
-0.3427533209 1.945831418 -0.2374580353
-0.341208756 1.94103384 -0.1687081307
-0.3423628807 1.951593757 -0.1016375646
-0.3396602571 1.938175321 -0.033646442
-0.3367671669 1.902136326 0.03301815689
-0.3325647116 1.880311489 0.09786937386
-0.3425637186 1.940795064 0.1687081307
-0.3427533209 1.945831418 0.2374580353
-0.3377276063 1.919266105 0.3019700646
-0.3405121267 1.939055324 0.3744300902
-0.3404645026 1.940772414 0.4449497461
-0.3379686475 1.930504084 0.5135490298
-0.3372640312 1.940432072 -0.5161372423
-0.3414006233 1.968303561 -0.4512484074
-0.3374526799 1.947560549 -0.3759565353
-0.3387632668 1.959189534 -0.3082274199
-0.3369711041 1.952884674 -0.2381892353
-0.3337554336 1.938286066 -0.1683595181
-0.3375825882 1.962560058 -0.1021609232
-0.3335697353 1.943290949 -0.03371625394
-0.3284054697 1.891421199 0.03280872852
-0.3266815841 1.885396719 0.09807872027
-0.3351068795 1.936030865 0.1681852043
-0.3369740546 1.950869799 0.2379455119
-0.3323686719 1.928219914 0.3032215238
-0.3337473571 1.938239098 0.3740484715
-0.3333582878 1.940028429 0.4444998801
-0.3305753171 1.927863955 0.5125137568
-0.3314445913 1.949273467 -0.5182077885
-0.3332229853 1.961798429 -0.4494488239
-0.3306398094 1.950720072 -0.3763381839
-0.3299325109 1.950679421 -0.306663096
-0.3298209906 1.952091813 -0.2379455119
-0.3283119798 1.947297931 -0.1690567583
-0.3287307918 1.953936338 -0.1016375646
-0.3281095028 1.952331662 -0.03385587409
-0.3204598427 1.884670377 0.03266910836
-0.3214342594 1.894402266 0.0984974131
-0.328674376 1.941174746 0.1685338169
-0.3275132477 1.936375856 0.2359955907
-0.3266225457 1.935211658 0.3041601181
-0.3259885013 1.935577273 0.373285234
-0.3278598785 1.950846314 0.4467493892
-0.3244829476 1.932816625 0.5135490298
-0.3259074986 1.958041072 -0.5202783346
-0.3241141737 1.951472163 -0.4467493892
-0.3251142204 1.959609389 -0.377864629
-0.3234444261 1.953768134 -0.3069759607
-0.3213703036 1.945453167 -0.2369705439
-0.3215130568 1.948432088 -0.1690567583
-0.3212587833 1.951130629 -0.1014282256
-0.3199795187 1.947601199 -0.03375115618
-0.3158462942 1.899640679 0.0329134427
-0.3138354123 1.891626835 0.09828805923
-0.322547406 1.946241498 0.1688824445
-0.3204143047 1.937563181 0.2359955907
-0.3195269406 1.936395884 0.3041601181
-0.3198690712 1.940577626 0.3740484715
-0.3204160631 1.948132992 0.4458495975
-0.317397058 1.933992743 0.5135490298
-0.3190701604 1.959166884 -0.5202783346
-0.3185509741 1.960285544 -0.4485489726
-0.317327708 1.954918623 -0.3767197728
-0.3172546029 1.958785057 -0.3076016903
-0.3142602146 1.944603562 -0.2367268056
-0.3159802854 1.957410097 -0.1697540134
-0.3150808215 1.956183791 -0.1016375646
-0.313495934 1.950680733 -0.03378606215
-0.3095349073 1.902705312 0.03294834867
-0.3065899312 1.888767958 0.09807872027
-0.3160701692 1.949322343 0.1690567583
-0.3142825663 1.942589164 0.2364830822
-0.3130809367 1.939449549 0.3044729829
-0.3134052753 1.943620563 0.3744300902
-0.3117569089 1.937695503 0.4431501627
-0.3118685782 1.942718983 0.5156196356
-0.3116230369 1.956452847 -0.5192430615
-0.3126234114 1.96715939 -0.44989869
-0.3095797598 1.95019722 -0.3755749166
-0.3122687936 1.971586704 -0.309478879
-0.3077806234 1.947649479 -0.2369705439
-0.3075919449 1.948661089 -0.1688824445
-0.3091831207 1.963190436 -0.1019515842
-0.3060635626 1.947812438 -0.03371625394
-0.3028908074 1.903774142 0.03294834867
-0.3003094792 1.891798973 0.09818339348
-0.3089521825 1.948445916 0.1688824445
-0.3093622327 1.955438375 0.2379455119
-0.3044606149 1.928823352 0.3025957942
-0.3081471622 1.954399347 0.3763381839
-0.3043850362 1.93492198 0.442250371
-0.3038875163 1.936161518 0.5135490298
-0.3036025167 1.949893475 -0.5171725154
-0.3066526651 1.974015474 -0.4512484074
-0.3027699292 1.95126605 -0.3755749166
-0.3035719693 1.960952163 -0.3076016903
-0.3018887043 1.954597473 -0.2377017736
-0.2998770475 1.943815589 -0.1683595181
-0.3020240366 1.962283731 -0.1018469036
-0.2998709381 1.952821851 -0.03378606215
-0.2953211367 1.898892164 0.03284363076
-0.2943160236 1.896782994 0.09839273244
-0.3015381396 1.94557476 0.1685338169
-0.3037475049 1.964353561 0.2389204651
-0.2989310026 1.937683463 0.3038472533
-0.3004275262 1.949641824 0.3751933277
-0.2999983728 1.951381564 0.4458495975
-0.2965409458 1.933391571 0.5125137568
-0.2979559004 1.958580852 -0.5192430615
-0.2985900342 1.96736753 -0.4494488239
-0.296839118 1.958134413 -0.3767197728
-0.2967246175 1.962000012 -0.3076016903
-0.2968423367 1.967416525 -0.2391642183
-0.294870913 1.956671476 -0.169405371
-0.2951738834 1.963325858 -0.1018469036
-0.2945807278 1.96171546 -0.03392568231
-0.2874906361 1.892003179 0.03270401433
-0.288323611 1.89972353 0.0984974131
-0.2959394455 1.954495072 0.1692310721
-0.2945162356 1.949699283 0.2369705439
-0.2925041616 1.93866396 0.3038472533
-0.2918663025 1.93903029 0.3729035854
-0.2943419218 1.960125327 0.4476491809
-0.2912745476 1.94200635 0.5145843625
-0.2905500233 1.955787182 -0.5182077885
-0.290920645 1.96063602 -0.4476491809
-0.2917274535 1.970811367 -0.3790094852
-0.2905060053 1.964927077 -0.3079145551
-0.2882884443 1.95464325 -0.2374580353
-0.2880385518 1.957688808 -0.169405371
-0.2874995768 1.956389904 -0.1014282256
-0.2883108556 1.966688991 -0.03399549052
-0.2832713723 1.906792164 0.03294834867
-0.2813972831 1.898742676 0.09839273244
-0.2879490554 1.947632313 0.1685338169
-0.2874686718 1.946737647 0.2364830822
-0.286886245 1.947490573 0.3050987422
-0.2862914801 1.945814729 0.3740484715
-0.2864257395 1.951450109 0.4453996718
-0.2850540578 1.946834087 0.5156196356
-0.2857284248 1.968210578 -0.5213136077
-0.285751164 1.973211288 -0.4503486156
-0.2832235396 1.95816648 -0.3763381839
-0.2844911218 1.971794844 -0.3088531494
-0.2811803818 1.953672647 -0.2372142822
-0.2817707956 1.962626576 -0.1697540134
-0.2809517086 1.959358692 -0.1015328914
-0.2794634402 1.953826427 -0.03375115618
-0.2763262391 1.905790448 0.0329134427
-0.2736254036 1.891806245 0.09797404706
-0.2834824026 1.962380171 0.1697540134
-0.2812391222 1.951658726 0.2369705439
-0.2786806524 1.938703775 0.3035343885
-0.2803359032 1.95263195 0.3751933277
-0.2782303393 1.942792892 0.4431501627
-0.2809880972 1.966941714 0.520796001
-0.2779710889 1.965419173 -0.5202783346
-0.2796787918 1.979985714 -0.451698333
-0.2754962444 1.955303311 -0.3755749166
-0.2783623338 1.980648756 -0.3101046681
-0.2746354342 1.956608176 -0.2374580353
-0.2738127112 1.955705643 -0.1690567583
-0.2745975554 1.966309309 -0.1018469036
-0.2729173303 1.956770658 -0.03378606215
-0.2713527083 1.918623209 0.03312287107
-0.2678565979 1.898683071 0.09828805923
-0.2751779258 1.955514073 0.1690567583
-0.2755294442 1.960491657 0.2379455119
-0.2724604905 1.94357717 0.3041601181
-0.2753508687 1.969201326 0.3782462776
-0.2732617557 1.959240079 0.4467493892
-0.2751860321 1.975563884 0.5228664875
-0.2700538039 1.958722353 -0.5182077885
-0.2734822929 1.988719583 -0.4534979165
-0.2692039907 1.960143089 -0.3763381839
-0.2701068819 1.971822977 -0.3085403144
-0.267999202 1.961535335 -0.2379455119
-0.2680622339 1.964545965 -0.1697540134
-0.2693476677 1.97912991 -0.1024749354
-0.2660856545 1.957711339 -0.03378606215
-0.2632271945 1.911680937 0.03298325092
-0.2612277269 1.899606466 0.09828805923
-0.2678081989 1.952514768 0.1687081307
-0.2694187164 1.969355464 0.2389204651
-0.2664761543 1.950388074 0.3050987422
-0.2684767246 1.970150232 0.3782462776
-0.2708831728 1.993008733 0.4543977082
-0.2797218859 2.060741425 0.5456426144
-0.2642431259 1.967311859 -0.5202783346
-0.2655899823 1.979958415 -0.4512484074
-0.2623596191 1.961070895 -0.3763381839
-0.2627812326 1.966833949 -0.3076016903
-0.2628044486 1.972251773 -0.2391642183
-0.2601526678 1.957569599 -0.1690567583
-0.2606813908 1.964173198 -0.1016375646
-0.2597746551 1.962593198 -0.03385587409
-0.2552895844 1.900651932 0.03277382255
-0.2564511001 1.914363861 0.09902077168
-0.2607275546 1.951462984 0.1685338169
-0.2626235187 1.968270421 0.2386767119
-0.2622725964 1.970887303 0.3082274199
-0.2712523341 2.041091204 0.3919845223
-0.2780986428 2.098215818 0.4786924124
-0.275565207 2.084687233 0.5518542528
-0.2582188845 1.972008228 -0.5213136077
-0.2576680779 1.973144174 -0.4494488239
-0.2576316595 1.975557566 -0.3790094852
-0.2564240396 1.971656799 -0.3082274199
-0.255408138 1.969219565 -0.2386767119
-0.255194664 1.970276952 -0.1701026261
-0.2545915544 1.971013546 -0.1019515842
-0.2562429607 1.989271045 -0.03430963308
-0.2502095699 1.913428307 0.03298325092
-0.2487335205 1.907325506 0.09860207886
-0.2570855916 1.974049568 0.1704512537
-0.2577962279 1.98492372 0.2406266183
-0.2690924704 2.077577591 0.3251223564
-0.2729397118 2.110171795 0.4053411484
-0.2712708414 2.103039265 0.4795922041
-0.2702588439 2.100965261 0.5559953451
-0.2523106933 1.980563283 -0.5233841538
-0.2512705624 1.977897882 -0.4503486156
-0.2502403259 1.972549438 -0.3782462776
-0.2502833605 1.978419304 -0.309166044
-0.2472899407 1.960251927 -0.2374580353
-0.249063015 1.97708571 -0.1706255525
-0.2497008592 1.987743616 -0.102788955
-0.2478066683 1.978248119 -0.03410020471
-0.2437808067 1.916273832 0.03301815689
-0.241069153 1.900256515 0.09818339348
-0.2617112994 2.065858603 0.1784695834
-0.2657943368 2.103978157 0.2552509606
-0.2633205652 2.090263367 0.3269995749
-0.2645924389 2.103319883 0.4038146436
-0.2627159059 2.094305277 0.477342695
-0.2619637847 2.094228268 0.5539248586
-0.2444463223 1.97376287 -0.5213136077
-0.2453197092 1.986499071 -0.4521481991
-0.2428722382 1.969514012 -0.3774830103
-0.2438584268 1.9832021 -0.3097917736
-0.2423789054 1.976865768 -0.2394079268
-0.2421606183 1.977943063 -0.1706255525
-0.2446964532 2.004463673 -0.1036263332
-0.2538280189 2.082278967 -0.03591525555
-0.2378269583 1.923066735 0.03312287107
-0.2352562994 1.905009747 0.09839273244
-0.2583949864 2.098398685 0.1812585741
-0.2582059205 2.102922678 0.2550072074
-0.2556667924 2.085242987 0.3260609806
-0.2577248514 2.108128548 0.4045779109
-0.2561116517 2.101012945 0.4786924124
-0.2547836304 2.093167782 0.5534071922
-0.2370940596 1.970768094 -0.5202783346
-0.2389627546 1.989236474 -0.4525981247
-0.2378650606 1.985944271 -0.3805359602
-0.2386874706 1.995768189 -0.311668992
-0.2386430055 2.001312494 -0.2423328161
-0.2427812517 2.042087317 -0.176203534
-0.2519407272 2.122280598 -0.1098019779
-0.2496129125 2.108968258 -0.03636901826
-0.2304935157 1.91590333 0.03298325092
-0.2295561135 1.913751602 0.09881142527
-0.2515412569 2.103244305 0.1816071868
-0.2517021596 2.107709408 0.255494684
-0.2490864694 2.092007399 0.3269995749
-0.2498058975 2.101173162 0.4030514061
-0.2493718714 2.103785992 0.479142338
-0.2458898723 2.080614805 0.5497837067
-0.2319032252 1.983056307 -0.5233841538
-0.2320170254 1.990058541 -0.4525981247
-0.233093679 2.002322912 -0.3835889101
-0.2378675938 2.049568653 -0.3201164305
-0.244660303 2.114533663 -0.2562259138
-0.2426385134 2.100278854 -0.1812585741
-0.243616432 2.115210533 -0.1093832925
-0.243074283 2.113757849 -0.03643882647
-0.2226442546 1.906765223 0.03280872852
-0.222745508 1.910534859 0.09860207886
-0.2443356514 2.102087736 0.181432873
-0.2434297949 2.100687504 0.2545197308
-0.2439645082 2.108520031 0.3295024931
-0.2408955693 2.088380098 0.4003801048
-0.2411356717 2.096899748 0.477342695
-0.2389883697 2.081418753 0.5497837067
-0.2278090119 2.008807659 -0.5301134586
-0.2284864187 2.017926216 -0.4588967264
-0.2379933447 2.108471394 -0.4041962922
-0.2372642756 2.10530901 -0.3288767636
-0.2363166213 2.103497505 -0.254763484
-0.2373028398 2.118932962 -0.1828273684
-0.2368221134 2.117991686 -0.1094879583
-0.2370249629 2.126517534 -0.03664825857
-0.2169954479 1.913454175 0.0329134427
-0.2156277299 1.907331228 0.09839273244
-0.2381115556 2.112827063 0.182304427
-0.2353529185 2.091619968 0.2533010542
-0.2337398678 2.083839178 0.325435251
-0.2333138287 2.08331418 0.3992352486
-0.2331001461 2.088004112 0.4750932157
-0.2323618531 2.088000298 0.5513366461
-0.2281814665 2.076800823 -0.5482307673
-0.232121259 2.119482279 -0.4822916389
-0.2321271449 2.122950315 -0.4068675935
-0.2308309674 2.117946863 -0.3307540119
-0.22882016 2.106322527 -0.2550072074
-0.2296894938 2.117767334 -0.1826530397
-0.2294874936 2.122816801 -0.1096972972
-0.228312552 2.115403175 -0.03643882647
-0.2108534425 1.922187567 0.03305306286
-0.2087506503 1.906087041 0.09828805923
-0.2307354212 2.113645315 0.182304427
-0.2285425514 2.100362539 0.2542759776
-0.2264649421 2.08464241 0.325435251
-0.2265204191 2.091963053 0.4007617235
-0.224818781 2.083031893 0.4737434983
-0.2258992344 2.0964818 0.5534071922
-0.2256286144 2.121768236 -0.560136497
-0.2244737446 2.114426851 -0.4809419215
-0.2236817777 2.113985777 -0.4049594998
-0.2238057405 2.118700743 -0.3307540119
-0.2179299593 2.076944828 -0.1789925247
-0.222239092 2.121579885 -0.1095926315
-0.2209264785 2.116187334 -0.03643882647
-0.2055357546 1.932818651 0.03322758526
-0.2018857747 1.904817939 0.09818339348
-0.2214717865 2.096605778 0.1807356328
-0.2207449228 2.093212128 0.2533010542
-0.2183602899 2.077561855 0.3241837323
-0.2206077725 2.102465153 0.4026698172
-0.2197335511 2.101209879 0.4777926207
-0.2177802026 2.089571476 0.5513366461
-0.2181949466 2.118661642 -0.5591012239
-0.219082728 2.134582996 -0.4854409397
-0.212467581 2.073702574 -0.3969455659
-0.2095879316 2.052653313 -0.3201164305
-0.2056356817 2.020935774 -0.2442827076
-0.2029870301 1.998368263 -0.1720200479
-0.2152337581 2.126316786 -0.1098019779
-0.2145421505 2.126893282 -0.0366133526
-0.1977646053 1.923578262 0.03305306286
-0.1964564174 1.917432308 0.09881142527
-0.2068147659 2.022011042 0.1741117984
-0.2134363502 2.09397006 0.2533010542
-0.2121054679 2.088137627 0.325748086
-0.2124746442 2.095409632 0.4011433423
-0.2123980671 2.101963997 0.4777926207
-0.2093230486 2.078786135 0.5482307673
-0.2081207186 2.092496872 -0.5518542528
-0.2033653557 2.051947594 -0.4660951793
-0.2002017498 2.023634911 -0.3870234787
-0.1935065538 1.962943554 -0.3057244718
-0.1943112463 1.97817862 -0.2389204651
-0.1913444102 1.951475382 -0.1678365767
-0.2072280347 2.121091604 -0.1094879583
-0.208084777 2.137580872 -0.036787875
-0.1906541288 1.920276999 0.03298325092
-0.1905481517 1.926056504 0.09923011065
-0.2001474053 2.026685953 0.1744604111
-0.2065139562 2.098653316 0.2537885308
-0.2059722543 2.100661278 0.3276253045
-0.2043934911 2.088322878 0.3996168673
-0.2056274414 2.108510971 0.479142338
-0.2031869292 2.091041088 0.5513366461
-0.1910388023 1.991290569 -0.5244194269
-0.1895256639 1.982808471 -0.44989869
-0.1882900149 1.973507404 -0.3771014214
-0.1851574779 1.947875261 -0.3032215238
-0.1849713475 1.95315361 -0.2357518524
-0.1843433082 1.950147867 -0.1676622629
-0.1988859028 2.111860037 -0.1089645997
-0.2008092105 2.140285254 -0.03682278097
-0.1910023838 1.994582772 0.03427473083
-0.194448024 2.03805089 0.1050917432
-0.1930711865 2.02737236 0.1744604111
-0.1988124847 2.095408916 0.2533010542
-0.1993813515 2.109233856 0.3288767636
-0.1978407502 2.096841812 0.4011433423
-0.1977184266 2.103395462 0.4777926207
-0.1966065466 2.099431276 0.5534071922
-0.1831973493 1.982327104 -0.521831274
-0.1809957772 1.965993285 -0.4458495975
-0.1803216487 1.962422371 -0.3748116791
-0.1783574075 1.948509693 -0.3032215238
-0.177430883 1.945879817 -0.2347768992
-0.1778964698 1.954747915 -0.1680108905
-0.1915123612 2.112541437 -0.1089645997
-0.1924382001 2.131015062 -0.03664825857
-0.1910187304 2.070904493 0.03560111299
-0.1880631745 2.046672583 0.1055104285
-0.1876312047 2.045890093 0.1760292053
-0.1918585598 2.100044012 0.2537885308
-0.1909437776 2.098113298 0.3269995749
-0.1908758134 2.101429701 0.4019065499
-0.1900242269 2.100191116 0.4768928289
-0.189623192 2.103952885 0.5544424057
-0.1747374982 1.965636253 -0.5171725154
-0.1737877876 1.962730527 -0.4449497461
-0.1722611189 1.949350595 -0.3721403778
-0.1724202186 1.958959222 -0.3047858775
-0.1706378311 1.946487308 -0.2347768992
-0.1695086807 1.937493801 -0.1664420962
-0.1844842434 2.117176294 -0.1091739386
-0.1857320964 2.093469143 0.03598506376
-0.1816214621 2.055274487 0.1059291065
-0.179787904 2.038594007 0.17533198
-0.1859169602 2.116520643 0.2557384372
-0.1834460944 2.096799135 0.3266867101
-0.1838812977 2.105995178 0.4026698172
-0.1831979752 2.106666088 0.4782425463
-0.1819449514 2.100752592 0.5534071922
-0.1667241454 1.952759981 -0.5135490298
-0.1672661453 1.967208862 -0.4458495975
-0.1651230752 1.946027398 -0.3713771105
-0.1647498906 1.94970727 -0.3032215238
-0.1635097861 1.943114877 -0.2342894226
-0.1617446095 1.92616117 -0.1653962135
-0.1721002907 2.058098078 -0.1060337871
-0.1679317355 2.016724348 -0.03462377936
-0.1714635044 2.012413263 0.03455396742
-0.1747833043 2.059876442 0.1061384603
-0.1723350286 2.035238743 0.1749833524
-0.1775264144 2.105288267 0.2542759776
-0.176456809 2.101363659 0.3273124397
-0.17685619 2.110536814 0.4034330547
-0.1758436561 2.107292652 0.4782425463
-0.1739713997 2.093674183 0.5513366461
-0.1592757404 1.945628762 -0.5114784837
-0.1594478339 1.956127048 -0.4431501627
-0.1580103487 1.942678571 -0.3706139028
-0.1568264365 1.936487913 -0.3010314405
-0.1570455581 1.947631121 -0.2347768992
-0.1553391516 1.930686116 -0.1657448411
-0.1585361958 1.979050875 -0.1018469036
-0.157099992 1.965443373 -0.03371625394
-0.1590655446 1.94722867 0.03340211138
-0.1686000228 2.068407297 0.1065571457
-0.1657135934 2.04178524 0.1755062789
-0.1701759398 2.105895042 0.2542759776
-0.1694878936 2.101937294 0.3273124397
-0.1682305336 2.095485687 0.4003801048
-0.1692625433 2.117606401 0.4804920554
-0.1673341691 2.098091125 0.5523719192
-0.1527854651 1.950024724 -0.5125137568
-0.1523530781 1.948873758 -0.4413505793
-0.1515332162 1.947132826 -0.3713771105
-0.1507101953 1.940936327 -0.3016571999
-0.1493616998 1.93230772 -0.2328270078
-0.1489049494 1.935189486 -0.1660934538
-0.1470798403 1.915841103 -0.0984974131
-0.1471904218 1.926102042 -0.03301815689
-0.1501077116 1.915848017 0.03284363076
-0.1610687226 2.065000772 0.1063477993
-0.1588933766 2.046324253 0.1758549064
-0.1628853828 2.102489471 0.2537885308
-0.163364321 2.118272305 0.3298153877
-0.1615823805 2.099946976 0.4011433423
-0.1616444886 2.110383749 0.4786924124
-0.160891071 2.110219955 0.5554777384
-0.1466075182 1.95437324 -0.5135490298
-0.1455497295 1.94939363 -0.4413505793
-0.1442008466 1.935877681 -0.3690874279
-0.1437885016 1.939480424 -0.3013443053
-0.1421770155 1.926878214 -0.232095778
-0.1421937495 1.931698799 -0.1657448411
-0.1403909028 1.916342854 -0.0984974131
-0.1409037411 1.932587266 -0.03312287107
-0.1437172145 1.920348763 0.0329134427
-0.1532665193 2.057583332 0.1059291065
-0.1515154541 2.038892269 0.1751576513
-0.1561314613 2.11096406 0.254763484
-0.1548084617 2.103069305 0.3273124397
-0.1551143676 2.112246275 0.4034330547
-0.1537081599 2.103160858 0.4768928289
-0.1538037807 2.114622355 0.5565130115
-0.1392329335 1.947165728 -0.5114784837
-0.1391585916 1.95572114 -0.442700237
-0.1371639669 1.932452679 -0.3683241904
-0.1371562332 1.941941023 -0.3016571999
-0.1357297599 1.931322932 -0.2325832546
-0.1348931044 1.924233198 -0.1650476009
-0.1349528581 1.934752941 -0.09943945706
-0.1331872493 1.919103146 -0.03287853673
-0.1363029927 1.910865426 0.0327389203
-0.1463655531 2.062090397 0.1061384603
-0.1458060592 2.05928278 0.1769007742
-0.148482278 2.107535839 0.2542759776
-0.1480194628 2.111479282 0.3285639286
-0.1480136514 2.116691589 0.4041962922
-0.1467720419 2.109516859 0.4782425463
-0.1458871961 2.107437134 0.5544424057
-0.131125018 1.928365707 -0.5063021183
-0.1320674419 1.952306509 -0.4418004453
-0.1304180175 1.932919621 -0.3683241904
-0.1298470795 1.934524417 -0.3004057109
-0.128722325 1.927823663 -0.232095778
-0.1276453584 1.916740417 -0.1643503457
-0.1279339343 1.931226373 -0.09923011065
-0.1270856559 1.923524976 -0.03294834867
-0.1296314895 1.911329508 0.0327389203
-0.1397956461 2.066549778 0.1063477993
-0.1376799345 2.045863867 0.1756805927
-0.1421859264 2.123886585 0.2562259138
-0.1407539248 2.108016014 0.3279381692
-0.1406245679 2.117195368 0.4041962922
-0.1400493383 2.119738817 0.4804920554
-0.1386452764 2.104053974 0.5534071922
-0.1248897687 1.93652308 -0.5083726645
-0.1249676347 1.943010092 -0.4395509362
-0.1236695647 1.93336308 -0.3683241904
-0.1226770952 1.923115969 -0.2985284925
-0.1224538833 1.930221081 -0.2323395163
-0.1209552363 1.917174101 -0.1643503457
-0.1212777048 1.927653432 -0.09902077168
-0.1201221272 1.919965267 -0.03287853673
-0.1223911643 1.897780061 0.03249458596
-0.1330939829 2.074997663 0.1067664847
-0.1309176683 2.052297354 0.176203534
-0.1343863457 2.112459898 0.254763484
-0.1337683499 2.114409208 0.3288767636
-0.1328616142 2.105893612 0.4019065499
-0.1333857626 2.126026154 0.4818417132
-0.1312993467 2.104525089 0.5534071922
-0.1187036037 1.940783024 -0.5094079375
-0.1174751744 1.93176353 -0.4368515313
-0.1174956635 1.937681913 -0.3690874279
-0.1159638241 1.923532367 -0.2985284925
-0.1148835346 1.916766167 -0.2306333482
-0.1144776121 1.915575981 -0.1641760319
-0.1140738875 1.920090079 -0.09860207886
-0.114700079 1.93632257 -0.03315777704
-0.1164967194 1.910171509 0.03270401433
-0.1259692609 2.071440458 0.1065571457
-0.1244714558 2.058686495 0.1767264754
-0.1270111054 2.112916231 0.254763484
-0.127228111 2.122728348 0.3301282823
-0.1257428825 2.11026454 0.4026698172
-0.1253880113 2.116752148 0.4795922041
-0.1247757748 2.112663031 0.5554777384
-0.1120399013 1.943114161 -0.5099256039
-0.1110689566 1.932142496 -0.4368515313
-0.1100596562 1.926319718 -0.3667977154
-0.1099219173 1.929822922 -0.2994670868
-0.1083035842 1.913172603 -0.2301458716
-0.1077897921 1.915963888 -0.1641760319
-0.108153753 1.928434372 -0.09902077168
-0.1072721705 1.924731731 -0.03294834867
-0.1105074361 1.91653657 0.03280872852
-0.1185087264 2.067879915 0.1063477993
-0.1173992455 2.061097383 0.1769007742
-0.1202282161 2.117289543 0.2552509606
-0.119262591 2.113298416 0.3285639286
-0.1191848218 2.118510485 0.4041962922
-0.1185859144 2.121047974 0.4804920554
-0.117828548 2.12080121 0.5575482845
-0.1051759198 1.935759187 -0.5078550577
-0.1046384722 1.938356161 -0.4382012486
-0.1032486632 1.918832541 -0.3652712405
-0.1032898426 1.93216753 -0.2997799516
-0.1014136449 1.909574509 -0.2296583951
-0.1010147631 1.908352375 -0.1634787917
-0.1016317531 1.932789087 -0.09923011065
-0.1005533487 1.925094247 -0.03294834867
-0.1044651419 1.928891182 0.03301815689
-0.1112901941 2.068280935 0.1063477993
-0.1103497818 2.057496309 0.1765521467
-0.113259688 2.125625372 0.2562259138
-0.1118845195 2.11370182 0.3285639286
-0.1119964123 2.122834444 0.4049594998
-0.1108748093 2.1156106 0.479142338
-0.1105257347 2.123128891 0.5580659509
-0.09802631289 1.92839694 -0.505784452
-0.09767560661 1.934817076 -0.4373014271
-0.09655046463 1.919181228 -0.3652712405
-0.09575659037 1.916733027 -0.2972770333
-0.09514028579 1.917847514 -0.2306333482
-0.09386129677 1.898743629 -0.1626072377
-0.09527558088 1.941111445 -0.09964879602
-0.09383239597 1.925433636 -0.03294834867
-0.09712387621 1.917261362 0.03280872852
-0.1046724096 2.080625057 0.1069758385
-0.1029670462 2.053889275 0.176203534
-0.1065305397 2.139886141 0.2579320669
-0.1045060828 2.114079714 0.3285639286
-0.1045861021 2.123212576 0.4049594998
-0.1041560993 2.129609585 0.4822916389
-0.1026449054 2.113853693 0.5554777384
-0.09111116827 1.924868107 -0.5047491789
-0.09064634889 1.929306626 -0.4359517395
-0.09003376961 1.923428774 -0.3660344779
-0.08869814128 1.909162521 -0.2960255444
-0.08844557405 1.918167949 -0.2306333482
-0.0874152109 1.903040171 -0.1629558504
-0.08813586086 1.933451533 -0.09923011065
-0.08765339851 1.937735438 -0.03315777704
-0.09043120593 1.917588711 0.03280872852
-0.09768864512 2.086963177 0.1072898433
-0.09551899135 2.048265457 0.1756805927
-0.09860081971 2.130329847 0.2567133904
-0.09757857025 2.124297857 0.3301282823
-0.0969940275 2.119642496 0.4041962922
-0.09689797461 2.133853674 0.4831914306
-0.09543992579 2.118059158 0.5565130115
-0.0845611766 1.929034233 -0.505784452
-0.08357301354 1.921823621 -0.4341521263
-0.0833196044 1.923731327 -0.3660344779
-0.08220244944 1.913407683 -0.296651274
-0.08132722229 1.908548474 -0.2294146568
-0.08051790297 1.897362113 -0.1624329239
-0.0814697966 1.935742855 -0.09933478385
-0.08105609566 1.942025542 -0.03322758526
-0.08382464945 1.919890523 0.03284363076
-0.08988509327 2.075319052 0.1066618189
-0.08931358159 2.070482254 0.1775980294
-0.09099471569 2.126694918 0.2562259138
-0.09049724042 2.13251996 0.3313797414
-0.08992654085 2.127814054 0.4057227671
-0.08904024959 2.124443769 0.4809419215
-0.08836625516 2.126099825 0.5585835576
-0.07767083496 1.92545712 -0.5047491789
-0.07655210793 1.914314866 -0.4323525131
-0.07613488287 1.912240267 -0.3637447655
-0.07552330941 1.913682818 -0.296651274
-0.07427708805 1.898902774 -0.2281959504
-0.07404983044 1.901613235 -0.1627815366
-0.0748667419 1.940006971 -0.09954413027
-0.074154526 1.930294156 -0.03301815689
-0.07736363262 1.926165581 0.03294834867
-0.08308181912 2.077601194 0.1067664847
-0.08263856173 2.084717274 0.1788181961
-0.08364798129 2.128983021 0.256469667
-0.08304045349 2.12293911 0.3298153877
-0.08249797672 2.128115177 0.4057227671
-0.08154965937 2.122794628 0.4804920554
-0.08161110431 2.13410306 0.5606541038
-0.07066515088 1.91799438 -0.5026786327
-0.07048960775 1.922347903 -0.4341521263
-0.0693173483 1.908570528 -0.362981528
-0.06931998581 1.917871118 -0.2972770333
-0.06812119484 1.903106332 -0.2286834419
-0.06698755175 1.889913321 -0.1617356837
-0.06871502101 1.948228717 -0.09996281564
-0.06706663966 1.920548916 -0.03284363076
-0.07126977295 1.934405088 0.0330879651
-0.07590240985 2.079874754 0.1068711653
-0.07514457405 2.079019547 0.1782952696
-0.07665831596 2.1312325 0.2567133904
-0.07548830658 2.119267702 0.3291896582
-0.07599618286 2.144073009 0.4087756872
-0.07485194504 2.132790804 0.4827415645
-0.07402746379 2.130513668 0.5596188307
-0.064304851 1.918218136 -0.5026786327
-0.06377842277 1.922582269 -0.4341521263
-0.0629883036 1.908789873 -0.362981528
-0.06210875139 1.902306795 -0.2947740555
-0.06147719547 1.903332472 -0.2286834419
-0.06046449021 1.882159591 -0.1610384285
-0.06216722354 1.956441522 -0.100381501
-0.0610768497 1.932752848 -0.03305306286
-0.06411660463 1.922650576 0.03287853673
-0.06933539361 2.090095758 0.1073945239
-0.06824930757 2.07925725 0.1782952696
-0.06960652024 2.143391371 0.2581758201
-0.06865087152 2.125429392 0.3301282823
-0.06826220453 2.136476278 0.4072492421
-0.06765229255 2.140830278 0.4845411479
-0.06647700071 2.115300179 0.5554777384
-0.05749215186 1.914569139 -0.5016433597
-0.05705311894 1.911095977 -0.4314526916
-0.05632448941 1.908998132 -0.362981528
-0.05579960719 1.902502418 -0.2947740555
-0.05528056994 1.907494426 -0.2291709036
-0.05395157635 1.884350777 -0.1612127423
-0.05556585267 1.95264411 -0.1001721546
-0.05455505848 1.940950036 -0.03319268301
-0.05774089694 1.922852516 0.03287853673
-0.06215811893 2.094317675 0.1076038629
-0.06104879454 2.081474781 0.1784695834
-0.06238210201 2.139642 0.2576883435
-0.06140138954 2.131579876 0.3310668468
-0.06095167622 2.128841162 0.4057227671
-0.06071735546 2.146886587 0.4858908653
-0.05930801481 2.123243809 0.5575482845
-0.05080911145 1.914758086 -0.5016433597
-0.04984459653 1.90350008 -0.4296531081
-0.04966090247 1.909183145 -0.362981528
-0.04872528464 1.898744583 -0.2941483259
-0.0478874445 1.891808748 -0.2272210121
-0.04732306674 1.882535934 -0.1610384285
-0.04811214283 1.940854907 -0.09954413027
-0.04753797129 1.945135117 -0.03326249123
-0.05090410635 1.931047201 0.03301815689
-0.05432630703 2.088541746 0.1072898433
-0.05419582874 2.097608805 0.1798640788
-0.05423548818 2.127949476 0.2562259138
-0.05388666317 2.143639088 0.3329440653
-0.05324612185 2.132975578 0.4064860046
-0.05265687779 2.139302015 0.4840912223
-0.05190091208 2.138896942 0.5616893768
-0.04412453994 1.914923787 -0.5016433597
-0.04320114478 1.903662443 -0.4296531081
-0.04290739819 1.90541923 -0.3622182906
-0.0420984365 1.898902893 -0.2941483259
-0.04106647894 1.882041216 -0.2260023206
-0.04075279832 1.882689595 -0.1610384285
-0.04133648798 1.941010952 -0.09954413027
-0.04074830189 1.945289135 -0.03326249123
-0.04425410181 1.935211539 0.0330879651
-0.04694512114 2.084725142 0.1070805043
-0.04700643569 2.103760719 0.1803869903
-0.04706957936 2.140033484 0.2576883435
-0.04627686739 2.137889385 0.332005471
-0.04588505626 2.137073994 0.4072492421
-0.04510613158 2.135576248 0.4831914306
-0.04435364529 2.135202408 0.5606541038
-0.03728838637 1.907340169 -0.4995728135
-0.03663017601 1.907698274 -0.4305528998
-0.03595670685 1.889854312 -0.3591653705
-0.03554304317 1.902988434 -0.2947740555
-0.03460620716 1.888127327 -0.2267335206
-0.03399941698 1.872860074 -0.1601668745
-0.03484568745 1.957118869 -0.100381501
-0.03385251015 1.939421415 -0.03315777704
-0.03757656738 1.93935287 0.03315777704
-0.03978120908 2.090867043 0.1073945239
-0.03958798945 2.099927902 0.1800383776
-0.03967205808 2.14415431 0.2581758201
-0.03866996616 2.130137682 0.3307540119
-0.03856558725 2.145072699 0.4087756872
-0.03768712282 2.137669325 0.4836413562
-0.0369005762 2.135344267 0.5606541038
-0.03047651425 1.897800684 -0.4969846606
-0.02990911715 1.903917551 -0.4296531081
-0.02948294394 1.897820234 -0.3606918156
-0.02877967432 1.895200372 -0.2935225964
-0.02807359584 1.89220643 -0.2272210121
-0.02734437399 1.864998698 -0.1594696194
-0.02807050385 1.961222768 -0.1005908474
-0.02711079083 1.941527367 -0.03319268301
-0.03061566502 1.927475452 0.03294834867
-0.03260800987 2.098981142 0.1078132018
-0.03234887496 2.106029987 0.180561319
