# .PCD v0.7 - Point Cloud Data file format
VERSION 0.7
FIELDS x y z
SIZE 4 4 4
TYPE F F F
COUNT 1 1 1
WIDTH 1261
HEIGHT 1
VIEWPOINT 0 0 0 1 0 0 0
POINTS 1261
DATA ascii
-2.705680847 4.041696072 0.4218084216
-2.701154709 4.037983418 0.5913665891
-3.450793982 5.162525177 0.9768284559
-3.463914156 5.184111118 1.203686118
-3.443361521 5.15724802 1.421687365
-3.418576717 5.123998642 1.6388942
-1.834846854 2.757488966 -0.8758957386
-1.895903111 2.851401329 -0.7805767655
-1.98414433 2.985247612 -0.6885016561
-3.434937716 5.177831173 0.9774541855
-3.433860302 5.178173542 1.199488163
-3.423184156 5.165987968 1.420787454
-3.397469044 5.13106966 1.63734138
-1.542034388 2.335068703 -0.7382039428
-1.859104753 2.817339182 -0.7693291903
-1.936957955 2.936434984 -0.6755266786
-3.408151388 5.176591396 0.9749512076
-3.416844606 5.191768169 1.199869871
-3.3944242 5.161623001 1.416288495
-3.379538536 5.142897129 1.63734138
-1.521167397 2.321047783 -0.7319923043
-1.858867049 2.838484764 -0.7733783722
-1.882609725 2.875831604 -0.6598803401
-3.383576632 5.178534985 0.9730739594
-3.391187191 5.192156792 1.197198629
-3.367864132 5.160385609 1.412689328
-3.359453678 5.151426315 1.636306167
-1.50041604 2.306910515 -0.7257806659
-1.880045652 2.893910408 -0.6625516415
-3.355808496 5.175396919 0.9702582359
-3.370905638 5.200668335 1.196435332
-3.343475342 5.162295818 1.409989834
-3.330956459 5.146903038 1.631129742
-1.491307139 2.310510397 -0.7252629995
-1.521084189 2.358451128 -0.6379577518
-1.884826422 2.923555613 -0.6678943038
-3.333447695 5.18043375 0.9690066576
-3.3474195 5.204148293 1.194527268
-3.323328733 5.170655727 1.409090042
-3.300441265 5.13899374 1.624917984
-1.486358166 2.320582628 -0.7268159389
-1.504437923 2.350615978 -0.6343585849
-1.893653512 2.959885359 -0.6747633815
-3.315342903 5.192038536 0.9690066576
-3.314445972 5.192632198 1.189184546
-3.301066637 5.175653934 1.407290459
-3.28040719 5.147224426 1.62388289
-1.475140452 2.320865393 -0.7252629995
-1.486821175 2.341047525 -0.6303094625
-1.903303623 2.997968674 -0.6820141673
-3.292968512 5.196906567 0.9677551985
-3.292099476 5.197535038 1.187658072
-3.27255702 5.170679569 1.402791381
-3.260355949 5.155377388 1.622847557
-1.465998769 2.324366808 -0.7247454524
-1.478639603 2.346223831 -0.6303094625
-3.26324296 5.189973831 0.9643136859
-3.271845341 5.20567131 1.186894774
-3.246197462 5.168868065 1.399192214
-3.240285397 5.163454533 1.621812224
-1.451727509 2.319643974 -0.7216395736
-1.469408154 2.349718332 -0.6298595667
-3.237788439 5.189600945 0.9621236324
-3.251577616 5.213728428 1.186131597
-3.226075172 5.176859856 1.398292422
-3.209989309 5.155054569 1.615600586
-1.437507153 2.314850092 -0.7185336947
-1.466335058 2.363112211 -0.6321091056
-3.215493441 5.194153786 0.9608721733
-3.221993208 5.206683159 1.181933761
-3.20183444 5.178145409 1.395593047
-3.183850288 5.153081417 1.611459494
-1.430431008 2.321499109 -0.7190513611
-1.458076596 2.368216515 -0.6321091056
-3.193208218 5.19861269 0.959620595
-3.194555044 5.202841282 1.178499222
-3.187817097 5.195933819 1.397392631
-3.161805868 5.157574654 1.609388947
-1.428365111 2.33636713 -0.7221571803
-1.450816393 2.374955177 -0.6325589418
-3.176068783 5.211415291 0.9599335194
-3.177394152 5.215637684 1.178880811
-3.155473232 5.183726311 1.391093969
-3.1397686 5.161977291 1.607318401
-1.430219531 2.357856512 -0.7273336053
-1.444537997 2.383337736 -0.6334587336
-3.146615982 5.203874588 0.9564919472
-3.158154249 5.225016117 1.178499222
-3.131315708 5.184700012 1.388394594
-3.117736816 5.166291237 1.605247855
-1.420984745 2.361179113 -0.7268159389
-3.120192051 5.199038029 0.9536761642
-3.134849072 5.227588654 1.176591158
-3.10809207 5.185027599 1.3856951
-3.094630003 5.166657925 1.602141976
-1.414137006 2.36753726 -0.7273336053
-2.77703476 4.658519268 -0.8523066044
-3.098891497 5.202566624 0.9524246454
-3.106449842 5.219398975 1.172393322
-3.090882063 5.195305347 1.3856951
-3.06760931 5.160285473 1.596965671
-1.504791975 2.538392782 -0.7790973783
-2.777665615 4.694903374 -0.8573125005
-3.079708815 5.211651325 0.9521117806
-3.08013916 5.214457512 1.168958783
-3.070748329 5.20270586 1.384795427
-3.045651197 5.164306641 1.594895124
-1.539013028 2.61689949 -0.8018734455
-2.797255516 4.765901566 -0.8685758114
-3.057500124 5.215553761 0.9508603215
-3.061917067 5.225178242 1.168958783
-3.044689894 5.199940205 1.381196141
-3.029557705 5.178240776 1.595930338
-1.534735799 2.63059926 -0.804461658
-3.035305023 5.219364166 0.9496088624
-3.041687012 5.232439518 1.168195605
-3.020648479 5.200425148 1.378496647
-3.007586241 5.182100296 1.593859792
-1.364910007 2.358384848 -0.7185336947
-3.008184671 5.21452713 0.9467930198
-3.020460367 5.237923622 1.167050719
-2.998586893 5.204183102 1.376697063
-2.983694315 5.182522297 1.590753913
-1.326851726 2.311198235 -0.7024869323
-1.328541517 2.316013336 -0.6064646244
-2.988000631 5.221567154 0.9461672902
-2.995335579 5.236505032 1.164379358
-2.980401278 5.21461916 1.376697063
-2.957922697 5.179485321 1.58661294
-1.335574865 2.346265793 -0.7118044496
-1.324303389 2.32741189 -0.6082642078
-2.834121227 4.990980148 -0.6995865703
-2.966828823 5.226812363 0.9452286363
-2.969344139 5.23549366 1.161707997
-2.957426786 5.218725204 1.37489748
-2.936014891 5.183055878 1.584542394
-1.346372604 2.384558678 -0.7221571803
-1.313849568 2.328855276 -0.6073644161
-2.870026112 5.108056068 -0.1015712097
-2.822820663 5.001532078 0.09954673052
-2.82847929 5.015647411 0.2995721698
-2.814941645 4.993678093 0.4978081882
-2.850777626 5.06137991 0.708117485
-2.947653055 5.237650871 0.9452286363
-2.94623661 5.237272739 1.159799933
-2.933461428 5.218824863 1.372198105
-2.91699934 5.193781376 1.584542394
-1.348424554 2.407784224 -0.727851212
-1.304761291 2.331726551 -0.6069145799
-1.323334455 2.365887165 -0.5186816454
-2.9378829 5.256719112 -0.9471058846
-2.937703371 5.260709286 -0.7346850038
-2.932865143 5.25420475 -0.5227348208
-2.941735506 5.278745651 -0.1047824472
-2.904736757 5.199541569 0.7261541486
-2.924536705 5.239284515 0.943664372
-2.926025152 5.244094849 1.159036756
-2.900042057 5.201800346 1.364999652
-2.896972656 5.200556278 1.583507061
-1.34939158 2.42936492 -0.7330275774
-1.295667768 2.334563017 -0.6064646244
-1.284590244 2.315555811 -0.5064698458
-2.931964159 5.289403439 -0.9511731863
-2.931823969 5.293507576 -0.7378535867
-2.913542509 5.262666225 -0.5225604773
-2.933223009 5.30258131 -0.3153776228
-2.928083658 5.295472622 -0.1049220785
-2.931496859 5.279864788 0.1047126427
-2.921239376 5.263554096 0.3132841885
-2.920114279 5.265858173 0.5230833888
-2.898112774 5.230486393 0.7290790081
-2.891834259 5.221304893 0.9386584163
-2.896293163 5.233664513 1.154457331
-2.876210213 5.201658726 1.362300277
-2.864757538 5.183082581 1.575224757
-1.346496701 2.444212675 -0.7361334562
-1.275699258 2.316655159 -0.6006159186
-1.274607301 2.316585302 -0.5057066679
-2.900129557 5.273133278 -0.946480155
-2.915211439 5.304940224 -0.7380973697
-2.904745102 5.290268898 -0.5243035555
-2.913701773 5.308776379 -0.3151682615
-2.911505222 5.309167385 -0.104991883
-2.915902853 5.293058872 0.1047824472
-2.919221878 5.303463459 0.3150635958
-2.904596806 5.281256199 0.52360636
-2.894141674 5.264421463 0.732491374
-2.871690035 5.22790432 0.9380326867
-2.885537148 5.255286217 1.157128692
-2.862692833 5.218002796 1.36409986
-2.841077089 5.182885647 1.572118998
-1.336530328 2.445274591 -0.7350981832
-1.27134037 2.327935457 -0.6024155021
-1.268798947 2.324246168 -0.5064698458
-2.871298552 5.264149189 -0.9430385828
-2.890027285 5.302881718 -0.7363911271
-2.886259794 5.300376415 -0.5243035555
-2.891334534 5.311897755 -0.3147495687
-2.88531065 5.305245399 -0.1047126427
-2.893574715 5.296185017 0.1046428308
-2.898776293 5.310115814 0.3148542345
-2.890886068 5.2978549 0.5243035555
-2.874795675 5.272749424 0.732247591
-2.852477312 5.236162186 0.9377198219
-2.859662533 5.251533031 1.154075623
-2.846324921 5.231386662 1.364999652
-2.826657534 5.199561119 1.574189425
-1.330320358 2.455251932 -0.7366511226
-1.267847419 2.340926647 -0.6046649814
-1.252797246 2.31506753 -0.5034168959
-2.851047039 5.272899628 -0.942725718
-2.493956327 4.614398956 -0.6388956904
-2.510831356 4.649500847 -0.4585881531
-2.863309145 5.306640625 -0.3138075173
-2.866775274 5.315284252 -0.1047126427
-2.872210741 5.300979137 0.1045381203
-2.867862701 5.29736805 0.31349352
-2.867655993 5.30140543 0.52360636
-2.843155861 5.258305073 0.7288352847
-2.830427885 5.239135265 0.9364683628
-2.840396643 5.261978626 1.154075623
-2.820657492 5.229777336 1.361850262
-2.80665803 5.205994606 1.57315433
-1.321741223 2.459881306 -0.7366511226
-1.262946725 2.352425575 -0.6064646244
-1.233567715 2.298667908 -0.4988375604
-2.830757856 5.279336929 -0.9420999885
-2.478770256 4.624826431 -0.6391394138
-2.498347282 4.665262699 -0.4592853785
-2.51497221 4.700248718 -0.2771723568
-2.845373154 5.319969177 -0.1046079323
-2.851817608 5.309709072 0.1045032144
-2.842741966 5.295028687 0.3127608001
-2.8472507 5.307871342 0.5232577324
-2.824800491 5.270441055 0.7290790081
-2.813989401 5.252465248 0.9370940328
-2.814598083 5.258015633 1.151022792
-2.794104338 5.22192049 1.357351303
-2.784823895 5.208946705 1.571083784
-1.309033394 2.455726385 -0.7340628505
-1.252389908 2.351440907 -0.6051149368
-1.225016117 2.301012516 -0.4984559119
-2.813233852 5.288695812 -0.9420999885
-2.47180891 4.648795605 -0.6413331032
-2.480059624 4.668242931 -0.4587624371
-2.496563435 4.703269958 -0.2768583596
-2.823967934 5.322309017 -0.1044683158
-2.828550577 5.30854845 0.104293786
-2.827043772 5.307952881 0.3129701614
-2.824016094 5.306731701 0.5222118497
-2.804512739 5.274520397 0.7283477783
-2.779867172 5.230370522 0.9314624667
-2.795305729 5.263851643 1.150259495
-2.774946213 5.227714539 1.356451511
-2.758484602 5.201085091 1.565907359
-1.299980164 2.45834589 -0.7335452437
-1.246406555 2.35902667 -0.6060147285
-1.213712096 2.298118114 -0.4969294369
-2.789228439 5.285766125 -0.9399098754
-2.452675581 4.649942875 -0.64035815
-2.458992958 4.665865421 -0.4577165544
-2.4753685 4.700920105 -0.2762303054
-2.801647186 5.322796345 -0.104293786
-2.809063196 5.314362526 0.104223974
-2.8094275 5.317297459 0.3129701614
-2.798032761 5.300209045 0.5206430554
-2.787007332 5.283790588 0.7283477783
-2.768036127 5.250044346 0.9333396554
-2.770513535 5.259197712 1.147206545
-2.753961802 5.229990959 1.354651809
-2.732225657 5.193108559 1.560731053
-1.29451251 2.46777606 -0.7350981832
-1.238576293 2.363147259 -0.6060147285
-1.209728241 2.309086561 -0.4984559119
-2.763438463 5.27923584 -0.9370940328
-2.441842318 4.666845322 -0.6415768266
-2.441659451 4.670463562 -0.4573679566
-2.461616278 4.712643147 -0.2764396667
-2.7867558 5.337376118 -0.1043985039
-2.783066034 5.307710648 0.1039098352
-2.78806901 5.319509506 0.3125514686
-2.779515505 5.307694435 0.5204687715
-2.75934577 5.273657322 0.7256666422
-2.74145484 5.241691113 0.9302110076
-2.744875669 5.252695084 1.143772006
-2.736604452 5.239094257 1.354651809
-2.718565941 5.208990097 1.56280148
-1.287268043 2.478095293 -0.7366511226
-1.167138219 2.248754025 -0.5749714971
-1.209489584 2.331351519 -0.5022720695
-2.413144588 4.659405231 -0.6391394138
-2.423808575 4.681996346 -0.4575422704
-2.433504105 4.704746246 -0.2753929496
-2.765309095 5.348519325 -0.1043985039
-2.759895325 5.315289497 0.1038400233
-2.758413553 5.314703465 0.3116094172
-2.75543642 5.313502789 0.5199458003
-2.7299335 5.268829346 0.7234730124
-2.726751804 5.264931679 0.9324010611
-2.721961975 5.260184765 1.143008709
-2.710161448 5.241855145 1.352402449
-2.694084883 5.21299696 1.560731053
-1.27684021 2.479138851 -0.7356157899
-1.158782125 2.250880003 -0.5745216012
-1.198650956 2.33032155 -0.501127243
-2.407449484 4.690429211 -0.4575422704
-2.419711113 4.716344833 -0.2756022811
-2.737498999 5.340344906 -0.1040494516
-2.741337061 5.322635651 0.1038051173
-2.734362841 5.313643456 0.3109813929
-2.734137535 5.317773342 0.5194228888
-2.716079473 5.284913063 0.7244479656
-2.696625471 5.251574039 0.9283337593
-2.703608274 5.267434597 1.14262712
-2.682980537 5.231739998 1.347453356
-2.675872803 5.222368717 1.560731053
-1.265097141 2.476477861 -0.7335452437
-1.168636918 2.289625406 -0.5835196376
-1.186456084 2.325539351 -0.499219209
-1.233097672 2.419045687 -0.4233632088
-1.228215218 2.411547422 -0.3271538615
-2.386544704 4.68992424 -0.4566707015
-2.408667326 4.735443115 -0.2762303054
-2.70887661 5.330257893 -0.1036655009
-2.720922947 5.328609467 0.1037353054
-2.713073492 5.317819595 0.3106673658
-2.71105814 5.316160679 0.5183770061
-2.696712494 5.292594433 0.7242042422
-2.668420553 5.241590023 0.9248922467
-2.685205936 5.276839256 1.14262712
-2.664703131 5.241073132 1.347453356
-2.650628567 5.217897892 1.556589842
-1.239434361 2.448349476 -0.7237101197
-1.201111436 2.373675346 -0.6042151451
-1.179695606 2.333376646 -0.4999823868
-1.222441196 2.420022964 -0.4227374792
-1.217105031 2.410504103 -0.3264226317
-2.365671396 4.689333439 -0.4557991624
-2.390394688 4.742456436 -0.2761256397
-2.690252542 5.339682102 -0.1036655009
-2.698694468 5.330937862 0.1035956889
-2.695394516 5.329041004 0.3107720613
-2.684367418 5.311835766 0.5169824958
-2.673744917 5.29311657 0.7229855657
-2.655446768 5.261454582 0.9267693758
-2.658774614 5.272623062 1.139574289
-2.643720865 5.247324944 1.346553683
-2.621970177 5.206414223 1.550378084
-1.22308135 2.437122107 -0.7190513611
-1.20637846 2.405934334 -0.6114135981
-1.181220293 2.356786728 -0.5041801333
-1.209564447 2.415443659 -0.4211731255
-1.204241157 2.405861855 -0.3252039552
-2.345724344 4.690434456 -0.4551019073
-2.364899635 4.732904911 -0.2750789225
-2.676959038 5.359773159 -0.1038749218
-2.672859907 5.328282356 0.1033513546
-2.676777601 5.338416576 0.3107720613
-2.669377327 5.328299522 0.5176797509
-2.64899683 5.292229652 0.7215231061
-2.63353014 5.263624668 0.9255179167
-2.633331776 5.267822266 1.13652122
-2.626306534 5.256062031 1.346553683
-2.603781462 5.215534687 1.550378084
-1.19777751 2.406574488 -0.7086986303
-1.192318916 2.397707462 -0.6082642078
-1.181263566 2.376512766 -0.5076147318
-1.192760825 2.401749611 -0.4180444479
-1.193609118 2.404507875 -0.3244727552
-2.337238073 4.712466717 -0.4564963877
-2.345643282 4.7335639 -0.2746602595
-2.655619144 5.36145401 -0.1037353054
-2.655177116 5.337115765 0.1033513546
-2.651943922 5.332957745 0.3099346757
-2.647259474 5.328200817 0.5168081522
-2.621724367 5.281424999 0.71884197
-2.617815495 5.275868893 0.9261437058
-2.614105701 5.273007393 1.135758042
-2.601938725 5.250774384 1.342954397
-2.588187218 5.227602005 1.551413417
-1.185514569 2.40187192 -0.7061104178
-1.184361696 2.401648045 -0.6082642078
-1.169903636 2.373373747 -0.5060882568
-1.180426598 2.396831036 -0.416480124
-1.181702018 2.401535273 -0.323497802
-2.317259312 4.713444233 -0.4557991624
-2.333457708 4.748485565 -0.2750789225
-2.628076077 5.352740288 -0.1033862606
-2.636577845 5.344099045 0.1033164561
-2.62448287 5.324266434 0.3088879585
-2.627815962 5.333375931 0.5164595842
-2.604194641 5.290091038 0.71884197
-2.591538191 5.269020557 0.9233278632
-2.59833622 5.285171509 1.13652122
-2.576722145 5.245831013 1.33935523
-2.5682199 5.233137131 1.550378084
-1.160578728 2.373226881 -0.6962752938
-1.180250645 2.414520979 -0.6105137467
-1.160334706 2.37588191 -0.5057066679
-1.177698135 2.41356802 -0.4186701775
-1.169830561 2.398509264 -0.3225228488
-2.302538633 4.725085735 -0.4561477602
-2.316913128 4.758800983 -0.2751835883
-2.599751234 5.342102051 -0.1030023098
-2.616151333 5.349676132 0.1032466441
-2.604129314 5.329805851 0.3086785972
-2.603881598 5.33401823 0.5155879855
-2.585714102 5.29914856 0.71884197
-2.568803072 5.269156456 0.9217635393
-2.575507641 5.28760004 1.134994745
-2.557479143 5.255239487 1.33935523
-2.543175459 5.228172779 1.546237111
-1.148916602 2.370310783 -0.6942047477
-1.175639391 2.427600384 -0.612763226
-1.150323868 2.376383305 -0.5049434304
-1.168405294 2.415886164 -0.4183573127
-1.170091391 2.420449972 -0.3249602318
-2.279097557 4.718742371 -0.4547532797
-2.300286531 4.766860485 -0.2751835883
-2.581955194 5.352946281 -0.1030372083
-2.589549303 5.344832897 0.1029673964
-2.58202529 5.331674099 0.3082599342
-2.579170465 5.330521107 0.5143678188
-2.564545155 5.305016041 0.7183545232
-2.547814846 5.2727561 0.920824945
-2.551914454 5.28594923 1.132705092
-2.538342714 5.260181904 1.338455319
-2.519877672 5.226576805 1.543131232
-1.141050577 2.374107361 -0.6942047477
-1.148181438 2.391081333 -0.6024155021
-1.144136786 2.383724451 -0.5057066679
-1.154408932 2.407279015 -0.4161672294
-2.266019821 4.731664658 -0.455276221
-2.281019211 4.767255306 -0.2747649252
-2.563328266 5.359674454 -0.1030023098
-2.566616774 5.34257555 0.1027579755
-2.56433177 5.340206623 0.3082599342
-2.559756994 5.335451126 0.5140191913
-2.540075541 5.299170017 0.7164045572
-2.528609514 5.277612209 0.9201991558
-2.527591228 5.28021574 1.129652143
-2.522568703 5.272086143 1.33935523
-2.499199867 5.227931976 1.541060686
-1.138989329 2.390085459 -0.6978282332
-1.137732148 2.389597654 -0.6010658145
-1.138757229 2.392823696 -0.5068514943
-1.153205037 2.425366402 -0.4186701775
-1.155292273 2.431944609 -0.3254477084
-2.252024412 4.742753506 -0.4556248486
-2.26006031 4.763967037 -0.2741368711
-2.542889595 5.364976406 -0.1029324979
-2.545444489 5.343836308 0.1026183516
-2.542243481 5.341911316 0.3078412414
-2.540336847 5.340312958 0.5136705637
-2.5182271 5.298600674 0.7151858807
-2.510170221 5.286407471 0.9201991558
-2.510066032 5.288568974 1.129652143
-2.497469425 5.266773701 1.335756063
-2.48258853 5.240116119 1.542096019
-1.128163815 2.388806343 -0.6962752938
-1.140195131 2.416465521 -0.6069145799
-1.127047181 2.389681578 -0.5053250194
-1.143890262 2.427589655 -0.4183573127
-1.142568946 2.426982164 -0.324229002
-2.232063055 4.743373871 -0.4549275637
-2.243417978 4.771826744 -0.2741368711
-2.518196583 5.361149311 -0.1026881635
-2.530191422 5.359922409 0.1027579755
-2.516764164 5.33630228 0.3070038855
-2.5199821 5.345542908 0.5133219361
-2.498871565 5.305562019 0.7149421573
-2.484974623 5.280838013 0.9176962376
-2.491591215 5.297297955 1.129652143
-2.472440004 5.261349201 1.332156777
-2.464283228 5.248749733 1.542096019
-1.124731183 2.403228521 -0.6993811727
-1.140007734 2.438083649 -0.6114135981
-1.112048149 2.379372358 -0.5022720695
-1.145438194 2.453046799 -0.4221117496
-1.139126301 2.441749096 -0.3256914616
-2.212978363 4.74791193 -0.4545789659
-2.230122328 4.786870003 -0.2745555639
-2.494403124 5.35902977 -0.1024787351
-2.509772778 5.365098 0.1026881635
-2.496428728 5.341435909 0.3067945242
-2.497935534 5.347085953 0.5126247406
-2.479495287 5.312454224 0.7146983743
-2.460680723 5.276947975 0.9155060649
-2.46976614 5.298846245 1.128125668
-2.45405817 5.269948006 1.332156777
-2.439428568 5.243306637 1.537954807
-1.158163786 2.498474836 -0.7262982726
-1.125754833 2.429671049 -0.6082642078
-1.100846291 2.378087759 -0.501127243
-1.147219658 2.480535746 -0.4261790216
-1.142256856 2.470937252 -0.3291037679
-2.1930511 4.748372078 -0.4538817406
-2.216745615 4.804079533 -0.2750789225
-2.470657349 5.356808662 -0.1022692993
-2.485982418 5.362941265 0.1024787351
-2.477769613 5.350117207 0.3067945242
-2.473299265 5.345356464 0.5115788579
-2.4609375 5.321076393 0.7146983743
-2.441418171 5.283711433 0.9151932597
-2.448683739 5.30429697 1.12736249
-2.433095455 5.275367737 1.331256986
-2.416256905 5.241263866 1.534849048
-1.163142681 2.532346725 -0.7350981832
-1.085957408 2.366476536 -0.5911679268
-1.094174743 2.385484695 -0.5018904805
-2.138425112 4.666418076 -0.806314826
-2.174402237 4.749302387 -0.6362145543
-2.179780006 4.763244629 -0.4545789659
-2.191658735 4.793623447 -0.2740322053
-2.453498363 5.371285439 -0.1023740172
-2.459636211 5.357478142 0.1021994948
-2.458974838 5.360978127 0.3068991899
-2.452965975 5.350335121 0.5112302303
-2.435630083 5.317427635 0.7129922509
-2.423681498 5.296216488 0.9158189893
-2.425251961 5.302100658 1.125072718
-2.41466713 5.283828259 1.331256986
-2.397031546 5.2500844 1.534849048
-1.158297658 2.545182943 -0.737686336
-1.056718469 2.324129581 -0.5794705153
-1.080155849 2.376778126 -0.499219209
-2.124572039 4.679250717 -0.8072534204
-2.15288949 4.746017933 -0.6347521544
-2.161493063 4.767195702 -0.4542303383
-2.171614885 4.793968201 -0.2736135423
-2.43473506 5.379816532 -0.1023740172
-2.43926239 5.362390995 0.1021296829
-2.436116219 5.360437393 0.3063758314
-2.435921431 5.362493038 0.5115788579
-2.408851624 5.30782032 0.7105548382
-2.403546333 5.301046371 0.9151932597
-2.406730413 5.310533524 1.125072718
-2.389776468 5.278023243 1.3276577
-2.378689289 5.258419991 1.534849048
-1.149406672 2.54921031 -0.737686336
-1.075012445 2.386437893 -0.5943172574
-1.076689363 2.391274691 -0.501508832
-2.113088846 4.697446823 -0.8091306686
-2.13386941 4.748071194 -0.6340209246
-2.14484024 4.774711132 -0.4542303383
-2.158955097 4.810630322 -0.2741368711
-2.409514189 5.371441364 -0.1020598784
-2.420530558 5.370872021 0.1021296829
-2.410945177 5.352097034 0.30543378
-2.413918495 5.363696098 0.5108816028
-2.39193821 5.319817066 0.7110423446
-2.381906509 5.299978733 0.9136289358
-2.387375593 5.317111015 1.124691129
-2.366551161 5.275665283 1.324958324
-2.36123991 5.266278744 1.534849048
-1.13734889 2.546151638 -0.7356157899
-1.096489429 2.455828428 -0.6109636426
-1.065136075 2.387847185 -0.4999823868
-2.096694231 4.702624798 -0.8088178039
-2.118111134 4.755121708 -0.6340209246
-2.128159046 4.782169342 -0.4542303383
-2.141368151 4.814112663 -0.2739275098
-2.389126778 5.376163483 -0.1019900665
-2.405967712 5.386173725 0.1022692993
-2.393874645 5.36412859 0.3056431413
-2.393556833 5.368450642 0.5105329752
-2.374282598 5.327720642 0.7110423446
-2.357766151 5.295629501 0.9114388824
-2.368930817 5.323205471 1.12430954
-2.347461224 5.279922009 1.324058533
-2.33656764 5.260365963 1.530707955
-1.12498951 2.54107666 -0.7330275774
-1.083968282 2.450730324 -0.6087141633
-1.056418419 2.389570236 -0.4996007979
-2.081065416 4.71172142 -0.8091306686
-2.10150075 4.762485981 -0.6340209246
-2.105858088 4.774616718 -0.4528358579
-2.126160145 4.825214863 -0.2741368711
-2.367929697 5.378979206 -0.101885356
-2.380679369 5.379909515 0.1019900665
-2.375137091 5.372451305 0.3056431413
-2.367689133 5.358133316 0.5087898374
-2.356473684 5.337790966 0.711286068
-2.336078882 5.296597004 0.910187304
-2.344792128 5.31886673 1.121638179
-2.330588579 5.291650295 1.324958324
-2.313521624 5.257880688 1.527602077
-1.116889119 2.546756983 -0.7335452437
-1.073842406 2.450929642 -0.6078143716
-1.051221609 2.40043664 -0.501127243
-2.06064558 4.709908962 -0.8075663447
-2.088042736 4.777068615 -0.6349958777
-2.090772629 4.785590172 -0.4531844556
-2.107707024 4.82894516 -0.2739275098
-2.349138021 5.387212753 -0.101885356
-2.353855848 5.369873047 0.1016410217
-2.35316515 5.373390675 0.3052244186
-2.347372293 5.362716198 0.5084412694
-2.330669641 5.329614162 0.7090924382
-2.315993309 5.301099777 0.9095616341
-2.32228446 5.318022728 1.119730115
-2.312101603 5.299753666 1.324958324
-2.295155048 5.265923977 1.527602077
-1.104143262 2.541780949 -0.7309570909
-1.063729405 2.451087475 -0.6069145799
-1.063148379 2.450920105 -0.5110492706
-2.042622328 4.713447571 -0.8069406152
-2.06504631 4.76975441 -0.6330459118
-2.07484746 4.794687748 -0.4533587992
-2.082913399 4.817940235 -0.2728807926
-2.331261396 5.394972801 -0.101885356
-2.331912756 5.370719433 0.1015014052
-2.330561638 5.370172501 0.3045964241
-2.330224752 5.374532223 0.5087898374
-2.305738211 5.323145866 0.7071425319
-2.298402548 5.308750153 0.9095616341
-2.301367283 5.320691109 1.118585229
-2.288951159 5.297058582 1.322258949
-2.27921319 5.277052879 1.528637409
-1.018911839 2.368163109 -0.6791932583
-1.04327786 2.425957918 -0.5997161269
-1.073185682 2.497908354 -0.5202081203
-2.032437801 4.73290062 -0.8091306686
-2.045303583 4.767455578 -0.6318272948
-2.061238766 4.809225559 -0.4540560246
-2.071642637 4.835836411 -0.2735088468
-2.309266329 5.395724297 -0.1017457321
-2.314878702 5.380259991 0.1015363038
-2.303915739 5.359924793 0.3035497069
-2.309878826 5.378972054 0.5084412694
-2.28650856 5.327114105 0.7066550255
-2.273630619 5.302216053 0.9070586562
-2.287578821 5.337316036 1.120493412
-2.263700724 5.286706448 1.317759871
-2.257738352 5.277872086 1.526566744
-1.002719641 2.351980686 -0.6734992266
-1.053129673 2.472614288 -0.6105137467
-1.071048856 2.515904188 -0.5232610703
-2.157382727 5.07262516 -0.8663856983
-2.036413193 4.792835236 -0.634264648
-2.041383982 4.806865692 -0.4531844556
-2.059431314 4.854070187 -0.2741368711
-2.285116196 5.388623714 -0.1014664918
-2.295301199 5.386467934 0.1015014052
-2.289258003 5.374886513 0.30396837
-2.288907051 5.379270077 0.5077440143
-2.271004438 5.342370987 0.7076299787
-2.251398802 5.298818588 0.9051814079
-2.263562918 5.332618237 1.117821932
-2.243712425 5.290987492 1.31686008
-2.235701561 5.274657726 1.523461103
-1.038105845 2.459934235 -0.6064646244
-1.066836953 2.530482054 -0.5255507827
-2.142851591 5.085211754 -0.8673243523
-2.020507097 4.799562454 -0.634264648
-2.022276163 4.808451176 -0.4526615143
-2.042547941 4.859031677 -0.2740322053
-2.266291142 5.396568298 -0.1014664918
-2.275094271 5.388522625 0.1013966873
-2.268930912 5.379163742 0.3037590384
-2.265475035 5.376210213 0.5066981316
-2.250195026 5.342554569 0.7066550255
-2.229825258 5.299361706 0.9039299488
-2.248151302 5.345524311 1.118966818
-2.224645615 5.29480505 1.315960288
-2.211292982 5.268179893 1.519319892
-1.038750887 2.485651016 -0.7102515101
-1.031655073 2.471095562 -0.6082642078
-1.065114975 2.552493811 -0.5293669701
-2.121788502 5.089756012 -0.8666985631
-2.003590822 4.810950279 -0.6347521544
-2.006934643 4.821350098 -0.4531844556
-2.020042181 4.857617378 -0.2735088468
-2.244195223 5.399298191 -0.1013617739
-2.248219728 5.382457256 0.101117447
-2.249198437 5.387444019 0.3037590384
-2.24421978 5.380800247 0.506349504
-2.226608992 5.343826294 0.7056800723
-2.213423729 5.314793587 0.9051814079
-2.215541601 5.325115681 1.112860918
-2.208785295 5.314105511 1.318659782
-2.191970348 5.276248932 1.519319892
-1.021943331 2.46962595 -0.704557538
-1.031648397 2.494311571 -0.6132131815
-1.059198022 2.563453674 -0.530893445
-2.106407642 5.100415707 -0.8673243523
-1.98156786 4.802887917 -0.6328021884
-1.990093827 4.828325748 -0.4531844556
-2.000878334 4.856903076 -0.2730901539
-2.226857901 5.410797119 -0.1014315933
-2.229594946 5.388034821 0.101082541
-2.2273283 5.387879372 0.3033403456
-2.226945639 5.392283916 0.5066981316
-2.202817917 5.336500645 0.7037302256
-2.193353176 5.318834782 0.904555738
-2.198620081 5.334248066 1.113242626
-2.186700106 5.31058836 1.315960288
-2.173538208 5.28386879 1.519319892
-1.013748527 2.473001003 -0.704557538
-1.05099833 2.566426277 -0.6303094625
-1.047717214 2.559684038 -0.5293669701
-2.096813917 5.127850533 -0.8707658648
-1.961788893 4.802424431 -0.6318272948
-1.977082729 4.842278004 -0.4538817406
-1.982404828 4.860159397 -0.2728807926
-2.205691814 5.412982464 -0.1013268754
-2.209255934 5.392084599 0.1010127291
-2.202455997 5.380833626 0.3025029898
-2.209050417 5.399639606 0.5066981316
-2.182673216 5.340483189 0.7032427192
-2.17327857 5.322801113 0.9039299488
-2.179985285 5.341890812 1.113242626
-2.160791159 5.300144672 1.311461329
-2.15216732 5.284266949 1.517249346
-1.009468198 2.48726511 -0.7076632977
-1.742766738 4.298370361 -1.060865879
-2.040101767 5.03424263 -1.047604203
-2.07593751 5.127813339 -0.8695144057
-1.947991371 4.816604137 -0.6328021884
-1.957182288 4.841760159 -0.4531844556
-1.969915748 4.878160477 -0.2735088468
-2.180799723 5.40581274 -0.1010476425
-2.192676783 5.405322075 0.101117447
-2.1836586 5.388489246 0.3025029898
-2.185702085 5.396236897 0.5056522489
-2.164019346 5.348069191 0.7032427192
-2.148023844 5.313871861 0.9011141062
-2.16206193 5.351287842 1.113624215
-2.143737078 5.311268806 1.312361121
-2.130819798 5.284579754 1.5151788
-1.000059128 2.488981485 -0.7071456909
-1.729204655 4.308043957 -1.061765552
-1.981579423 4.939296722 -1.026233673
-2.138127804 5.334890366 -0.903617084
-1.929689169 4.819688797 -0.632314682
-1.935088754 4.835613251 -0.4519642889
-1.950650096 4.879444122 -0.2731948197
-2.160431623 5.409678459 -0.1009778306
-2.168577194 5.399953842 0.1008731127
-2.164834499 5.39607954 0.3025029898
-2.160918474 5.389039993 0.5042577386
-2.146074533 5.357432842 0.7034864426
-2.130197048 5.323171139 0.9014270306
-2.136076927 5.340574265 1.109807968
-2.125182629 5.318719864 1.312361121
-2.108062029 5.281220913 1.512072921
-1.717033625 4.321298599 -1.063565254
-1.96722579 4.953482151 -1.027760148
-1.917243123 4.83746767 -0.6337771416
-1.917462468 4.840487003 -0.4517899752
-1.931402326 4.880651951 -0.2728807926
-2.143006802 5.420906067 -0.1010476425
-2.14602232 5.398199081 0.1006985903
-2.144512177 5.399889946 0.3022936285
-2.140625238 5.392846584 0.5039091706
-2.120776176 5.348284245 0.7012928128
-2.110146046 5.32690239 0.900801301
-2.112363815 5.33521986 1.107136726
-2.10373807 5.318857193 1.310561538
-2.088195562 5.284953594 1.511037588
-1.013798952 2.574994326 -0.7299218178
-1.69837141 4.318198681 -1.061315656
-1.9520787 4.965800285 -1.028905034
-2.109493017 5.371752739 -0.9073715806
-2.075059414 5.289494514 -0.6925182343
-2.026375771 5.168048859 -0.4819458425
-1.914352536 4.887364388 -0.2728807926
-2.124072552 5.428352833 -0.1010476425
-2.123505831 5.396352768 0.1005240604
-2.121997595 5.398048401 0.3017702699
-2.12178874 5.400285244 0.5039091706
-2.097743511 5.344566345 0.6998303533
-2.090095282 5.3305583 0.9001755714
-2.097310305 5.351699829 1.10904479
-2.082315683 5.318909645 1.308761835
-2.068325996 5.288612366 1.510002494
-1.009012222 2.58931756 -0.7330275774
-1.686116457 4.331364632 -1.063115239
-1.831508994 4.707285404 -0.9735702872
-2.098975897 5.405884743 -0.7068988085
-1.828840375 4.712591171 -0.4385423064
-2.097257376 5.409851074 -0.3018749356
-2.100776672 5.424546242 -0.1008382067
-2.106106043 5.407459736 0.1005938798
-2.09807086 5.392394066 0.30103755
-2.101479769 5.403945446 0.5035604835
-2.077635765 5.348156452 0.6993428469
-2.06790328 5.328612804 0.8986111879
-2.082875013 5.369970798 1.111334443
-2.05810523 5.311608791 1.305162668
-2.05124855 5.299403191 1.511037588
-1.040286779 2.697366238 -0.7630506158
-1.671688437 4.339042187 -1.063565254
-1.810834765 4.702657223 -0.9712806344
-1.808808446 4.709646225 -0.4376707375
-2.080507994 5.42273283 -0.3021889627
-2.076102018 5.416908264 -0.1005589664
-2.088657379 5.418509483 0.1006636843
-2.077801228 5.395956993 0.3008282185
-2.078310966 5.400091171 0.5025146604
-2.061802626 5.3627882 0.7003178
-2.049291372 5.335798264 0.8986111879
-2.061301947 5.369878292 1.109807968
-2.040948153 5.322399139 1.30606246
-2.028592587 5.295706272 1.507931948
-1.04601872 2.740688086 -0.7744386792
-1.653753877 4.337567329 -1.061765552
-1.794407129 4.708950043 -0.9712806344
-2.055763721 5.4203825 -0.1004891619
-2.062601805 5.407083988 0.1003146321
-2.060373783 5.406909943 0.30103755
-2.055192232 5.396141529 0.5014687777
-2.040247917 5.362530708 0.6993428469
-2.032757521 5.348459244 0.8995497823
-2.036968946 5.362358093 1.106755137
-2.020972967 5.325847626 1.305162668
-2.004615068 5.288303852 1.503790736
-1.032350898 2.733478785 -0.7713328004
-1.637915969 4.341490269 -1.061315656
-1.811553717 4.814453602 -0.6264650226
-1.793250203 4.77339077 -0.2650304437
-2.034967184 5.419681549 -0.1003495455
-2.038066864 5.399284363 0.1000353992
-2.043843746 5.417449951 0.3012469113
-2.036344767 5.403282642 0.5014687777
-2.01872015 5.362188339 0.6983679533
-2.008054733 5.33668232 0.8964211345
-2.01409483 5.358408928 1.104465365
-2.003741026 5.336517811 1.30606246
-1.985710979 5.291304588 1.502755404
-0.9944004416 2.661061764 -0.7495920658
-1.617374539 4.330467224 -1.057266593
-1.774624825 4.771822929 -0.264611721
-2.020149469 5.406013489 0.1000353992
-2.016537666 5.402097702 0.2999908328
-2.016080141 5.40662384 0.5011201501
-1.994686604 5.352112293 0.696174264
-1.996304512 5.362172127 0.8995497823
-1.994943976 5.361379147 1.103702068
-1.980600357 5.328520775 1.302463293
-1.969917297 5.305449009 1.504826069
-0.8997818828 2.432425976 -0.6833343506
-1.567799568 4.242862225 -1.034321547
-1.644479632 4.452768326 -0.9144195318
-1.748608589 4.739809036 -0.7934872508
-1.746455431 4.741616249 -0.4383679926
-1.806233883 4.909196854 -0.271938771
-1.993198156 5.420269966 -0.1001052111
-2.00126791 5.413031578 0.1000353992
-1.995152473 5.399387836 0.299467504
-1.999518514 5.417018414 0.5014687777
-1.979427099 5.368354797 0.6973930001
-1.969633222 5.344666481 0.8954825401
-1.977574587 5.371994019 1.104465365
-1.956609011 5.320769787 1.298864126
-1.950981021 5.308324814 1.503790736
-0.8873027563 2.424666405 -0.6802285314
-1.560415864 4.266339302 -1.038820624
-1.62353754 4.443728924 -0.9113665819
-1.762726068 4.832544804 -0.6264650226
-1.729892135 4.747684002 -0.4383679926
-1.972897053 5.423436642 -0.1000353992
-1.984682083 5.423393726 0.1001052111
-1.978348613 5.41194725 0.2997815013
-1.977864861 5.416478157 0.5007715225
-1.961612701 5.374889851 0.6973930001
-1.948933601 5.345941544 0.8945438862
-1.958403945 5.374834061 1.103702068
-1.940285325 5.330891609 1.299763799
-1.928480268 5.304209232 1.500684857
-0.8654412627 2.389451981 -0.6693580747
-0.9010848999 2.490577221 -0.6015157104
-1.610126615 4.452780724 -0.9121297598
-1.745845318 4.838668823 -0.6264650226
-1.713310122 4.753693104 -0.4383679926
-1.955309033 5.434052944 -0.1001052111
-1.961653352 5.419007301 0.09989578277
-1.95672965 5.411306381 0.2993628085
-1.954473495 5.408018112 0.4993770421
-1.940817833 5.376102924 0.6966617703
-1.932272196 5.358286858 0.8954825401
-1.931643248 5.359473228 1.099122643
-1.92034626 5.333964825 1.298864126
-1.906029224 5.300001621 1.497579098
-0.8625391722 2.408976555 -0.6740168929
-0.8950126171 2.501046658 -0.6033153534
-1.59049046 4.449409962 -0.9102217555
-1.696707129 4.759644508 -0.4383679926
-1.937000394 5.442728519 -0.1001401171
-1.940030217 5.418290615 0.09975615889
-1.940520406 5.425625801 0.2997815013
-1.934640169 5.41514492 0.4993770421
-1.921373487 5.380974293 0.6964179873
-1.910903335 5.357556343 0.894231081
-1.908032179 5.355421543 1.096832991
-1.902091265 5.344638348 1.299763799
-1.88622117 5.302983284 1.496543884
-0.8547692895 2.413794041 -0.6745344996
-0.8832396865 2.496961594 -0.6015157104
-1.578876615 4.466040134 -0.9125114679
-1.675681829 4.74513483 -0.7903585434
-1.678158283 4.757436275 -0.6142780781
-1.680081367 4.765538692 -0.4383679926
-1.918364286 5.453564167 -0.1002099216
-1.918822527 5.421595097 0.0996863544
-1.911965966 5.408222675 0.2984207869
-1.915060759 5.419987202 0.4992026985
-1.896351576 5.373005867 0.694468081
-1.892566323 5.368250847 0.894856751
-1.889327884 5.362048626 1.096832991
-1.879540086 5.340216637 1.297064424
-1.868054509 5.313504696 1.497579098
-0.8425077796 2.405823231 -0.6714286804
-0.8770925999 2.507387161 -0.6033153534
-1.598265767 4.57159996 -0.9331188202
-1.659108996 4.750955105 -0.7903585434
-1.661542654 4.763264656 -0.6142780781
-1.663434982 4.771374702 -0.4383679926
-1.893404484 5.443229198 -0.09989578277
-1.899887085 5.42825985 0.0996863544
-1.887803912 5.399780273 0.2975833714
-1.895473599 5.424757481 0.4990283549
-1.877585769 5.379591942 0.694468081
-1.867311716 5.356172085 0.8917280436
-1.875768065 5.383441925 1.099885941
-1.857043147 5.335702896 1.294365048
-1.8494941 5.319993973 1.497579098
-0.8334719539 2.406924009 -0.6709110141
-0.8645120263 2.499383688 -0.6006159186
-1.625750303 4.708170891 -0.7822239399
-1.644904256 4.769035816 -0.6142780781
-1.646770597 4.777151585 -0.4383679926
-1.735538602 5.040369987 -0.2771723568
-1.868537664 5.432786942 -0.09958163649
-1.879620314 5.431078434 0.09961653501
-1.871552467 5.413887978 0.2980020642
-1.874575496 5.425690651 0.4985054433
-1.85879457 5.386113644 0.694468081
-1.847317457 5.358922005 0.8911023736
-1.854405522 5.382532597 1.098359466
-1.838407874 5.342152119 1.294365048
-1.827146053 5.315455914 1.494473338
-0.8206853867 2.39702487 -0.6672875881
-0.8570440412 2.506073713 -0.6015157104
-1.611221433 4.719425201 -0.7831625938
-1.635936856 4.797294617 -0.6172029376
-1.630086184 4.782870293 -0.4383679926
-1.850848675 5.443063736 -0.09965144843
-1.858059883 5.430038929 0.09947691858
-1.853936315 5.424167633 0.2982114255
-1.851759195 5.420889854 0.4974596202
-1.839983344 5.392569065 0.694468081
-1.826689482 5.359727859 0.8901637793
-1.831808686 5.377821922 1.096069813
-1.817867041 5.343001842 1.293015361
-1.803608418 5.30716753 1.490332127
-0.8166492581 2.412683964 -0.6709110141
-1.589053512 4.708175182 -0.7803467512
-1.608597279 4.768836021 -0.6128156185
-1.613381982 4.788530827 -0.4383679926
-1.700307965 5.052363873 -0.2771723568
-1.831514597 5.445379734 -0.09958163649
-1.833966494 5.421338558 0.09919768572
-1.834660411 5.426500797 0.2980020642
-1.83218646 5.425432682 0.4972852767
-1.817340255 5.387673855 0.693005681
-1.809535503 5.367628574 0.8904765844
-1.80801177 5.369298935 1.093016863
-1.801380515 5.352694988 1.293915033
-1.787229061 5.316782475 1.491367459
-0.815389812 2.435529947 -0.6766050458
-1.701206684 5.111034393 -0.2801031768
-1.817235351 5.462807655 -0.09979106486
-1.818517685 5.434975147 0.09933730215
-1.811586738 5.417402267 0.2971647084
-1.814186096 5.4314785 0.4972852767
-1.795695782 5.382371426 0.6915432215
-1.791727066 5.373599529 0.8904765844
-1.789577246 5.373401642 1.092635155
-1.779313564 5.345695972 1.290765762
-1.77080822 5.326346397 1.492402673
-0.9305764437 2.810509682 -0.7816855311
-1.791257977 5.425786495 -0.8982983232
-1.787790179 5.418458462 -0.6954430342
-1.792990565 5.440610409 -0.4974596202
-1.786661029 5.427776337 -0.2972693741
-1.792859435 5.449808598 -0.09944202006
-1.799229383 5.437178612 0.09926749021
-1.791104555 5.415794849 0.2967460155
-1.796163201 5.437465191 0.4972852767
-1.778460383 5.390181541 0.6917870045
-1.772040248 5.373883724 0.8895379901
-1.773592234 5.384901047 1.093780041
-1.757310152 5.338610172 1.287616491
-1.751929879 5.328517914 1.491367459
-1.364893436 4.168504715 -1.163702488
-1.504584551 4.603281975 -0.9331188202
-1.76712358 5.412918568 -0.8951696754
-1.772273421 5.431906223 -0.6964179873
-1.775557399 5.448420048 -0.4976339042
-1.77483511 5.452662945 -0.2983160913
-1.76982975 5.44051075 -0.0991627723
-1.781187534 5.443115711 0.09926749021
-1.774375558 5.425501823 0.2969553471
-1.775648355 5.435815334 0.4965880215
-1.762421846 5.401711464 0.6925182343
-1.749312043 5.364705563 0.8870350718
-1.758155823 5.398220062 1.095306516
-1.740804434 5.348114014 1.288516283
-1.730665088 5.323276043 1.48826158
-0.921231091 2.852184057 -0.7915207148
-1.397726774 4.332612038 -1.041070104
-1.749014974 5.431250095 -0.897046864
-1.750455618 5.438976765 -0.6964179873
-1.745136976 5.428947926 -0.4951935709
-1.750489116 5.45213747 -0.2978973985
-1.749199033 5.451379299 -0.09923259169
-1.756864786 5.442610264 0.09912787378
-1.751356721 5.428779125 0.2967460155
-1.750145793 5.431521416 0.4955421686
-1.74072516 5.408742905 0.6925182343
-1.726551652 5.367924213 0.8864092827
-1.731669426 5.390280247 1.092253566
-1.720512033 5.358769894 1.289416075
-1.706921458 5.322822571 1.486191034
-0.9123547077 2.857064009 -0.7920383811
-1.539368153 4.829297543 -0.9770048857
-1.725599885 5.420080185 -0.894231081
-1.736019373 5.456101894 -0.6978804469
-1.730139852 5.444199085 -0.4960650802
-1.731192112 5.4541049 -0.297688067
-1.732924461 5.46286869 -0.09933730215
-1.737594485 5.444594383 0.09905806184
-1.733343124 5.434557438 0.2967460155
-1.733335376 5.441092014 0.4958907962
-1.717962861 5.399352551 0.6905682683
-1.712334275 5.384914398 0.888286531
-1.711406589 5.38850975 1.090727091
-1.701554298 5.360731125 1.288516283
-1.690429449 5.332136154 1.487226248
-0.9022943377 2.858231306 -0.7915207148
-1.346693158 4.271162033 -1.023973823
-1.501514912 4.765093327 -0.9628850222
-1.7086308 5.435616016 -0.694468081
-1.712320209 5.454007149 -0.4964137375
-1.710702777 5.45219326 -0.2972693741
-1.710258126 5.457435131 -0.09912787378
-1.714715362 5.435071468 0.09877882153
-1.7119627 5.432954788 0.2963273227
-1.714086533 5.443008423 0.4955421686
-1.696475983 5.393657684 0.6891058087
-1.692343831 5.387088776 0.8876607418
-1.69235301 5.390408516 1.089963913
-1.681666374 5.362918377 1.287616491
-1.670650363 5.334318161 1.486191034
-0.8900884986 2.855985641 -0.7899677753
-1.312071323 4.21257782 -1.008677125
-1.455032587 4.683085442 -0.7700220346
-1.687057018 5.450000286 -0.09888353944
-1.698114038 5.448659897 0.09891844541
-1.6900208 5.42936182 0.2958039641
-1.695307016 5.453060627 0.4958907962
-1.679993033 5.407130241 0.6900808215
-1.672356963 5.389191628 0.8870350718
-1.67374599 5.400326252 1.090727091
-1.657387614 5.354153633 1.284017324
-1.654304862 5.347498894 1.48826158
-0.8744294643 2.840612173 -0.78479141
-1.30578649 4.247160912 -1.015875578
-1.439700365 4.685636044 -0.9445673227
-1.529498696 4.990298271 -0.6357271075
-1.552529454 5.071758747 -0.4603312612
-1.665902853 5.452321529 -0.0988137275
-1.678130984 5.454847336 0.09891844541
-1.670694947 5.437428951 0.2959086299
-1.672754049 5.447516918 0.4948449135
-1.660164714 5.413250923 0.6900808215
-1.647966146 5.38017416 0.884532094
-1.654886246 5.406135082 1.090727091
-1.638689041 5.359906197 1.284017324
-1.630182028 5.338745117 1.484120607
-0.8612048626 2.834555864 -0.7822031975
-1.301143408 4.285258293 -1.023973823
-1.345603108 4.437247276 -0.8930488825
-1.351054549 4.460837841 -0.7315391898
-1.512070894 4.995606899 -0.6357271075
-1.51982522 5.027562141 -0.4557991624
-1.646859169 5.458104134 -0.0988137275
-1.657918215 5.456845284 0.09884864092
-1.652863026 5.447050571 0.2961179912
-1.649308085 5.442171097 0.4937990308
-1.638955712 5.41141367 0.6891058087
-1.626886606 5.378330708 0.8832806349
-1.631655097 5.400887489 1.088437438
-1.619031668 5.365876675 1.284017324
-1.609303832 5.337004662 1.482049942
-0.8529698253 2.843096018 -0.7837561369
-1.284310579 4.286263943 -1.023074031
-1.335736632 4.460725307 -0.8968650699
-1.333778024 4.459848404 -0.7306005955
-1.498294473 5.016331196 -0.6376769543
-1.50226748 5.03283596 -0.4557991624
-1.627227068 5.461903095 -0.09877882153
-1.634459615 5.451392651 0.0986392051
-1.634986997 5.456613064 0.2963273227
-1.631444931 5.451712132 0.4941476882
-1.619112015 5.417384148 0.6891058087
-1.61149621 5.395333767 0.8851578236
-1.609423876 5.395262241 1.086147666
-1.600292563 5.371495247 1.284017324
-1.589563251 5.338886738 1.481014729
-0.844137013 2.849761009 -0.78479141
-1.26455915 4.271813393 -1.018574953
-1.320156574 4.465361118 -0.8968650699
-1.318982244 4.46424675 -0.7306005955
-1.481649995 5.021272659 -0.6376769543
-1.484689116 5.038049698 -0.4557991624
-1.607021451 5.463713169 -0.09870900959
-1.616371632 5.456783295 0.0986392051
-1.613098145 5.452711105 0.2958039641
-1.612406135 5.457373619 0.4941476882
-1.597766757 5.411300182 0.6876434684
-1.593212843 5.40282011 0.8854706883
-1.592632294 5.404336929 1.086910963
-1.582472205 5.376772404 1.284017324
-1.57200551 5.348109722 1.482049942
-0.835767746 2.856252432 -0.785826683
-1.256198287 4.298647881 -1.023973823
-1.303140998 4.462175846 -0.8953386545
-1.305602312 4.476409435 -0.7318520546
-1.456342459 4.999731541 -0.634264648
-1.465747833 5.035293102 -0.4551019073
-1.586825848 5.46544838 -0.0986392051
-1.598437667 5.466230392 0.09870900959
-1.59237349 5.452557087 0.2954899371
-1.595414758 5.466516018 0.4944962859
-1.579421997 5.418750763 0.6878871918
-1.572133899 5.400762081 0.8842192292
-1.57375896 5.409862995 1.086910963
-1.559343219 5.367292404 1.280418038
-1.553328633 5.353564262 1.482049942
-0.8268653154 2.862864256 -0.7868620157
-1.240106344 4.29926157 -1.023074031
-1.283207893 4.451605797 -0.8922857046
-1.288876653 4.477142334 -0.7312262654
-1.424621344 4.955181122 -0.6279274225
-1.438257813 5.005910397 -0.4519642889
-1.360092402 4.740077972 -0.2562379837
-1.564985037 5.461341858 -0.0984646827
-1.578239202 5.467933655 0.0986392051
-1.572778821 5.45616293 0.2953852713
-1.573015451 5.460564613 0.493450433
-1.558852077 5.418507576 0.687155962
-1.548907042 5.391029358 0.881716311
-1.555950165 5.419096947 1.087674141
-1.539522767 5.368957043 1.279518247
-1.533569217 5.355239391 1.481014729
-0.8158070445 2.862017632 -0.785826683
-1.222422719 4.294193745 -1.020824552
-1.267659903 4.456058025 -0.8922857046
-1.271080017 4.474013805 -0.7299748063
-1.363722563 4.803290367 -0.6079408526
-1.421863198 5.014734268 -0.4523129165
-1.323947549 4.675615788 -0.2524697781
-1.545775652 5.462654114 -0.09839487821
-1.556402326 5.463793755 0.0984646827
-1.556862712 5.469032764 0.2958039641
-1.551764011 5.458355904 0.4927531779
-1.54209578 5.431554794 0.6881309152
-1.531022191 5.396135807 0.881716311
-1.533811927 5.413162231 1.085384488
-1.524896741 5.38528204 1.282217622
-1.513697863 5.35285902 1.478944063
-0.8078825474 2.870285749 -0.7873796225
-1.210813284 4.307603359 -1.023074031
-1.257124424 4.475358009 -0.8953386545
-1.253569961 4.468694687 -0.728410542
-1.413159132 5.040977001 -0.6376769543
-1.409523964 5.034770489 -0.453707397
-1.297680616 4.641509533 -0.2503763437
-1.52872932 5.471601009 -0.0984646827
-1.535569191 5.459300518 0.0982901603
-1.538719296 5.47416544 0.2958039641
-1.53365612 5.463471413 0.4927531779
-1.521397591 5.427081585 0.6869122386
-1.515252113 5.408791065 0.8829677701
-1.513738036 5.410655975 1.083858013
-1.504932284 5.38280201 1.280418038
-1.495939851 5.357849121 1.478944063
-0.804048717 2.893423796 -0.7930736542
-1.226747394 4.420505524 -1.049168348
-1.243324757 4.483286381 -0.896101892
-1.239799619 4.476634026 -0.729036212
-1.3823241 4.998048306 -0.6315835714
-1.306009412 4.728541851 -0.4254689515
-1.281217694 4.641937256 -0.2501670122
-1.511744738 5.484615803 -0.09860429913
-1.517455578 5.464363098 0.0982901603
-1.515330195 5.46410656 0.2949666083
-1.516592979 5.47236824 0.4931018054
-1.499684334 5.41870451 0.685205996
-1.494258881 5.406431675 0.881716311
-1.495785713 5.415646553 1.083858013
-1.484059572 5.3805089 1.278618455
-1.477226853 5.36303854 1.478944063
-0.7975224257 2.911257029 -0.7972147465
-1.20822084 4.41348362 -1.046468973
-1.221708179 4.468874931 -0.8922857046
-1.224423051 4.484959602 -0.7296620011
-1.361735582 4.991352081 -0.6301211119
-1.365960717 5.013730526 -0.4509184062
-1.271537185 4.673583031 -0.2516324222
-1.488394856 5.474421978 -0.09832505882
-1.499429703 5.473482609 0.09835996479
-1.493086576 5.457803249 0.2943385541
-1.496526718 5.477890015 0.4931018054
-1.479716063 5.42007637 0.6847185493
-1.473817587 5.405897141 0.8807777166
-1.476959109 5.424880981 1.084621191
-1.462285399 5.378389835 1.276818871
-1.459511757 5.371891022 1.479979396
-1.200160027 4.447985649 -1.053667426
-1.204057932 4.465529919 -0.8907591701
-1.210301876 4.494928837 -0.7306005955
-1.322297096 4.917712212 -0.6201277971
-1.312261343 4.883778095 -0.4387166202
-1.252108812 4.666419506 -0.2510043979
-1.467801094 5.477909565 -0.0982901603
-1.481963396 5.488595486 0.09853449464
-1.474113822 5.467095375 0.2945478857
-1.47428453 5.47153759 0.4920559227
-1.461388946 5.431213856 0.685449779
-1.449381828 5.39409256 0.877961874
-1.45903039 5.433795929 1.085384488
-1.442494035 5.379696369 1.275918961
-1.435814142 5.362276077 1.475838304
-1.435728431 5.388293266 -1.482567668
-1.182620764 4.444614887 -1.051867843
-1.185434937 4.458322525 -0.8884695768
-1.192068458 4.489579678 -0.729036212
-1.293422699 4.878165722 -0.6145218015
-1.286019325 4.853662968 -0.4355790317
-1.248584867 4.719031334 -0.253621161
-1.447139263 5.477199078 -0.09818544239
-1.458680391 5.478275299 0.09825524688
-1.456046104 5.476068497 0.294757247
-1.453130841 5.468948364 0.4913586974
-1.443438292 5.440119267 0.6859372258
-1.432566524 5.406757355 0.8792133331
-1.437040329 5.4274683 1.083094835
-1.425697684 5.392235279 1.277718544
-1.414129615 5.35604763 1.472732544
-1.413966775 5.382061005 -1.479461789
-1.165121913 4.441175938 -1.05006814
-1.175840378 4.485221386 -0.8930488825
-1.172886491 4.480337143 -0.7268461585
-1.27839601 4.890332699 -0.6154967546
-1.270074844 4.861978054 -0.4359276295
-1.236642957 4.740754604 -0.2545632124
-1.430026293 5.489957809 -0.09832505882
-1.435487747 5.467860222 0.09797601402
