# .PCD v0.7 - Point Cloud Data file format
VERSION 0.7
FIELDS x y z
SIZE 4 4 4
TYPE F F F
COUNT 1 1 1
WIDTH 1239
HEIGHT 1
VIEWPOINT 0 0 0 1 0 0 0
POINTS 1239
DATA ascii
-1.588964224 5.458579063 -0.09853449464
-1.601130724 5.461274624 0.0986392051
-1.598985791 5.461028099 0.2960133255
-1.596432805 5.455840111 0.4936247468
-1.583761215 5.419552326 0.6881309152
-1.574796915 5.395871162 0.8835934401
-1.576435685 5.404993534 1.086147666
-1.566904664 5.379299641 1.283567309
-1.554907084 5.345058441 1.479979396
-0.8251020312 2.849296808 -0.7832384706
-1.257725 4.348939896 -1.035221338
-1.290675998 4.465797424 -0.8953386545
-1.288715005 4.46485424 -0.7293490767
-1.442375779 5.003778458 -0.634264648
-1.442857385 5.008733749 -0.4523129165
-1.569898963 5.464092731 -0.09853449464
-1.577052951 5.449542999 0.09832505882
-1.581023812 5.470413208 0.296222657
-1.576274276 5.457550526 0.4932760894
-1.56373477 5.4212327 0.6876434684
-1.554859757 5.397538662 0.8829677701
-1.55647409 5.406689644 1.085384488
-1.547042131 5.380990505 1.282667637
-1.536241055 5.350453854 1.479979396
-0.8178061247 2.861447096 -0.785826683
-1.222211123 4.282095909 -1.018125176
-1.274001241 4.466499805 -0.8945753574
-1.272038341 4.465526581 -0.7287233472
-1.348855734 4.741476536 -0.6001412272
-1.426453114 5.01757288 -0.4526615143
-1.327211261 4.674690723 -0.2524697781
-1.552453876 5.475310802 -0.0986392051
-1.55966711 5.460783482 0.09842977673
-1.558630109 5.464375496 0.2955946028
-1.558305144 5.466852665 0.4936247468
-1.539365053 5.407565594 0.685205996
-1.537088156 5.406733513 0.8835934401
-1.537590265 5.412090778 1.085384488
-1.527184248 5.382608891 1.281767726
-1.51860702 5.359501362 1.481014729
-0.8104339838 2.873581171 -0.7884148359
-1.21359694 4.308844566 -1.023523927
-1.259467363 4.47469902 -0.8953386545
-1.25911665 4.479447842 -0.7302876711
-1.406334758 5.009903908 -0.6337771416
-1.418617368 5.057051659 -0.4557991624
-1.300110698 4.640829563 -0.2503763437
-1.530639172 5.471067429 -0.0984646827
-1.540054679 5.464269638 0.09839487821
-1.536301017 5.458247662 0.2949666083
-1.538134933 5.468421936 0.4932760894
-1.523165226 5.422461987 0.6864247322
-1.517139912 5.408261776 0.8829677701
-1.519220233 5.419314384 1.085766077
-1.505235076 5.376646996 1.279068351
-1.499890685 5.364768982 1.481014729
-0.8024691939 2.883837223 -0.7904854417
-1.225679278 4.410689831 -1.04691875
-1.237535119 4.456368446 -0.8907591701
-1.243471622 4.48381567 -0.7302876711
-1.382481456 4.991825581 -0.6308523417
-1.308484912 4.727857113 -0.4254689515
-1.28071177 4.633789062 -0.2497483343
-1.509934545 5.470594406 -0.09835996479
-1.522043943 5.473464489 0.0984646827
-1.515099645 5.455879211 0.2945478857
-1.516907215 5.466077805 0.4925788641
-1.505816936 5.433485031 0.687155962
-1.492981791 5.394486904 0.8798390627
-1.500815868 5.426477432 1.086147666
-1.486456394 5.381868839 1.279068351
-1.478071451 5.358798504 1.47790885
-0.7949553728 2.895935297 -0.7930736542
-1.215428591 4.433735371 -1.051417828
-1.225085139 4.47202158 -0.8930488825
-1.224686146 4.476696968 -0.728410542
-1.368185759 5.008110046 -0.632314682
-1.360189676 4.982261658 -0.4481294155
-1.272933364 4.669062614 -0.2514230609
-1.491881371 5.479690552 -0.09842977673
-1.501340151 5.472959042 0.09835996479
-1.497102261 5.464986801 0.294757247
-1.495712042 5.463653564 0.4918816388
-1.485795498 5.434877872 0.6866684556
-1.474143624 5.399665356 0.8798390627
-1.479799271 5.424106598 1.084621191
-1.467662334 5.387024403 1.279068351
-1.457329273 5.356468678 1.475838304
-1.198928237 4.434188366 -1.050518036
-1.209468246 4.476270676 -0.8930488825
-1.2059654 4.469501019 -0.7265332937
-1.338815928 4.968770981 -0.626708746
-1.317926168 4.89463377 -0.4397625029
-1.256626248 4.673478127 -0.2514230609
-1.472224593 5.482934475 -0.09839487821
-1.4796139 5.468515873 0.09818544239
-1.480101824 5.477891445 0.2951759398
-1.474032879 5.459224224 0.49101004
-1.465782881 5.436197758 0.6861810088
-1.456314564 5.408592701 0.8804647923
-1.457796812 5.417863846 1.082331538
-1.449861646 5.395878315 1.279968143
-1.438621402 5.361523628 1.475838304
-1.441539407 5.398739338 -1.485673308
-1.180429101 4.427048683 -1.047818661
-1.192823768 4.476671219 -0.8922857046
-1.192894936 4.483228207 -0.7280976176
-1.294447184 4.871732235 -0.6137905717
-1.291628122 4.864542484 -0.4366248548
-1.242353559 4.685557842 -0.2518417537
-1.453077793 5.488039494 -0.09839487821
-1.460517406 5.473647118 0.09818544239
-1.458398819 5.473375797 0.2946525812
-1.459582567 5.481663704 0.4925788641
-1.44169569 5.422097683 0.6837435961
-1.439452648 5.421280861 0.881716311
-1.439881802 5.426715374 1.083094835
-1.428021669 5.389604568 1.277268767
-1.420886874 5.370246887 1.476873517
-1.419243693 5.390660763 -1.482049942
-1.167942643 4.442450523 -1.050518036
-1.176193237 4.47701025 -0.8915224671
-1.177239299 4.487364769 -0.7280976176
-1.276428938 4.872380733 -0.6133031249
-1.27564764 4.872877121 -0.4369735122
-1.246196747 4.767158508 -0.2560286224
-1.431890249 5.485338688 -0.09825524688
-1.441403151 5.478711128 0.09818544239
-1.436747909 5.468774319 0.2941292226
-1.436898828 5.473235607 0.4913586974
-1.423264503 5.42901659 0.6839873195
-1.417516828 5.414806843 0.8798390627
-1.420931458 5.431707859 1.083094835
-1.407228112 5.387014866 1.275469184
-1.404083967 5.382650852 1.478944063
-1.398960829 5.389972687 -1.480497003
-1.152427316 4.446500778 -1.050518036
-1.15858829 4.4734869 -0.8899959922
-1.164534569 4.502921581 -0.7299748063
-1.260263085 4.876586914 -0.6133031249
-1.26062274 4.885016441 -0.4376707375
-1.216091037 4.719259739 -0.253202498
-1.412696123 5.486183643 -0.09818544239
-1.42427671 5.491452694 0.09832505882
-1.417601347 5.469642639 0.2939198911
-1.418781996 5.482075691 0.491707325
-1.407284021 5.445483685 0.685449779
-1.394614816 5.400351048 0.8767104149
-1.400490284 5.430932045 1.081949949
-1.389357567 5.39165163 1.275469184
-1.382374167 5.372311115 1.474802971
-1.377247334 5.379610062 -1.47635591
-1.139607191 4.457849503 -1.052317619
-1.143748164 4.477303982 -0.8899959922
-1.14666748 4.495274067 -0.7280976176
-1.247517943 4.894203663 -0.6150093079
-1.241960406 4.879516125 -0.4367991984
-1.204371333 4.738752365 -0.2540398836
-1.393509626 5.486962318 -0.09811563045
-1.403086066 5.484521389 0.09811563045
-1.400445938 5.478182793 0.2941292226
-1.395175219 5.46551466 0.4897898734
-1.388238668 5.44627285 0.6849622726
-1.376212358 5.403030872 0.8763974905
-1.381990075 5.433642864 1.081568241
-1.371471524 5.39622879 1.275469184
-1.360750794 5.361885548 1.470661998
-1.359398842 5.384148121 -1.47635591
-1.12386632 4.45782423 -1.051417828
-1.130986929 4.492691994 -0.8922857046
-1.128863692 4.487557411 -0.7262203693
-1.233810306 4.912006378 -0.6167154312
-1.229280949 4.901214123 -0.4383679926
-1.184427381 4.729365826 -0.2533071637
-1.375320077 5.495672703 -0.09818544239
-1.381954312 5.477510929 0.09790620208
-1.383265138 5.490785122 0.2945478857
-1.377041698 5.47011137 0.4897898734
-1.366781473 5.4373703 0.6832561493
-1.359268785 5.415466309 0.8776490092
-1.360149622 5.427008152 1.079278588
-1.353574753 5.404763699 1.276368856
-1.344836473 5.377847672 1.473767638
-1.340123057 5.3909688 -1.476873517
-1.108457804 4.465696812 -1.052317619
-1.111680031 4.485373974 -0.8899959922
-1.111932516 4.489748001 -0.7259075046
-1.213416934 4.906859398 -0.6154967546
-1.213218212 4.913424492 -0.4390652478
-1.16612792 4.72979641 -0.2530978322
-1.354210138 5.496793747 -0.09811563045
-1.360906124 5.478657246 0.09783639759
-1.35832417 5.476432323 0.2935011685
-1.356984735 5.475121975 0.4897898734
-1.34541142 5.436563015 0.6825249195
-1.337513924 5.412740707 0.8763974905
-1.343072414 5.44339323 1.081568241
-1.330955982 5.398336411 1.2736696
-1.325117946 5.382740498 1.473767638
-1.322649717 5.405227184 -1.479461789
-1.093008876 4.473515511 -1.05321753
-1.096946478 4.493041515 -0.8907591701
-1.096405983 4.497631073 -0.7265332937
-1.195810318 4.909137249 -0.6152530313
-1.197004676 4.921500206 -0.4394138455
-1.144424796 4.712489128 -0.2519464493
-1.333131909 5.493712902 -0.09797601402
-1.342717648 5.491377831 0.09797601402
-1.337778568 5.475319386 0.2931871712
-1.338323474 5.485865593 0.4903128147
-1.325947404 5.443386078 0.6827686429
-1.316741705 5.409699917 0.8751460314
-1.323134661 5.444233418 1.080805063
-1.310263157 5.395374775 1.271869898
-1.306319118 5.387333393 1.473767638
-1.302001357 5.39831543 -1.47635591
-1.078166842 4.477115631 -1.05321753
-1.081123352 4.492836952 -0.8899959922
-1.081945539 4.503163338 -0.7268461585
-1.182305932 4.924656868 -0.6167154312
-1.179283142 4.919630527 -0.4388909042
-1.124141097 4.696835041 -0.2508997321
-1.31444025 5.496159077 -0.0979411155
-1.323564291 5.491911888 0.09790620208
-1.318210125 5.473901749 0.292873174
-1.31779933 5.480587482 0.4894412756
-1.309280515 5.453543663 0.6834998727
-1.296033978 5.402510166 0.8732687831
-1.305074692 5.448590755 1.080805063
-1.29236269 5.399690628 1.271869898
-1.284855843 5.37660408 1.469626665
-1.280517578 5.387567997 -1.472214937
-1.066914916 4.495834827 -1.056816697
-1.064405322 4.488756657 -0.8884695768
-1.064731956 4.497115135 -0.7252818346
-1.166936159 4.936480999 -0.6176903844
-1.109479666 4.704423904 -0.2511090636
-1.292495489 5.489035606 -0.09773167968
-1.305343747 5.49627161 0.09790620208
-1.301857948 5.490129948 0.2935011685
-1.297778606 5.477172375 0.4887439907
-1.287988067 5.444333553 0.6817936897
-1.27852881 5.412769318 0.8742073774
-1.28519392 5.44524622 1.079278588
-1.274404168 5.407961369 1.27276969
-1.265196323 5.377295017 1.468591332
-1.262587667 5.395766258 -1.473250031
-1.050327063 4.495736599 -1.055916786
-1.048733354 4.492444038 -0.8884695768
-1.048577905 4.498880863 -0.7249689102
-1.150596142 4.944391727 -0.6181778908
-1.145768881 4.927543163 -0.4388909042
-1.092598557 4.70632267 -0.2510043979
-1.274234056 5.49740839 -0.09780148417
-1.283417106 5.489111423 0.09769678116
-1.28268981 5.494639874 0.2935011685
-1.279103041 5.483610153 0.4889183342
-1.268979788 5.448795319 0.6817936897
-1.260967493 5.422971725 0.8751460314
-1.264405131 5.442049026 1.077752113
-1.257279038 5.419970989 1.274569273
-1.246416926 5.381678581 1.468591332
-1.244177341 5.402022839 -1.473767638
-1.030261397 4.480383396 -1.051417828
-1.033923388 4.499904156 -0.8892327547
-1.032426715 4.50058794 -0.7246560454
-1.116488099 4.874848366 -0.6089158058
-1.129896045 4.937339306 -0.4394138455
-1.06904459 4.678955078 -0.2493296415
-1.25636971 5.50767231 -0.09790620208
-1.263350248 5.489661217 0.09762696922
-1.260817289 5.4874053 0.292873174
-1.259506583 5.48609972 0.4887439907
-1.24640274 5.437712669 0.6798437834
-1.241150022 5.423489094 0.8745203018
-1.246275067 5.450257778 1.078515291
-1.235750914 5.412927151 1.271869898
-1.22762239 5.385997295 1.468591332
-1.016334891 4.491555691 -1.05321753
-1.014746785 4.488165855 -0.8861798048
-1.016709208 4.504164219 -0.7246560454
-1.115615606 4.950366974 -0.6179341674
-1.118343234 4.966522217 -0.4416798949
-1.049201965 4.667068958 -0.2484922856
-1.234069586 5.498366356 -0.09766186774
-1.24595046 5.50183773 0.09776658565
-1.240334749 5.485928059 0.2925591469
-1.241230726 5.494349003 0.489092648
-1.23003304 5.453649521 0.6813062429
-1.222209573 5.427788734 0.8745203018
-1.22724092 5.454575062 1.078515291
-1.214711785 5.407701492 1.269620419
-1.208815336 5.390249252 1.468591332
-0.6144635677 2.75572753 -0.7449332476
-1.005732536 4.517901421 -1.058616281
-1.005893111 4.522343636 -0.8922857046
-1.007404923 4.536612034 -0.7293490767
-1.101335168 4.967797279 -0.6196403503
-1.098415732 4.958724022 -0.440634042
-1.035492897 4.682403088 -0.2491202801
-1.21142149 5.487019539 -0.09738263488
-1.226736426 5.506153584 0.09776658565
-1.220742583 5.488274574 0.2924544513
-1.221178293 5.494758606 0.4887439907
-1.210559845 5.455971241 0.6810624599
-1.198130131 5.408878326 0.8707658648
-1.209891558 5.466492653 1.080041766
-1.19582653 5.411908627 1.269620419
-1.188328981 5.386889458 1.466520786
-0.603184402 2.750307798 -0.742862761
-0.9882896543 4.513770103 -1.056816697
-1.061426997 4.85187006 -0.9571607113
-1.038347125 4.754318237 -0.7640775442
-1.16010797 5.320725441 -0.6635132432
-1.138351917 5.225336552 -0.464166075
-1.01404953 4.662569523 -0.2478642613
-1.19522953 5.504894257 -0.09762696922
-1.20494175 5.498682022 0.09755715728
-1.202429652 5.496405125 0.2926638126
-1.198588014 5.48341608 0.48734954
-1.192352533 5.46404314 0.6815499663
-1.180922627 5.420747757 0.872017324
-1.188295841 5.459172726 1.077752113
-1.17734313 5.417953968 1.270070314
-1.167880893 5.383452892 1.46445024
-0.5895084143 2.733512402 -0.737686336
-0.9733468294 4.521002769 -1.057716489
-1.06471622 4.949593544 -0.9758599997
-1.163175941 5.416502476 -0.8707658648
-1.180225253 5.505255222 -0.6861810088
-1.176859379 5.494233131 -0.4878724515
-1.001107812 4.681705475 -0.2487016171
-1.175590277 5.50707674 -0.09759206325
-1.183211684 5.49112606 0.09734772146
-1.183237433 5.500568867 0.2926638126
-1.178601146 5.483670712 0.4870008826
-1.1703583 5.454585552 0.6798437834
-1.161994696 5.424837112 0.872017324
-1.165946722 5.447929382 1.074699163
-1.160867929 5.433465004 1.27276969
-1.14827466 5.383718491 1.463414907
-0.580763638 2.739332914 -0.7387216091
-0.9599815011 4.535811424 -1.060415864
-1.086423516 5.137674809 -1.012495399
-1.154870987 5.470781803 -0.8789004683
-1.158543706 5.49768734 -0.6847185493
-1.159316897 5.506106377 -0.4885697067
-0.9732553959 4.630444527 -0.245770812
-1.15759027 5.517018318 -0.09769678116
-1.164035439 5.495222569 0.09734772146
-1.161548972 5.492941856 0.2920357883
-1.16109848 5.495549679 0.4876981676
-1.150080681 5.452810764 0.6791125536
-1.143866658 5.432725906 0.8726431131
-1.147729635 5.45580864 1.075462461
-1.138691545 5.422226906 1.269170523
-1.130266309 5.391475677 1.46445024
-0.572776258 2.748908043 -0.7407921553
-0.9568406343 4.600188255 -1.07481277
-1.064092517 5.12029171 -1.008297563
-1.137772083 5.484450817 -0.8804647923
-1.139347196 5.50169754 -0.6847185493
-1.139530182 5.512269497 -0.4887439907
-1.135499716 5.507315636 -0.09745243937
-1.147292852 5.510998726 0.09755715728
-1.140746236 5.489140034 0.2916170955
-1.14190948 5.499568462 0.4876981676
-1.13144362 5.458734989 0.679356277
-1.12409389 5.432816982 0.872017324
-1.129474401 5.463626385 1.076225638
-1.118180633 5.418534279 1.26737082
-1.112999797 5.402956009 1.466520786
-0.5595980883 2.735848188 -0.7366511226
-1.059049487 5.191485405 -1.021654248
-1.117664218 5.488583565 -0.8804647923
-1.120925784 5.509531498 -0.685205996
-1.116714239 5.498641014 -0.4871752262
-1.119062781 5.520096779 -0.2929778397
-1.114284992 5.501446247 -0.09727791697
-1.128047466 5.514970303 0.09755715728
-1.122376084 5.497002125 0.291826427
-1.119358778 5.492002964 0.4866522849
-1.113967776 5.470431328 0.6803312302
-1.101189256 5.417349815 0.8688886166
-1.108659387 5.463881969 1.075462461
-1.097540855 5.418776512 1.266471148
-1.091832876 5.395448208 1.463414907
-0.5508077145 2.741572618 -0.737686336
-0.5652394891 2.818505764 -0.6537043452
-1.037839293 5.179749489 -1.018601298
-1.097334981 5.48664093 -0.8795261383
-1.100726008 5.513602734 -0.685205996
-1.097901702 5.504459381 -0.48734954
-1.101348281 5.531804085 -0.2933965027
-1.098584175 5.522953987 -0.09759206325
-1.105072975 5.50534296 0.09731282294
-1.103179812 5.500886917 0.291826427
-1.09939754 5.491969585 0.4863036573
-1.093911409 5.474477291 0.6803312302
-1.083817959 5.428908825 0.8701400757
-1.088049173 5.460015774 1.073935866
-1.080138326 5.430220127 1.268270731
-1.072243214 5.395436287 1.462379694
-0.5427293777 2.751059771 -0.7397568822
-0.8965554833 4.548773289 -1.060415864
-1.015961051 5.164077759 -1.014785051
-1.076847315 5.478620529 -0.8776490092
-1.084730268 5.528909683 -0.6866684556
-1.077533364 5.502392292 -0.4868265986
-1.079547882 5.517785072 -0.2924544513
-1.079683304 5.528717518 -0.09762696922
-1.084876537 5.499168396 0.09713830054
-1.085516095 5.512542725 0.2922451198
-1.080218911 5.495774269 0.4863036573
-1.074219823 5.470283985 0.679356277
-1.066379428 5.440413952 0.871391654
-1.06842649 5.455888271 1.072409391
-1.062871337 5.437597752 1.269170523
-1.053401709 5.399146557 1.462379694
-0.5343379974 2.756637812 -0.7407921553
-0.8788241148 4.542308331 -1.058166385
-0.9973390102 5.1597085 -1.013258696
-1.058843136 5.488164425 -0.8785876036
-1.055663109 5.481981754 -0.6803312302
-1.059446692 5.51199007 -0.48734954
-1.058772564 5.513674259 -0.2920357883
-1.060752749 5.534416676 -0.09766186774
-1.06681335 5.508811474 0.09724301845
-1.064370394 5.506493568 0.2917217612
-1.063122749 5.505194664 0.4868265986
-1.052862644 5.462305546 0.677893877
-1.04738605 5.444102287 0.871391654
-1.048262239 5.453800678 1.071264625
-1.042419076 5.433618069 1.26737082
-1.034547329 5.402791023 1.462379694
-0.5271167755 2.773760557 -0.7449332476
-0.863325417 4.547263145 -1.058616281
-0.9118973613 4.812263966 -0.9438041449
-0.9197765589 4.863135815 -0.7772180438
-1.019936681 5.397857666 -0.6693630219
-1.040567517 5.517612457 -0.487523824
-1.040035844 5.52536869 -0.2924544513
-1.041056633 5.536120892 -0.09762696922
-1.049071908 5.520359993 0.09738263488
-1.043655038 5.502326488 0.2913030684
-1.044051051 5.51492691 0.48734954
-1.034156799 5.467898369 0.67813766
-1.028008223 5.445784092 0.8710787296
-1.030811548 5.471110344 1.073935866
-1.020332098 5.425911903 1.264671445
-1.017109632 5.413963318 1.46445024
-0.520262897 2.790776968 -0.7490743995
-0.8473670483 4.554228306 -1.059516072
-0.8950926065 4.815418243 -0.9438041449
-0.9056813717 4.881854057 -0.779720962
-1.002676725 5.415222645 -0.6710692048
-1.020217657 5.515333176 -0.4870008826
-1.020740867 5.52896595 -0.2924544513
-1.018585682 5.52809906 -0.0974175334
-1.028832912 5.524167538 0.09738263488
-1.024209619 5.510041714 0.2915124297
-1.02406764 5.514619827 0.4870008826
-1.01555717 5.479459286 0.6791125536
-1.004090428 5.428148746 0.8676371574
-1.01134932 5.472745419 1.073554277
-1.002096534 5.433272839 1.265571237
-0.9951598644 5.406255722 1.461344361
-0.5032231212 2.752668381 -0.7382039428
-0.8796873689 4.826239109 -0.9453306198
-0.8893408179 4.8888731 -0.7803467512
-0.9848304987 5.42454958 -0.6718004346
-0.9995356798 5.511019707 -0.4863036573
-1.001436114 5.532495022 -0.2924544513
-0.9996395111 5.533588886 -0.09745243937
-1.007386684 5.515922546 0.09717320651
-1.005687237 5.517513275 0.2917217612
-1.002668738 5.506400108 0.4859549999
-0.9967801571 5.484922886 0.679356277
-0.9858402014 5.435508728 0.8682629466
-0.9911909103 5.470447063 1.072409391
-0.982082963 5.430984974 1.264221549
-0.9742248654 5.398289204 1.458238602
-0.4973605871 2.775325298 -0.7438979745
-0.8655987382 4.844741344 -0.9483835101
-0.8715775609 4.888057709 -0.779720962
-0.9727556109 5.461009026 -0.6759439707
-0.9802936912 5.514474869 -0.4863036573
-0.9807210565 5.528090954 -0.2920357883
-0.9781445265 5.519152641 -0.09713830054
-0.9867153168 5.51153183 0.09703358263
-0.9884409308 5.526716232 0.2920357883
-0.9841403961 5.513789654 0.4863036573
-0.9765849113 5.482506275 0.6786250472
-0.9685005546 5.442637444 0.8688886166
-0.9703742266 5.464208603 1.070501447
-0.9654278755 5.441886902 1.266021132
-0.9563166499 5.401490688 1.458238602
-0.4844745994 2.756029844 -0.7382039428
-0.8498657942 4.849518776 -0.9487651587
-0.8560426235 4.894813538 -0.7803467512
-0.9577142 5.481804371 -0.67813766
-0.9633689523 5.525546551 -0.4870008826
-0.961700201 5.527377129 -0.291826427
-0.9615474939 5.532216072 -0.09731282294
-0.9684340954 5.514773369 0.09703358263
-0.9680360556 5.518159866 0.2914077342
-0.9658517241 5.51702261 0.4863036573
-0.9563475847 5.473981857 0.6771626472
-0.9518063664 5.453602791 0.8701400757
-0.9529210925 5.471264839 1.071264625
-0.9467096925 5.441218853 1.265121341
-0.9397224784 5.41224575 1.460309267
-0.4766457677 2.765236139 -0.7402745485
-0.8344454169 4.856179714 -0.9495283961
-0.8411424756 4.905412674 -0.7815982103
-0.9382370114 5.483157158 -0.677893877
-0.9440764189 5.528875351 -0.4870008826
-0.9426923394 5.526598454 -0.2916170955
-0.9412224293 5.529624939 -0.09720810503
-0.951838851 5.527807713 0.09720810503
-0.9491075873 5.52347374 0.2915124297
-0.9475523829 5.520195007 0.4863036573
-0.9388613105 5.481036186 0.6776501536
-0.9324322939 5.454944611 0.8698272705
-0.9347735643 5.474394321 1.071264625
-0.9257475734 5.432963848 1.262421966
-0.9227660298 5.426919937 1.463414907
-0.4632950723 2.747915268 -0.7350981832
-0.8153383136 4.851461887 -0.9480019212
-0.8244654536 4.916254997 -0.7828496695
-0.9197485447 5.490314007 -0.6783813238
-0.9234585762 5.524276733 -0.4863036573
-0.924731493 5.543806553 -0.2923497856
-0.9235592484 5.542739868 -0.09738263488
-0.9351956248 5.546871662 0.09748735279
-0.9291597605 5.522813797 0.2913030684
-0.9266523123 5.519701481 0.4859549999
-0.920709312 5.490153313 0.6783813238
-0.9114276767 5.446476936 0.8679500222
-0.9159946442 5.485529423 1.07279098
-0.9058271646 5.436320782 1.262421966
-0.9019149542 5.418674469 1.460309267
-0.4543298185 2.753327608 -0.7361334562
-0.800311327 4.86590147 -0.9502916336
-0.8072981834 4.919103146 -0.7828496695
-0.9002622366 5.4975667 -0.6788688302
-0.9028816223 5.519601822 -0.4856064022
-0.906019032 5.550942898 -0.2925591469
-0.9022763371 5.534087658 -0.09717320651
-0.9125837088 5.536450863 0.09724301845
-0.9118213058 5.537847996 0.2919311225
-0.9054425955 5.511106491 0.4849091768
-0.899934411 5.489573479 0.677893877
-0.8924114704 5.449625015 0.8679500222
-0.8943068385 5.473193645 1.06973815
-0.8874737024 5.443295956 1.263321757
-0.8811301589 5.410349369 1.457203388
-0.45087412 2.793040037 -0.746486187
-0.7352671027 4.559847832 -1.056366801
-0.7839459777 4.872541428 -0.9510548115
-0.7903532982 4.917852879 -0.7822239399
-0.8832850456 5.50836134 -0.6798437834
-0.8848666549 5.530589581 -0.4863036573
-0.8857163191 5.542083263 -0.2919311225
-0.8829518557 5.537203789 -0.09717320651
-0.8910334706 5.519705296 0.0968939662
-0.892483592 5.540997505 0.2919311225
-0.8874627352 5.522101879 0.4856064022
-0.8807825446 5.486647606 0.6771626472
-0.8755688071 5.466360569 0.8701400757
-0.8755328655 5.472251415 1.068974853
-0.8712598085 5.457755089 1.266021132
-0.8622428775 5.41339159 1.457203388
-0.4521627426 2.861305952 -0.7646034956
-0.7193446159 4.56238699 -1.056366801
-0.7702259421 4.890629768 -0.954107821
-0.7744071484 4.928387642 -0.783475399
-0.8628206253 5.503566742 -0.6788688302
-0.8655571342 5.533644199 -0.4863036573
-0.8645141721 5.53330183 -0.2913030684
-0.8657750487 5.554082394 -0.0974175334
-0.8730062842 5.530682564 0.09703358263
-0.8718947768 5.536187172 0.2915124297
-0.8697661757 5.528950691 0.4859549999
-0.8616263866 5.489688396 0.6771626472
-0.8552584052 5.461577415 0.8688886166
-0.857640624 5.48303318 1.070501447
-0.8503991961 5.449211121 1.263321757
-0.8451231718 5.427821636 1.460309267
-0.4319531024 2.799938202 -0.7475214601
-0.7063854933 4.58412981 -1.060865879
-0.7517001033 4.889538765 -0.9533445239
-0.7572379708 4.937050343 -0.784414053
-0.8424003124 5.498696327 -0.677893877
-0.8468363285 5.540571213 -0.4866522849
-0.8454332948 5.544330597 -0.2917217612
-0.8451766372 5.549163342 -0.09727791697
-0.8555258512 5.545554638 0.09724301845
-0.8507401347 5.527353287 0.2908844054
-0.8501018286 5.536039829 0.4863036573
-0.8406513929 5.480890274 0.6757002473
-0.8367900848 5.468434334 0.8695144057
-0.8387222886 5.49390316 1.072027802
-0.8292485476 5.444584846 1.261522055
-0.8267511129 5.434558868 1.461344361
-0.4164184928 2.76322341 -0.7371687293
-0.6895800829 4.586687565 -1.060865879
-0.7340434194 4.888250351 -0.952581346
-0.7423445582 4.955291748 -0.7869169712
-0.8234158158 5.509600639 -0.6788688302
-0.8269065619 5.539551735 -0.4863036573
-0.826661706 5.551198959 -0.2919311225
-0.8249172568 5.546146393 -0.09717320651
-0.8351932168 5.548653126 0.09724301845
-0.8326324224 5.538188457 0.2913030684
-0.8295886517 5.531092644 0.4856064022
-0.8246712089 5.511419773 0.6791125536
-0.8165272474 5.463507652 0.8682629466
-0.8195409775 5.496797085 1.072027802
-0.8108103275 5.451301575 1.262421966
-0.8060737252 5.425945759 1.458238602
-0.4067698121 2.76466012 -0.7371687293
-0.6743650436 4.588949203 -1.060865879
-0.7186830044 4.902437687 -0.9548709989
-0.7247620821 4.949908257 -0.7856655121
-0.8051393032 5.512300491 -0.6788688302
-0.8064143062 5.534518719 -0.4856064022
-0.8093976378 5.561815739 -0.2923497856
-0.8061310053 5.552949905 -0.09724301845
-0.8162049055 5.547435284 0.09717320651
-0.8141641021 5.546989918 0.2916170955
-0.8091230989 5.526069164 0.4849091768
-0.8038058877 5.496446133 0.6769189239
-0.7974522114 5.466324329 0.8682629466
-0.8001772761 5.491713524 1.070501447
-0.793853581 5.461673737 1.264221549
-0.7860184312 5.421079159 1.456168056
-0.3965007365 2.758345127 -0.7350981832
-0.6694052815 4.66843605 -1.078861952
-0.7040929198 4.916454792 -0.9571607113
-0.7069192529 4.948497295 -0.7850397825
-0.7875768542 5.526868343 -0.6803312302
-0.789178133 5.545052528 -0.4863036573
-0.7888566852 5.556697369 -0.2919311225
-0.7877107859 5.555592537 -0.09724301845
-0.7945660949 5.534414768 0.0968939662
-0.7957636118 5.549659729 0.2916170955
-0.7919231057 5.536610603 0.4856064022
-0.7857348919 5.507079124 0.677893877
-0.7807152867 5.47871685 0.8698272705
-0.7804486752 5.490585804 1.06973815
-0.7753296494 5.468270779 1.265121341
-0.7685800791 5.427481651 1.457203388
-0.3882114291 2.769278049 -0.737686336
-0.6877426505 4.924715519 -0.9583055973
-0.692689538 4.966465473 -0.7875427008
-0.7662345171 5.507822037 -0.6776501536
-0.7709113359 5.5556674 -0.4870008826
-0.7698783875 5.555325985 -0.2917217612
-0.7694070339 5.566231728 -0.09738263488
-0.7767626643 5.540980339 0.09696377069
-0.7755556107 5.546469688 0.2913030684
-0.772865653 5.541314602 0.4857807159
-0.764180541 5.486061573 0.6749690175
-0.7624003291 5.487278461 0.8707658648
-0.7633148432 5.500922203 1.071264625
-0.7555900216 5.459229469 1.262421966
-0.7501593828 5.433958054 1.458238602
-0.3795877397 2.778272629 -0.7397568822
-0.6700172424 4.923195839 -0.9575424194
-0.6752776504 4.974843502 -0.7884813547
-0.7455080748 5.506659508 -0.6771626472
-0.7512479424 5.556350231 -0.4868265986
-0.7489767671 5.554152012 -0.2915124297
-0.7484686971 5.565050125 -0.09731282294
-0.7575313449 5.551714897 0.09710339457
-0.754145503 5.541358471 0.2908844054
-0.7543242574 5.549901485 0.4863036573
-0.7470024228 5.510463238 0.6776501536
-0.7420173287 5.488078594 0.8704530001
-0.7434117794 5.505628586 1.071646214
-0.7350542545 5.458099842 1.261522055
-0.7317795753 5.448159695 1.461344361
-0.3691235781 2.773835659 -0.7382039428
-0.6092014909 4.590190411 -1.059066176
-0.6533448696 4.929396629 -0.9583055973
-0.6592034101 4.986961842 -0.790045619
-0.726801753 5.513164043 -0.6776501536
-0.7302889228 5.547086239 -0.4857807159
-0.7306257486 5.564653397 -0.2919311225
-0.7277389765 5.557715893 -0.09713830054
-0.7386730909 5.558290005 0.09717320651
-0.7353238463 5.547916889 0.2910937071
-0.7344225049 5.548550129 0.4859549999
-0.7269846201 5.507133007 0.6769189239
-0.7205363512 5.473008633 0.8676371574
-0.7241901755 5.508190155 1.071646214
-0.7165052891 5.464496613 1.262421966
-0.711756587 5.443018436 1.459273934
-0.3743267953 2.890058279 -0.7692622542
-0.5941746235 4.600019932 -1.060865879
-0.637137413 4.939435959 -0.9598320127
-0.6428008676 4.997069359 -0.7912971973
-0.7080565691 5.519606113 -0.67813766
-0.7106695175 5.547625542 -0.4856064022
-0.7119548917 5.573113441 -0.2922451198
-0.7090937495 5.566173553 -0.09724301845
-0.7187519073 5.556868553 0.09710339457
-0.7169741392 5.558373451 0.2915124297
-0.7140303254 5.543176174 0.4852577746
-0.7080081701 5.511606216 0.6771626472
-0.7016797662 5.477449417 0.8679500222
-0.7052062154 5.512631893 1.072027802
-0.6979207397 5.470830441 1.263321757
-0.6922636032 5.441636562 1.458238602
-0.356993258 2.833846092 -0.7537331581
-0.5790842175 4.609799862 -1.062665462
-0.6218476295 4.957213879 -0.9628850222
-0.6243718266 4.991442204 -0.790045619
-0.6900148988 5.5318923 -0.679356277
-0.691298902 5.55007267 -0.4856064022
-0.6912670135 5.565654278 -0.2917217612
-0.6891694665 5.56464529 -0.09717320651
-0.6988524795 5.555375099 0.09703358263
-0.6985629797 5.568768978 0.2919311225
-0.6951732039 5.54958868 0.4856064022
-0.6880277991 5.508135319 0.6764314771
-0.6835308075 5.487706661 0.8692014813
-0.6845064163 5.503370285 1.06973815
-0.6797776222 5.480968952 1.265121341
-0.672791481 5.440186024 1.457203388
-0.3391177058 2.769878626 -0.7361334562
-0.5629882812 4.611793518 -1.062665462
-0.6045410037 4.959353924 -0.9628850222
-0.6145702004 5.056341648 -0.8000574708
-0.6157692075 5.081012726 -0.62329638
-0.6714286804 5.572855949 -0.09727791697
-0.678484261 5.549841881 0.0968939662
-0.678396821 5.55717802 0.2911984026
-0.6762772202 5.55593729 0.4859549999
-0.6692761183 5.514443874 0.6769189239
-0.6665159464 5.499748707 0.8707658648
-0.665764153 5.509624004 1.070501447
-0.6597074866 5.475570202 1.263321757
-0.6561330557 5.453895092 1.460309267
-0.3470075727 2.918758154 -0.775991559
-0.5476950407 4.613634586 -1.062665462
-0.6368371248 5.380608082 -1.044932961
-0.599193871 5.070121765 -0.8019346595
-0.5977561474 5.073169231 -0.6220777035
-0.6515082717 5.571193218 -0.09720810503
-0.6612581015 5.561989307 0.0970684886
-0.6580552459 5.551578045 0.2907797098
-0.6578184962 5.566177845 0.4866522849
-0.6500537992 5.508747578 0.6759439707
-0.6463920474 5.494194031 0.8695144057
-0.6479464769 5.515701294 1.071264625
-0.6408672333 5.471920967 1.26197207
-0.6375380158 5.459990025 1.461344361
-0.3446421921 2.983222723 -0.7930736542
-0.5315858722 4.61551857 -1.062665462
-0.6239237785 5.425599575 -1.053328514
-0.5812658668 5.07022047 -0.8016218543
-0.5811719894 5.085086346 -0.62329638
-0.579685986 5.087846756 -0.4442946017
-0.5792885423 5.092237949 -0.2663911581
-0.6309291124 5.563498497 -0.09703358263
-0.6427568197 5.572209358 0.09720810503
-0.6400401592 5.565746307 0.2914077342
-0.6389006376 5.564370155 0.4863036573
-0.6330767274 5.530704975 0.6783813238
-0.6265390515 5.490528584 0.8685758114
-0.6304656267 5.533534527 1.074317575
-0.6219838262 5.47606039 1.262421966
-0.6176043749 5.454503536 1.459273934
-0.3324184418 2.972946405 -0.7899677753
-0.5171998739 4.63283968 -1.066264629
-0.6046863198 5.433702946 -1.0544734
-0.5626798272 5.072316647 -0.8016218543
-0.5638539195 5.091030598 -0.6237838864
-0.5610514879 5.081917286 -0.4435973465
-0.5610562563 5.098297596 -0.2666004896
-0.6128192544 5.577593327 -0.09724301845
-0.6230785847 5.572432518 0.09717320651
-0.6210545301 5.57191658 0.2916170955
-0.617180407 5.554793358 0.4852577746
-0.6146463752 5.540772915 0.679356277
-0.6078025103 5.496609211 0.8692014813
-0.6084604263 5.520196915 1.071264625
-0.6027613878 5.486051559 1.264221549
-0.5981406569 5.452785492 1.458238602
-0.5765905976 5.324934006 -1.423556805
-0.4991717339 4.625017166 -1.06401515
-0.5840314031 5.420165062 -1.05142045
-0.5447583795 5.072285652 -0.8013089299
-0.5464593768 5.104905605 -0.625246346
-0.544577837 5.095731258 -0.4446431994
-0.5449500084 5.116113663 -0.2674378753
-0.5896237493 5.55395174 -0.09678925574
-0.6013621092 5.562749863 0.09696377069
-0.5999822021 5.568198204 0.2913030684
-0.5977879763 5.556913853 0.4852577746
-0.59157902 5.51733017 0.6761876941
-0.5884932876 5.506657124 0.8704530001
-0.587936461 5.510573864 1.068974853
-0.5838124752 5.490060329 1.264671445
-0.5781523585 5.454940796 1.458238602
-0.573500514 5.474856377 -1.463414907
-0.4838325381 4.634484291 -1.065814734
-0.5636870861 5.408501625 -1.048749089
-0.5274562836 5.078085899 -0.8019346595
-0.5274088979 5.09493494 -0.6237838864
-0.5276049972 5.105529308 -0.4453404844
-0.526063621 5.108050346 -0.2669145167
-0.5692161918 5.546029091 -0.09661472589
-0.5784036517 5.531004906 0.09637039155
-0.5770261884 5.536488056 0.2895236611
-0.5746742487 5.523296356 0.4821201861
-0.5684300065 5.481845379 0.6715566516
-0.5643930435 5.461519718 0.8629441261
-0.5646718144 5.473534107 1.061342478
-0.5612553954 5.459109783 1.257023096
-0.5602875948 5.468457222 1.461344361
-0.3026305139 2.989718437 -0.7935912609
-0.4664796889 4.624511242 -1.063115239
-0.5457865596 5.420203686 -1.050657272
-0.5105172396 5.087758541 -0.8031861186
-0.5100146532 5.100695133 -0.6242713332
-0.5099790692 5.109322071 -0.4455147684
-0.5090193152 5.117805481 -0.2673332095
-0.5498324633 5.537937164 -0.09644020349
-0.5596975684 5.538958549 0.09647510946
-0.5568577051 5.520486355 0.2885816097
-0.5565876365 5.537163258 0.4831660688
-0.5490920544 5.48182106 0.6713129282
-0.5454912186 5.455499172 0.861692667
-0.5459500551 5.479379177 1.062105775
-0.5396943688 5.435825825 1.251174331
-0.5417704582 5.466439724 1.460309267
-0.2831766605 2.898467064 -0.7687446475
-0.4515209496 4.6299119 -1.06401515
-0.5238263011 5.390810966 -1.044551373
-0.4945973754 5.099254608 -0.8047505021
-0.4929098189 5.100381851 -0.6240276098
-0.491375953 5.103138447 -0.444817543
-0.49128443 5.111512661 -0.2669145167
-0.5297340751 5.531860352 -0.09630057961
-0.5417165756 5.544764042 0.09654491395
-0.538356781 5.530347824 0.2890002728
-0.5361030102 5.527173519 0.4821201861
-0.5314829946 5.489539623 0.672044158
-0.526258707 5.455403328 0.8613798022
-0.5285279155 5.488976955 1.06363225
-0.5225971341 5.447285175 1.253423929
-0.5226842761 5.468297958 1.460309267
-0.2675741911 2.835921049 -0.7516625524
-0.4360850453 4.639220238 -1.065814734
-0.5037446022 5.369061947 -1.039971948
-0.4756902456 5.089148998 -0.8028733134
-0.4762061536 5.113931179 -0.6254900694
-0.4737140536 5.096803665 -0.4441202581
-0.4739899933 5.119163036 -0.2672285438
-0.5113406181 5.54363203 -0.09647510946
-0.5216070414 5.538658142 0.09640529752
-0.5196098685 5.538158894 0.2893142998
-0.5170267224 5.52098608 0.4814229608
-0.5132409334 5.501243591 0.6732628345
-0.5073939562 5.459173679 0.861692667
-0.5086403489 5.482968807 1.062105775
-0.5039365888 5.452956676 1.254323721
-0.5021774769 5.454699039 1.456168056
-0.2538293898 2.794511318 -0.7402745485
-0.4198894501 4.640714169 -1.065814734
-0.4572160542 5.082908154 -0.8016218543
-0.4585280418 5.117539406 -0.6257337928
-0.4564534724 5.104380131 -0.4446431994
-0.4564709663 5.124765396 -0.2674378753
-0.4918084145 5.543391228 -0.09644020349
-0.501185596 5.528496265 0.0961958617
-0.5004556775 5.541927814 0.2894189656
-0.4984655678 5.530694962 0.4821201861
-0.493503511 5.497070312 0.6725316644
-0.4883359075 5.460911751 0.861692667
-0.4888011813 5.476888657 1.0605793
-0.4854179919 5.460505962 1.255673409
-0.4841548502 5.467964649 1.459273934
-0.2481066436 2.841568947 -0.7526978254
-0.4036865532 4.642151833 -1.065814734
-0.4657399952 5.366580009 -1.038827062
-0.4403197765 5.094313622 -0.8031861186
-0.4403223395 5.115153313 -0.625246346
-0.4396549165 5.117852688 -0.4456890821
-0.4382399619 5.122347355 -0.2672285438
-0.4736449122 5.559021473 -0.09668453783
-0.4825800061 5.538180351 0.09633549303
-0.4805882871 5.53767252 0.2891049683
-0.4795017838 5.536370277 0.4824687839
-0.4743106961 5.498759747 0.6725316644
-0.469945699 5.470456123 0.8629441261
-0.469678849 5.478561878 1.0605793
-0.4658554792 5.456341743 1.254323721
-0.4653936028 5.473471165 1.460309267
-0.4609650373 5.50098753 -1.467556119
-0.3891014457 4.662952423 -1.070313692
-0.4473312497 5.372086525 -1.03959024
-0.4230253994 5.101725578 -0.8041247725
-0.4218096733 5.108745575 -0.6242713332
-0.422604233 5.129284859 -0.4465606511
-0.4206822515 5.127827644 -0.2674378753
-0.4566807151 5.590536594 -0.09720810503
-0.4659125805 5.571715355 0.0968939662
-0.4627480209 5.557229042 0.2900469899
-0.4634742439 5.577721596 0.4859549999
-0.4577337801 5.532035351 0.6764314771
-0.453441143 5.50356245 0.8679500222
-0.4531272948 5.511474609 1.0666852
-0.4460100532 5.448224545 1.252074242
-0.4469111264 5.482764721 1.462379694
-0.371889472 4.652626991 -1.067614317
-0.428106755 5.367743969 -1.038445473
-0.4059949517 5.113017082 -0.8056891561
-0.4041342139 5.112165928 -0.6245151162
-0.403914839 5.120797157 -0.4456890821
-0.4034091532 5.137228966 -0.2678565681
-0.4363825321 5.582128525 -0.09703358263
-0.4478990734 5.591247082 0.09720810503
-0.4450920522 5.580711365 0.2911984026
-0.444318831 5.583277702 0.4863036573
-0.4395166039 5.547451496 0.67813766
-0.4345391989 5.509049892 0.8685758114
-0.4372731447 5.556080818 1.075080752
-0.4274472594 5.455575943 1.253423929
-0.4271702468 5.476586819 1.460309267
-0.4212187827 5.486735821 -1.462897301
-0.3586149812 4.692758083 -1.076612353
-0.4099653661 5.377036095 -1.039971948
-0.3869474232 5.09864521 -0.8031861186
-0.3873323202 5.127401829 -0.6262212992
-0.3855868876 5.116216183 -0.4451661408
-0.3854730427 5.138605595 -0.2678565681
-0.4173425436 5.589600563 -0.09713830054
-0.4286832213 5.596764088 0.09727791697
-0.4265211821 5.594179153 0.291826427
-0.4242208898 5.576848507 0.4856064022
-0.4207503796 5.556869507 0.6791125536
-0.4157502353 5.516442776 0.8695144057
-0.4166997075 5.541911602 1.072027802
-0.4086905718 5.460921288 1.254323721
-0.4074779153 5.470338345 1.458238602
-0.4026270509 5.495879173 -1.464967847
-0.3422352672 4.693981171 -1.076612353
-0.3924738467 5.396057129 -1.043406487
-0.3690083921 5.097994804 -0.8028733134
-0.3697158098 5.132681847 -0.626708746
-0.3678719401 5.119517803 -0.4453404844
-0.3668199778 5.129959106 -0.2673332095
-0.3979690373 5.593017578 -0.09717320651
-0.407976687 5.582271099 0.09699867666
-0.406989783 5.595633984 0.291826427
-0.4047499597 5.578295231 0.4856064022
-0.4007773995 5.550384998 0.67813766
-0.3966371119 5.519830704 0.8698272705
-0.396789372 5.53550005 1.070501447
-0.3904615641 5.473977566 1.257023096
-0.3889260292 5.479435921 1.460309267
-0.3839818835 5.50496006 -1.467038393
-0.3236881793 4.664042473 -1.0694139
-0.375261277 5.420897484 -1.047985911
-0.351480931 5.103193283 -0.803499043
-0.3507125974 5.118097782 -0.6247588396
-0.3506771922 5.130709648 -0.4462119937
-0.3489118814 5.131207943 -0.2673332095
-0.3791166842 5.60434866 -0.09734772146
-0.3890448213 5.591641426 0.09713830054
-0.3869016767 5.58905077 0.2914077342
-0.3861002624 5.591599941 0.4866522849
-0.3813989758 5.551750183 0.67813766
-0.3775001168 5.523152351 0.8701400757
-0.3777300119 5.540768147 1.071264625
-0.3709543943 5.469474316 1.255673409
-0.3697980344 5.480760098 1.460309267
-0.36488989 5.508194447 -1.467556119
-0.3086879849 4.684589386 -1.073912978
-0.3594301343 5.469190598 -1.057144761
-0.3339240849 5.108331203 -0.8041247725
-0.3327148259 5.117310524 -0.6245151162
-0.3339244425 5.149796486 -0.4477808177
-0.3311257362 5.134388447 -0.2674378753
-0.3595553935 5.60563755 -0.09734772146
-0.3700497746 5.600946426 0.09727791697
-0.3673937619 5.590367317 0.2914077342
-0.3670993447 5.600865841 0.48734954
-0.3620212674 5.55304718 0.67813766
-0.358089149 5.522465229 0.8698272705
-0.359277457 5.555766582 1.073935866
-0.3516085148 5.466846943 1.254773617
-0.3511562049 5.489729404 1.462379694
-0.3455380499 5.507506847 -1.467038393
-0.2920898795 4.68174839 -1.073013186
-0.3420421183 5.497844219 -1.062487364
-0.3166991472 5.119324207 -0.8056891561
-0.3152191937 5.124384403 -0.625246346
-0.3152154684 5.138998508 -0.446734935
-0.3140535057 5.149467468 -0.2681705952
-0.3396213055 5.600871086 -0.09724301845
-0.3506252766 5.604199409 0.09731282294
-0.3478759825 5.591615677 0.2914077342
-0.3475502729 5.60211277 0.48734954
-0.3436116278 5.570127487 0.6800875068
-0.3385692239 5.519738197 0.8692014813
-0.3397606909 5.555027485 1.073554277
-0.3325246572 5.468040466 1.254773617
-0.331523478 5.483208179 1.460309267
-0.3259696066 5.502893448 -1.465485573
-0.2766609192 4.698302269 -1.076612353
-0.3237706721 5.5146842 -1.065540314
-0.2980204821 5.106594086 -0.803499043
-0.2980182171 5.137343407 -0.626708746
-0.2962383926 5.122166157 -0.4451661408
-0.2963069081 5.154520035 -0.2683799267
-0.3193852901 5.590043068 -0.09703358263
-0.3309414685 5.603393078 0.09727791697
-0.3288248777 5.60077095 0.291826427
-0.3270602524 5.587380409 0.4859549999
-0.3232448697 5.555439472 0.67813766
-0.3195263445 5.524830818 0.8698272705
-0.3203691244 5.556179523 1.073554277
-0.3138801455 5.476950645 1.2565732
-0.3121655285 5.480473995 1.459273934
-0.3068649769 5.505927086 -1.46600318
-0.2596157789 4.687565327 -1.073912978
-0.302136451 5.472654343 -1.057144761
-0.2797615826 5.099713326 -0.8022475243
-0.2805145681 5.146281719 -0.6276836991
-0.2785741687 5.127148151 -0.4455147684
-0.27788046 5.147545815 -0.2679612339
-0.3012612164 5.617083073 -0.09748735279
-0.3107129037 5.592534542 0.0970684886
-0.3094912767 5.605873585 0.2920357883
-0.3077721298 5.592466831 0.4863036573
-0.3044996262 5.568426132 0.6796000004
-0.3005618155 5.531829834 0.8707658648
-0.3005463779 5.549423218 1.072027802
-0.2951800823 5.485795975 1.258372784
-0.2934442461 5.489247322 1.461344361
-0.2880480587 5.514681339 -1.468073726
-0.2428463697 4.680657864 -1.072113276
-0.272587955 5.2717309 -1.01783812
-0.262466222 5.110523224 -0.8038119078
-0.2624312341 5.127358913 -0.625246346
-0.2614856362 5.144007206 -0.4469092488
-0.2598108649 5.146490097 -0.2678565681
-0.2830356658 5.626039505 -0.09762696922
-0.2916064262 5.60157299 0.09720810503
-0.2904870212 5.598890781 0.2916170955
-0.288865298 5.605445385 0.48734954
-0.2837397754 5.543683529 0.6764314771
-0.2823176682 5.534768581 0.8710787296
-0.2813705802 5.554359913 1.07279098
-0.2765949965 5.478960037 1.2565732
-0.2754316032 5.494049072 1.462379694
-0.269477129 5.509817123 -1.466520786
-0.2275111675 4.685330391 -1.073013186
-0.2507439256 5.18240118 -1.000283718
-0.2455162704 5.111365318 -0.8038119078
-0.2456200868 5.132165909 -0.6257337928
-0.2444246411 5.144845963 -0.4469092488
-0.2427416444 5.147323132 -0.2678565681
-0.2642820776 5.624949932 -0.09759206325
-0.2732224762 5.606503963 0.09727791697
-0.2719172835 5.599823475 0.2916170955
-0.2704657316 5.610352993 0.4876981676
-0.2662124932 5.562438488 0.6786250472
-0.2635843158 5.527781963 0.8698272705
-0.2635081708 5.567028522 1.075080752
-0.2582394779 5.475953579 1.255673409
-0.2573929131 5.498791218 1.463414907
-0.2512028813 5.510680676 -1.466520786
-0.2126782238 4.701633453 -1.076612353
-0.2328486443 5.167514324 -0.9972305894
-0.2288307399 5.118071556 -0.8047505021
-0.2275266945 5.129026413 -0.625246346
-0.2268357128 5.133686066 -0.4458633959
-0.2258471102 5.152090073 -0.2680658996
-0.2442994118 5.617846489 -0.09745243937
-0.2549930811 5.615369797 0.0974175334
-0.2525495589 5.604728699 0.291826427
-0.2516820729 5.607237816 0.48734954
-0.2483820021 5.577172756 0.6803312302
-0.2444626987 5.532615662 0.8704530001
-0.2454785407 5.57767868 1.076988935
-0.2392944247 5.480715752 1.2565732
-0.2381981164 5.4996562 1.463414907
-0.2313141823 5.49608326 -1.462379694
-0.1959410906 4.69455862 -1.07481277
-0.2149709165 5.1722188 -0.9979938865
-0.2105582654 5.108970642 -0.8031861186
-0.2099444866 5.137722969 -0.6262212992
-0.2084295005 5.122502327 -0.444817543
-0.2086652368 5.172803402 -0.2691126168
-0.2238874584 5.598683834 -0.09710339457
-0.2346350849 5.59824419 0.09710339457
-0.2328994274 5.603580475 0.2917217612
-0.2314470112 5.592156887 0.4859549999
-0.228666842 5.57205534 0.6796000004
-0.2246680707 5.52159214 0.8685758114
-0.225687921 5.570654869 1.075462461
-0.2206320912 5.493200779 1.259272695
-0.2185367048 5.488872528 1.460309267
-0.2127994895 5.514230728 -1.467038393
-0.178806901 4.675741196 -1.070313692
-0.1975137293 5.188632011 -1.001046896
-0.1923497468 5.099804401 -0.8016218543
-0.1921585351 5.142391205 -0.626708746
-0.1906940788 5.127180576 -0.4451661408
-0.1900938451 5.159529209 -0.2683799267
-0.204854697 5.61342001 -0.09734772146
-0.2147862613 5.59103632 0.09696377069
-0.2136429548 5.612342834 0.2921404541
-0.2120773792 5.596912861 0.4863036573
-0.20884417 5.56290102 0.6783813238
-0.2055381089 5.526290894 0.8692014813
-0.2055888772 5.553751945 1.072027802
-0.2015972286 5.497831821 1.260172367
-0.1996572465 5.497324467 1.462379694
-0.1937543452 5.520731926 -1.468591332
-0.162079379 4.664651394 -1.067614317
-0.1789949089 5.177516937 -0.9987570643
-0.1746806949 5.104393482 -0.8022475243
-0.1741385162 5.141047478 -0.6264650226
-0.1729285717 5.131797791 -0.4455147684
-0.1715486795 5.144192219 -0.267542541
-0.1856558621 5.626092911 -0.09755715728
-0.1963139325 5.621729374 0.09748735279
-0.1938450783 5.607065678 0.291826427
-0.1933596283 5.621513844 0.4883953929
-0.1892908216 5.559628487 0.677893877
-0.1866441965 5.538820267 0.8710787296
-0.1866630018 5.568170071 1.074699163
-0.1818866432 5.482921124 1.2565732
-0.1807188243 5.505710602 1.46445024
-0.1748468429 5.532959938 -1.471697211
-0.1477423757 4.727518082 -1.082011223
-0.1614073962 5.193809032 -1.001810074
-0.1569843888 5.108921051 -0.8028733134
-0.1558337063 5.129718304 -0.625002563
-0.155376181 5.144318581 -0.4465606511
-0.1538280547 5.152745247 -0.2679612339
-0.165837571 5.620709896 -0.09745243937
-0.176253438 5.608389378 0.09724301845
-0.1738978773 5.595730782 0.2911984026
-0.1737395823 5.622154713 0.4883953929
-0.1697602272 5.556287289 0.6774064302
-0.1674294174 5.543387413 0.8717044592
-0.1674595624 5.576637268 1.076225638
-0.1627477258 5.483522415 1.2565732
-0.1617242843 5.514032364 1.466520786
-0.1550448239 5.51615715 -1.467038393
-0.1303729415 4.696836948 -1.07481277
-0.1436025351 5.206116199 -1.004099846
-0.1394174844 5.119310856 -0.8044375777
-0.1382454485 5.142137527 -0.6264650226
-0.1370976567 5.132879734 -0.4455147684
-0.1360021234 5.159240246 -0.2682752609
-0.1462178081 5.621254444 -0.09745243937
-0.1568414122 5.614966869 0.09734772146
-0.1545304358 5.602293015 0.2915124297
-0.1537844986 5.610776424 0.48734954
-0.1507948637 5.572720528 0.679356277
-0.1477076858 5.530115128 0.8695144057
-0.1482019275 5.585038185 1.077752113
-0.1438082606 5.491849422 1.258372784
-0.1422799379 5.506838322 1.46445024
-0.1356448233 5.510870934 -1.465485573
-0.1139330864 4.695315361 -1.074362874
-0.1255220771 5.210510731 -1.004863024
-0.1213160083 5.109892368 -0.8028733134
-0.1201545447 5.136634827 -0.6257337928
-0.119137004 5.131335258 -0.4453404844
-0.1180821285 5.163677216 -0.2684845924
-0.1267736554 5.62972784 -0.09759206325
-0.1371413618 5.611482143 0.09727791697
-0.1351647526 5.610785007 0.2919311225
-0.1341015249 5.607295036 0.4870008826
-0.1313400269 5.5732131 0.679356277
-0.1284527332 5.532571793 0.8698272705
-0.1286136657 5.581596375 1.076988935
-0.1247294471 5.496214867 1.259272695
-0.1228825524 5.499576569 1.462379694
-0.1165691838 5.51903677 -1.467556119
-0.09725814313 4.682046413 -1.071213603
-0.1079787239 5.242322445 -1.010968924
-0.1032370999 5.098434448 -0.8009960651
-0.1023826748 5.144961834 -0.626708746
-0.1012625024 5.133711815 -0.4455147684
-0.09963229299 5.142091751 -0.2673332095
-0.1071960554 5.634134293 -0.09766186774
-0.1173445806 5.601930141 0.09710339457
-0.1157827973 5.62120676 0.2924544513
-0.1146101505 5.611713409 0.48734954
-0.111883603 5.573637486 0.679356277
-0.1092940196 5.540886402 0.8710787296
-0.109051235 5.578085423 1.076225638
-0.1056915 5.50440979 1.261072278
-0.1039771438 5.515422821 1.466520786
-0.09757964313 5.534861565 -1.471697211
-0.08084779978 4.678460121 -1.070313692
-0.09196592867 5.376149654 -1.036918998
-0.08543825895 5.098763943 -0.8009960651
-0.08422601968 5.133379459 -0.625246346
-0.08334051818 5.134034157 -0.4455147684
-0.08161763102 5.13841486 -0.267123878
-0.08762565255 5.640472889 -0.09776658565
-0.09799738228 5.614302158 0.09731282294
-0.09599347413 5.611591816 0.2919311225
-0.09522179514 5.624032497 0.4883953929
-0.09216782451 5.558115959 0.6774064302
-0.08995057642 5.541234016 0.8710787296
-0.08958325535 5.578432083 1.076225638
-0.08638358861 5.49889946 1.259722471
-0.08472262323 5.515752316 1.466520786
-0.07828462869 5.537100315 -1.472214937
-0.06462265551 4.686508179 -1.072113276
-0.0743201822 5.4588871 -1.052946925
-0.06771940738 5.104956627 -0.8019346595
-0.06630775332 5.133642197 -0.625246346
-0.06549612433 5.140270233 -0.4460377097
-0.0636793524 5.138668537 -0.267123878
-0.06783837825 5.63274622 -0.09762696922
-0.07848415524 5.62060833 0.0974175334
-0.07632172108 5.605901718 0.2916170955
-0.07564441115 5.628314495 0.4887439907
-0.07286827266 5.566343307 0.6783813238
-0.07070935518 5.549415112 0.8723301888
-0.07020754367 5.58656311 1.077752113
-0.06721328944 5.501116276 1.260172367
-0.06546706706 5.516014576 1.466520786
-0.04826205224 4.686705112 -1.072113276
-0.05564341694 5.496412754 -1.060197592
