# .PCD v0.7 - Point Cloud Data file format
VERSION 0.7
FIELDS x y z
SIZE 4 4 4
TYPE F F F
COUNT 1 1 1
WIDTH 1203
HEIGHT 1
VIEWPOINT 0 0 0 1 0 0 0
POINTS 1203
DATA ascii
-0.3011416197 -2.525451183 -0.3961436152
-0.2940839231 -2.455328941 -0.2126346231
-0.2906347513 -2.419377089 -0.1255027652
-0.2913440764 -2.418153524 -0.04181417078
-0.4884264171 -4.120533943 0.07172759622
-0.4888083637 -4.111478329 0.2147879303
-0.4845883846 -4.069920063 0.3548728228
-0.1213016808 -1.011262178 0.1897269338
-0.1212983131 -1.008256793 0.2244977355
-0.3608088195 -2.959903955 -0.7873796225
-0.4410614073 -3.607773304 -0.8291661739
-0.5052621961 -4.12694025 -0.7999341488
-0.3099553287 -2.524384737 -0.3961436152
-0.3026531935 -2.454287291 -0.2126346231
-0.2966266274 -2.398526192 -0.124456048
-0.3012600541 -2.429028988 -0.04202359915
-0.5086225271 -4.166442871 0.07256531715
-0.50728333 -4.14344883 0.2165673375
-0.5084903836 -4.147307396 0.3618452549
-0.1257935315 -1.018626451 0.1912534088
-0.1185896248 -0.9575440884 0.2128002644
-0.1286987364 -1.036205173 0.2681885958
-0.3648869693 -2.908788919 -0.7739210129
-0.4551116526 -3.617812634 -0.8318656087
-0.5199102759 -4.127099037 -0.8003157377
-0.3190128505 -2.525247335 -0.39645648
-0.3097137213 -2.441356659 -0.2115887552
-0.3049975932 -2.397476196 -0.124456048
-0.3067861199 -2.408179998 -0.04167455062
-0.5221655965 -4.156705856 0.07242568582
-0.5237629414 -4.163541317 0.2177187204
-0.5257067084 -4.167250633 0.3637626767
-0.1273689866 -1.002600312 0.1882004589
-0.1148783192 -0.9030171037 0.2002030015
-0.1282227933 -1.005111456 0.2599063516
-0.37255615 -2.892234802 -0.769779861
-0.4701021016 -3.639475822 -0.8372644186
-0.5346004963 -4.133141041 -0.8018422723
-0.3263688982 -2.51633954 -0.3952049911
-0.3147203624 -2.416607857 -0.2094970196
-0.3147563934 -2.410314798 -0.1251887381
-0.3137331605 -2.399217844 -0.04153493047
-0.5292956829 -4.103385925 0.0715181604
-0.5378229022 -4.163762569 0.2178233862
-0.5390112996 -4.161532879 0.363414079
-0.1271387786 -0.9749175906 0.1828578115
-0.1224142164 -0.9374132156 0.2083012462
-0.1315551847 -1.004680753 0.2599063516
-0.3831578493 -2.898644209 -0.7718504667
-0.4831922948 -3.645624161 -0.839064002
-0.5495951772 -4.141076088 -0.8037503362
-0.333669126 -2.507411003 -0.393953532
-0.323787868 -2.42345047 -0.2101942748
-0.3240735531 -2.419155359 -0.1257120967
-0.3229047358 -2.404053926 -0.04163964465
-0.551302433 -4.153940201 0.2174047083
-0.5533335209 -4.163672447 0.3637626767
-0.1298502833 -0.9705988765 0.1820945889
-0.1298309863 -0.9678831697 0.2154996693
-0.1350613981 -1.004215479 0.2599063516
-0.3945726454 -2.90686059 -0.7744386792
-0.4938127697 -3.628467798 -0.8354648352
-0.5659019947 -4.152749062 -0.8064216375
-0.3434892297 -2.514059544 -0.3952049911
-0.3328030407 -2.429522514 -0.2959553003
-0.3298083842 -2.404540062 -0.2086254656
-0.3297948539 -2.398223162 -0.1246653795
-0.3304752409 -2.396969318 -0.04153493047
-0.3301818073 -2.429303169 0.04209340736
-0.5647199154 -4.14407444 0.2169860303
-0.1356417686 -0.9876446724 0.1855291426
-0.1302846074 -0.9461883903 0.2105507553
-0.1372450441 -0.9941693544 0.2573181689
-0.4060501456 -2.915032387 -0.7770268321
-0.5072837472 -3.632512093 -0.8368145227
-0.5806668401 -4.152692795 -0.8068032265
-0.351988405 -2.510889292 -0.3948921561
-0.3412817121 -2.428345919 -0.2959553003
-0.3426419497 -2.434941292 -0.2114144564
-0.3384432793 -2.399035215 -0.1247700602
-0.3374398351 -2.385901451 -0.04136040807
-0.576693356 -4.124276161 0.216043964
-0.5821117163 -4.157734871 0.3635883629
-0.1368970722 -0.9716126323 0.1824761927
-0.1289532632 -0.9129248857 0.2029024214
-0.1390892267 -0.9822075963 0.2542123497
-0.4167691469 -2.917422056 -0.7780621052
-0.5216186047 -3.642293453 -0.8395139575
-0.5920932889 -4.129263878 -0.8026054502
-0.36215657 -2.519421816 -0.39645648
-0.3497561514 -2.427139997 -0.2959553003
-0.3457336724 -2.396263123 -0.2081025243
-0.3465295732 -2.395862341 -0.1246653795
-0.3443314731 -2.374813795 -0.04118588194
-0.5925033092 -4.132122993 0.2165673375
-0.594073236 -4.137928009 0.3620195687
-0.1299075037 -0.9003825188 0.1374009848
-0.141410619 -0.9789012671 0.1840026677
-0.1296254545 -0.8951116204 0.198853299
-0.1427944899 -0.9836279154 0.2547299862
-0.4286292791 -2.92741847 -0.781167984
-0.5377249718 -3.663587332 -0.8449127674
-0.5768181682 -3.925163031 -0.762917161
-0.3692212105 -2.506416321 -0.3945792615
-0.3582264185 -2.425904274 -0.2959553003
-0.3529302776 -2.387157917 -0.207405284
-0.356061846 -2.402540922 -0.1250840724
-0.3549698889 -2.389421463 -0.04146512225
-0.6075049043 -4.133981705 0.216776669
-0.6076432467 -4.129915714 0.3614966273
-0.1423066854 -0.9648640752 0.1146137193
-0.1307382733 -0.8842905164 0.1348980367
-0.1425269842 -0.9628649354 0.1809497327
-0.1321770549 -0.8907983899 0.1979534924
-0.1402586848 -0.9429960251 0.2438595891
-0.3770839274 -2.499252319 -0.3936406672
-0.3744098842 -2.475671053 -0.3022925258
-0.3627526164 -2.395761013 -0.2082768381
-0.3590514064 -2.365739822 -0.1231999844
-0.3621054292 -2.380259991 -0.04132550582
-0.3646618426 -2.428411007 0.0421632193
-0.6213365793 -4.127886295 0.2165673375
-0.6235402822 -4.137620449 0.3623681962
-0.1456737369 -0.9643614292 0.1146137193
-0.3867103159 -2.503777504 -0.3945792615
-0.3800124526 -2.454731703 -0.2998551428
-0.3726386726 -2.404324532 -0.209148407
-0.3712928891 -2.390128851 -0.1245607138
-0.3741037548 -2.40269208 -0.04174436256
-0.3658436835 -2.379688263 0.04132550582
-0.3948308825 -2.498510361 -0.393953532
-0.3947895467 -2.49260354 -0.3047299087
-0.3797807395 -2.395137787 -0.2084511369
-0.3780663908 -2.378955603 -0.1240373552
-0.3806009293 -2.389522552 -0.04153493047
-0.1524027139 -0.9633209109 0.1146137193
-0.4481354356 -2.782252312 -0.6406571865
-0.3909444809 -2.419113636 -0.3814387619
-0.3911099732 -2.414787531 -0.2952241302
-0.384950459 -2.374130487 -0.2067080289
-0.3940568268 -2.424934864 -0.1265494823
-0.3863681555 -2.372389793 -0.04125569016
-0.1621050537 -1.001975298 0.1194885001
-0.4074349403 -2.466458559 -0.3892605007
-0.4047245979 -2.444742441 -0.299123913
-0.3955154717 -2.386531591 -0.2079282254
-0.3946654201 -2.376258135 -0.1240373552
-0.3939903975 -2.367081881 -0.04118588194
-0.3959358931 -2.407297373 0.04188397899
-0.559048593 -3.391632557 0.1779433936
-0.1591241211 -0.9622334838 0.1146137193
-0.6905841231 -4.096020222 -0.7991708517
-0.4217377007 -2.496112823 -0.3942663968
-0.4135867059 -2.445272207 -0.2993676662
-0.4062575996 -2.396851778 -0.2089740783
-0.4060479105 -2.390548229 -0.1248747408
-0.403591603 -2.373577833 -0.04132550582
-0.3941397071 -2.342726707 0.0407670252
-0.5698891282 -3.383751631 0.1776293814
-0.5673909783 -3.361755848 0.2945610285
-0.1626498401 -0.9616438746 0.1146137193
-0.4320261776 -2.506380558 -0.3961436152
-0.4179804027 -2.422369003 -0.2966865301
-0.415222168 -2.401381493 -0.2094970196
-0.4146547914 -2.393124342 -0.1250840724
-0.4121437371 -2.376166821 -0.04139531404
-0.4015681148 -2.339436054 0.04073211923
-0.5792120695 -3.363782406 0.294909656
-0.1658379138 -0.9610991478 0.1146137193
-0.4399933219 -2.502988338 -0.3958307207
-0.4274666309 -2.426760197 -0.2974177599
-0.424567163 -2.407839775 -0.2101942748
-0.4239784777 -2.399603128 -0.1255027652
-0.4183439314 -2.362899303 -0.04118588194
-0.4124273956 -2.355819225 0.04104626551
-0.5931206346 -3.377542257 0.2963041365
-0.1690240353 -0.9605439901 0.1146137193
-0.450471431 -2.511159182 -0.3973950744
-0.4380419254 -2.436976194 -0.2988801897
-0.429441005 -2.386734009 -0.2084511369
-0.4316433966 -2.394177675 -0.1252934188
-0.4265895188 -2.361424446 -0.04118588194
-0.4319029748 -2.417357922 0.0421632193
-0.6057581306 -3.383602142 0.1779433936
-0.6073670983 -3.389179468 0.2975243032
-0.4574561417 -2.499855757 -0.3958307207
-0.4490520358 -2.449100018 -0.3005863428
-0.4317058921 -2.349871159 -0.2053135335
-0.4404156506 -2.392579556 -0.1252934188
-0.4362790585 -2.3677876 -0.04132550582
-0.4353182018 -2.388293743 0.04167455062
-0.6247420907 -3.4207623 0.1800368279
-0.6206271052 -3.394878149 0.2982215583
-0.4666155577 -2.49816227 -0.3958307207
-0.4613118768 -2.464998722 -0.3027800024
-0.4439876676 -2.367856264 -0.2070566714
-0.4491817057 -2.390949249 -0.1252934188
-0.4464330375 -2.374033689 -0.04146512225
-0.4363875985 -2.345396996 0.04094155133
-0.6431321502 -3.449864388 0.1817115843
-0.466937542 -2.447774172 -0.300830096
-0.4642189741 -2.428914547 -0.2126346231
-0.4575249851 -2.389366865 -0.1252934188
-0.4554698467 -2.37638855 -0.04153493047
-0.442743063 -2.331994057 0.04073211923
-0.1827532351 -0.9580267072 0.1146137193
-0.4689949751 -2.417275429 -0.3833159804
-0.4667266607 -2.403341055 -0.2954678237
-0.4661826789 -2.39607048 -0.2098456323
-0.4593320787 -2.356470585 -0.1236186624
-0.4625819921 -2.370939732 -0.04146512225
-0.4504733086 -2.330513239 0.04073211923
-0.185929209 -0.9574153423 0.1146137193
-0.4753184319 -2.398337364 -0.2101942748
-0.4710301757 -2.37452507 -0.1246653795
-0.4739736021 -2.385001421 -0.04174436256
-0.4620595872 -2.348627329 0.04108116776
-0.1891031265 -0.9567934871 0.1146137193
-0.4722190499 -2.356803656 0.04125569016
-0.192441836 -0.956127584 0.1146137193
-0.7041662931 -3.439572573 0.3034509122
-0.1863731742 -0.9087449908 0.1087639853
-0.797976613 -3.846521378 -1.041022301
-0.7115074396 -3.417712927 0.3017078042
-0.8091327548 -3.836293459 -1.038951755
-0.716111958 -3.386477947 0.1791994572
-0.1853971034 -0.8744761348 0.1046204343
-0.8272441626 -3.852189541 -1.04412806
-0.190401718 -0.8843784928 -0.1675930917
-0.1909449399 -0.8853995204 -0.1367752552
-0.2101123631 -0.9693509936 -0.01661289483
-0.7258289456 -3.374194384 0.1786760986
-0.1914426684 -0.8884603977 0.07580011338
-0.8497543931 -3.890800714 -1.055516243
-0.2041175514 -0.9338185191 0.01598460786
-0.7454528809 -3.404679537 0.1804555207
-0.2031409889 -0.9254783392 0.1112013832
-0.2134718746 -0.9550181627 -0.08190101385
-0.2094821334 -0.9356355071 -0.04804553464
-0.1977898777 -0.8819684386 -0.01507708151
-0.1973977685 -0.8882028461 0.01518179569
-0.1966212839 -0.8832531571 0.04521939531
-0.2124231905 -0.9518877268 0.1146137193
-0.1996522844 -0.8823361993 -0.1675930917
-0.2002061456 -0.8833514452 -0.1367752552
-0.2027001083 -0.8972610235 0.01535631996
-0.9085927606 -3.960772038 -1.077256918
-0.9567482471 -4.16735363 -0.9771839976
-0.2052273601 -0.8946349025 0.01532141585
-0.9804276824 -4.260265827 0.3787534535
-0.8910493851 -3.8260324 -1.041022301
-0.9673047066 -4.146908283 -0.9731348157
-0.9750903249 -4.176988125 -0.8255025148
-0.242294997 -1.034654379 -0.1253382266
-0.2296592444 -0.9799269438 -0.08434136957
-0.209607169 -0.891564846 -0.01528651174
-0.9986289144 -4.274452686 0.3803222775
-0.9061784744 -3.830418587 -1.043092847
-0.9831217527 -4.149195194 -0.9744845629
-0.990570426 -4.177380085 -0.8262657523
-0.2229367048 -0.9372417927 -0.1131512895
-0.2229279131 -0.9364783168 -0.08050652593
-0.9235212803 -3.894623995 0.2075655609
-1.019524097 -4.296142101 0.3825883269
-0.923153758 -3.842259645 -1.047233939
-1.020774126 -4.238792419 -0.8392407298
-0.224342525 -0.9287394881 -0.1121763363
-0.2355585098 -0.9744265079 -0.0839927569
-0.9399160147 -3.903026342 0.2081935704
-1.034047484 -4.29061985 0.3824140131
-0.2409481108 -0.9982470274 0.1209509224
-1.039760947 -4.252366543 -0.8426753283
-0.2294744551 -0.9356625676 -0.1131512895
-0.9542590976 -3.908597708 0.06952859461
-0.9506883621 -3.888081551 0.2075655609
-1.053754091 -4.306337357 0.3841571212
-0.2321461588 -0.9472708106 0.1146137193
-1.053178906 -4.242995739 -0.8415305018
-0.2394529432 -0.9618239403 -0.1165636256
-0.9635668993 -3.887774229 0.06921444833
-0.9642541409 -3.884739637 0.2075655609
-1.071180582 -4.312300682 0.3850286603
-0.2450359464 -0.9849823117 0.1194885001
-1.095800638 -4.349711895 -0.8636643291
-0.2438142747 -0.9614276886 -0.01661289483
-0.9785954952 -3.890204906 0.06931915879
-0.9787843227 -3.885222912 0.2077748924
-1.083304763 -4.296944141 0.3839828372
-0.2484726012 -0.984120965 0.1194885001
-0.2377853394 -0.9267840981 -0.04794086516
-0.9883422256 -3.877423048 0.06914464384
-0.9939495325 -3.893740416 0.2084029317
-1.096798301 -4.293519974 0.3839828372
-0.2495951205 -0.9756428599 0.1185135394
-0.2252231538 -0.8671263456 -0.1048641726
-0.6537051797 -2.507817745 -0.04453674331
-1.010383129 -3.906861067 0.06973802298
-1.016047478 -3.923115969 0.210182339
-1.11377883 -4.297379494 0.3846800625
-0.2395341247 -0.9228870869 0.1119325981
-0.2322102189 -0.8807474375 -0.07597442716
-1.137891054 -4.328149796 0.387817651
-0.2554508746 -0.8961735964 0.01556575019
-0.2534287274 -0.8873170018 0.07702029496
-0.2550940514 -0.8837939501 0.01535631996
-0.2800434828 -0.9515063167 -0.01661289483
-0.2918522954 -0.9980571866 0.01745061018
-0.263908267 -0.8863931298 -0.0462661162
-0.2679383457 -0.8987814188 -0.01567046531
-0.2667799294 -0.9012116194 0.01570536941
-0.2581945658 -0.8578864336 -0.1048641726
-0.2595050335 -0.8606076837 -0.04490537941
-0.2687620819 -0.8901833892 -0.01553084422
-0.267052561 -0.8906977177 0.01553084422
-0.2705129981 -0.9010953903 0.04710348696
-0.263758719 -0.8665007949 -0.1367752552
-0.2727620304 -0.8949571252 -0.109738946
-0.269529283 -0.881590426 -0.01539122593
-0.2655123174 -0.8744525313 0.01525160577
-0.2666853666 -0.8772147894 0.0458474271
-0.2607550025 -0.8550257087 0.1348980367
-0.2853531241 -0.9339312315 0.2154996693
-0.2661002874 -0.8596313 -0.01500727143
-0.2685630322 -0.8735204339 0.01525160577
-0.2668079138 -0.8667341471 0.04532406852
-0.2716478407 -0.8819099069 0.07702029496
-0.2874288261 -0.9319863319 0.1146137193
-0.2937176824 -0.9506103396 0.1851475388
-0.2782446742 -0.8994190693 0.2074014395
-0.2613845468 -0.8402420878 -0.2241893411
-0.269099474 -0.8597490788 -0.04501005262
-0.2698275745 -0.8668496013 0.01514689159
-0.2687932551 -0.8619357347 0.07527717948
-0.2729310095 -0.8741310835 0.107301563
-0.2708436549 -0.8663823009 0.13708812
-0.2747618258 -0.8783777952 0.1706460416
-0.2790528238 -0.8910036683 0.2056018263
-0.2939255834 -0.9373444319 0.251624167
-0.2764577568 -0.8773459196 0.01535631996
-0.2770585716 -0.8781834245 0.04605676979
-0.2741993964 -0.8685920835 0.07597442716
-0.2723912895 -0.8618162274 0.1058391258
-0.2732701898 -0.8635483384 0.1367752552
-0.2801969647 -0.8849000335 0.1721725166
-0.2904060483 -0.9160308838 0.2119004577
-0.2925201058 -0.9215820432 0.2474830449
-1.425022602 -4.459810257 -0.9018261433
-0.3159769177 -0.9906838536 0.01745061018
-0.297172606 -0.9289253354 0.1146137193
-0.2786930799 -0.8701140285 0.1380267292
-0.3038214743 -0.9474294782 0.1851475388
-0.2985273004 -0.9298039675 0.2154996693
-1.409773946 -4.359540462 -0.882363677
-1.418023109 -4.37982893 -0.722465992
-0.2806614637 -0.8653286695 0.1374009848
-0.3071267903 -0.9463632107 0.1851475388
-1.137672901 -3.478657961 -0.8350149393
-1.421929598 -4.345263481 -0.8804554939
-1.433303595 -4.37485218 -0.722465992
-0.281216383 -0.8568362594 0.1361495107
-0.310428381 -0.9452853203 0.1851475388
-1.254669309 -3.795991898 -1.059657216
-1.140625238 -3.446914673 -0.8282663822
-1.4420259 -4.355184078 -0.8835085034
-1.442971349 -4.352946758 -0.7196501493
-1.322434068 -3.973068476 -0.0723907873
-0.3070453405 -0.9257089496 0.1146137193
-0.2804702222 -0.8446010947 0.1342722923
-0.3038213849 -0.9143862724 0.179041639
-0.3390035033 -1.019082546 0.2379947752
-1.271588206 -3.802581787 -1.062763095
-1.147081971 -3.426280737 -0.8242172599
-1.460961223 -4.361292839 -0.8857981563
-1.480141044 -4.413433552 -0.7306005955
-0.3050226569 -0.9068803191 -0.04794086516
-1.33629477 -3.968428135 -0.0723907873
-1.343901873 -4.016499043 0.07322850078
-1.474786997 -4.400016785 0.4022854865
-0.2938552797 -0.8757005334 0.1082765162
-0.2884495258 -0.858597219 0.1367752552
-0.3088878989 -0.9189029932 0.1801864952
-0.3089941144 -0.9181573987 0.213700071
-1.494248986 -4.434951305 1.24238348
-1.148661017 -3.39552474 -0.948882699
-1.150283933 -3.396414995 -0.8179186583
-0.3081865311 -0.9058099985 -0.04794086516
-1.346270084 -3.952382326 -0.07218135893
-1.332268357 -3.936018467 0.07183230668
-1.358331919 -4.008410931 0.2196028382
-1.494615078 -4.408050537 0.4035057127
-0.3114615679 -0.9159604311 0.1798048764
-0.307801038 -0.9041599035 0.2105507553
-1.504735708 -4.415079594 1.238242388
-1.156128645 -3.378700018 -0.9452592731
-1.160869241 -3.388692141 -0.8170188665
-1.143236756 -3.322084427 -0.1819209307
-1.363315344 -3.957112074 -0.07235588133
-1.356363297 -3.961613894 0.0723907873
-1.356772542 -3.958300352 0.2170906812
-1.51387167 -4.414113998 0.4045515656
-0.316722393 -0.9224428535 0.1146137193
-0.3114643693 -0.9055850506 0.1778967828
-0.3109553158 -0.903079927 0.2105507553
-1.523915291 -4.420758724 1.241348267
-1.165388227 -3.36734128 -0.9431886673
-1.172160625 -3.381181002 -0.6873568296
-1.160734296 -3.335050106 -0.1828629822
-1.371492624 -3.96063447 0.07246059924
-1.385584354 -3.999072075 0.2196028382
-1.52992332 -4.410685539 0.4047258794
-0.3199402988 -0.9213317037 0.1146137193
-0.2985719442 -0.8593133092 0.1374009848
-0.3139786124 -0.9026380777 0.177515164
-0.3025700152 -0.8688627481 0.2024525106
-1.542380691 -4.426626682 1.244454145
-1.184155583 -3.38331008 -0.948882699
-1.183263898 -3.378872633 -0.8165689111
-1.207339048 -3.443765402 -0.7010950446
-1.177752137 -3.348139286 -0.1838050187
-1.550585628 -4.420358658 0.4061203599
-0.3098456264 -0.8828041553 0.109738946
-1.564106345 -4.45143652 0.7406123281
-1.558056235 -4.431746483 0.9048790932
-1.565110087 -4.446847916 1.078412056
-1.568736672 -4.452190399 1.253253937
-1.250344396 -3.530863523 -0.8548106551
-0.355592519 -1.001384377 -0.1253382266
-1.190770864 -3.347771168 -0.1840143651
-1.567232847 -4.420825958 0.4066433012
-1.571698666 -4.423613071 0.7368579507
-1.574831605 -4.429980278 0.905642271
-1.578662157 -4.435849667 1.077062368
-1.587510705 -4.455786228 1.25584209
-1.356791377 -3.793543577 -1.06793952
-1.263318419 -3.528312206 -0.8552604914
-0.3121301532 -0.8693544269 -0.1082765162
-1.203125596 -3.345473766 -0.1841190457
-1.588033795 -4.430332184 0.4080378115
-0.3294106126 -0.9179882407 0.1146137193
-1.591136932 -4.429254532 0.738735199
-1.590949893 -4.426303864 0.9060239792
-1.588858366 -4.415642262 1.073463082
-1.627933025 -4.519284248 1.275512338
-1.392360687 -3.850553036 -1.085539103
-0.3097442687 -0.8533318639 -0.1063266024
-0.3136501014 -0.8636219501 -0.07667167485
-1.219573021 -3.354393244 -0.1848517358
-1.526658654 -4.219649315 0.07762651145
-1.606203675 -4.432254791 0.4087350667
-1.612119436 -4.443736553 0.5752798319
-1.609286308 -4.431099892 0.7399866581
-1.617789507 -4.452091694 0.9125114679
-1.604928613 -4.411900997 1.073912978
-1.621222973 -4.451856136 1.257912755
-0.3127302825 -0.8555011153 -0.2324715555
-0.3209269345 -0.8746085167 -0.1092514694
-1.235409021 -3.361363411 -0.1854797751
-1.623036146 -4.430363178 0.4090836644
-1.628988266 -4.441809177 0.5757673383
-1.628828168 -4.436582088 0.7418638468
-1.637381673 -4.457475185 0.9148011804
-1.6378057 -4.453825474 1.08561039
-1.638087749 -4.449795246 1.258947849
-0.3599081039 -0.9740026593 -0.2666356564
-0.3225973248 -0.8697605729 -0.1087639853
-1.254785419 -3.377625227 -0.1866311729
-1.654143333 -4.462154388 0.5791797042
-1.649803162 -4.44568491 0.7443668246
-1.649514318 -4.442529678 0.9128930569
-1.661490679 -4.470001221 1.091009259
-1.651588917 -4.43861866 1.257395029
-0.4092680514 -1.095803261 -0.3018350601
-0.3284185827 -0.8760643005 -0.109738946
-1.278502703 -3.405011415 -0.1884105951
-1.439516783 -3.846070528 0.3555700481
-1.664833784 -4.443341255 0.5774735212
-1.670861483 -4.454695225 0.7468698025
-1.665701389 -4.438582897 0.9132746458
-1.675027251 -4.458701134 1.089659572
-1.679993749 -4.467182636 1.267230153
-0.3555657864 -0.9394898415 -0.1524187028
-0.324441731 -0.8563492298 -0.107301563
-0.3642555177 -0.9599186778 -0.05160437897
-0.383461386 -1.00946939 -0.01814870723
-1.472671509 -3.893200874 0.3604507446
-1.68173933 -4.441215515 0.5779610276
-1.692001939 -4.463613033 0.7493727207
-1.687451005 -4.449262619 0.9167092443
-1.692656159 -4.458292961 1.091009259
-1.699694395 -4.472126007 1.270336032
-0.3348507583 -0.8755117655 -0.1417811513
-0.3444634974 -0.8997042775 -0.1131512895
-1.294376731 -3.375489235 -0.1872591972
-0.3726502657 -0.9707872272 -0.01745061018
-0.4064379036 -1.064913392 0.01919585094
-1.703943729 -4.457518578 0.4137901068
-1.703616858 -4.452003956 0.5801546574
-1.705453515 -4.452145576 0.7484340668
-1.712105513 -4.467176914 0.921670258
-1.717282891 -4.476009846 1.096858025
-1.724298358 -4.489610672 1.277065277
-0.3507225215 -0.9075036645 -0.1474127918
-1.318419576 -3.402610302 -0.1890386194
-0.3756137192 -0.9739320874 0.01752042025
-1.755387664 -4.544471741 0.4225056767
-1.723442554 -4.457139015 0.5816170573
-1.723122716 -4.451691628 0.7493727207
-1.73903203 -4.490465641 0.9277761579
-1.732896209 -4.469987869 1.096858025
-1.732272029 -4.463753223 1.271371245
-1.328832269 -3.394267797 -0.188829273
-0.371750623 -0.9539827704 0.01717137173
-0.3898133039 -0.9993043542 0.05401183292
-1.746936798 -4.47143507 0.5842982531
-1.746565938 -4.465886116 0.7528142333
-1.746827006 -4.464256763 0.9235783815
-1.753464222 -4.476613522 1.100007296
-1.754189253 -4.473865986 1.276029944
-0.3691318631 -0.9366165996 -0.1874372363
-1.36300981 -3.451367378 -0.4504856467
-0.3317842782 -0.8397036791 -0.07527717948
-1.345079541 -3.400752544 -0.1894573122
-0.3874406517 -0.9830723405 0.05317446217
-1.567813277 -3.976056337 0.3702122271
-1.768365026 -4.480081081 0.5862480998
-1.767951608 -4.474460125 0.7553172112
-1.765286684 -4.465435028 0.9251048565
-1.774099231 -4.483149529 1.103156567
-1.774064898 -4.478491783 1.279135823
-0.3680416942 -0.9243783951 -0.1851475388
-1.775946379 -4.451444149 -0.5833232403
-0.3324974477 -0.8329892159 -0.07475424558
-1.355460644 -3.392326832 -0.1892479658
-0.3967802525 -0.9965586066 0.05401183292
-1.513111949 -3.798421383 0.354001224
-1.786488295 -4.475599766 0.7565686703
-1.785959721 -4.472008705 0.9277761579
-1.79697144 -4.495024204 1.107655644
-1.792557359 -4.479446411 1.281206369
-0.3566143811 -0.8866590261 -0.177515164
-1.812301755 -4.501430511 -0.7618874311
-1.794441938 -4.452583313 -0.5842982531
-0.3467293084 -0.8594804406 -0.07736892253
-1.376263857 -3.409799814 -0.1905040294
-1.547930956 -3.846718788 0.3590562642
-1.575604677 -3.911547184 0.5126390457
-1.808748722 -4.485825062 0.7593845129
-1.808904648 -4.483953476 0.9315923452
-1.811921 -4.486917973 1.107205749
-1.81759429 -4.496445179 1.287935615
-1.808687687 -4.445355415 -0.7534400225
-1.814463615 -4.457324028 -0.5857605934
-1.400821567 -3.434322119 -0.1921787858
-1.541754723 -3.79118824 0.3543498814
-1.58101964 -3.885797739 0.5099579096
-1.819180727 -4.466678143 0.7571944594
-1.829774261 -4.488201618 0.9338820577
-1.832772374 -4.491072178 1.109905124
-1.83547008 -4.495438576 1.289488554
-0.3670174778 -0.8944365382 -0.2132501751
-1.833954573 -4.462767601 -0.7575073242
-1.834564686 -4.459822178 -0.5869793296
-1.431820393 -3.475578547 -0.1947955787
-1.561791539 -3.802370071 0.3559186757
-1.846033454 -4.487702847 0.7618874311
-1.849166751 -4.490864277 0.9357901216
-1.856606603 -4.50446558 1.114853978
-1.849677563 -4.485433102 1.288453341
-0.4072690606 -0.9832346439 -0.2357452661
-1.868405819 -4.506281853 -0.9399879575
-1.853285074 -4.467608929 -0.7593845129
-1.856956244 -4.472047806 -0.5894167423
-0.5361804366 -1.289994121 -0.1185064316
-1.454074264 -3.496629953 -0.1962609887
-1.616479516 -3.894833088 0.5126390457
-1.864718318 -4.488528728 0.7631388903
-1.862542152 -4.481081963 0.9350269437
-1.876025319 -4.509079456 1.117553473
-1.873493433 -4.498566151 1.294147372
-1.869695902 -4.467462063 -0.9331188202
-1.874974847 -4.475688457 -0.7618874311
-1.871787786 -4.463707924 -0.5891730189
-0.5373719335 -1.280859947 -0.1178091839
-1.508804202 -3.592813492 -0.2020179331
-1.626995444 -3.881843805 0.5116640925
-1.888016939 -4.500207901 0.7662675977
-1.892609 -4.508947372 0.9422776103
-1.900057077 -4.522266388 1.122502327
-1.894427657 -4.504464149 1.297770739
-1.882985592 -4.455483437 -0.9319739342
-1.892125964 -4.472754955 -0.7625132203
-1.897420406 -4.480910778 -0.5923416018
-0.5402853489 -1.275307417 -0.1174605638
-1.536931038 -3.624299765 -0.2041113824
-1.659878492 -3.921843529 0.5177575946
-1.905255437 -4.497227669 0.7668933868
-1.912934422 -4.513158798 0.9445673227
-1.913547277 -4.510224342 1.121152639
-1.915425062 -4.510271072 1.301394224
-1.893907189 -4.435913086 -0.9293026328
-1.913049698 -4.47426033 -0.5923416018
-0.5347649455 -1.249506593 -0.1151945144
-1.551777363 -3.622314215 -0.2043207139
-1.928651333 -4.512926579 0.5974600911
-1.926380634 -4.503263474 0.7690834403
-1.932553768 -4.513336182 0.9460937977
-1.933883667 -4.51426506 1.123852015
-1.934964299 -4.512435436 1.303982496
-1.965643048 -4.551047325 -0.6035535932
-0.5369690657 -1.242051721 -0.114671573
-1.547592521 -3.576276779 -0.2020179331
-1.947539449 -4.511294842 0.5981913209
-1.949924707 -4.512492657 0.7718992829
-1.95064187 -4.509827137 0.9468570352
-1.955833435 -4.519666195 1.127001405
-1.95993638 -4.524812222 1.309676409
-0.5367336869 -1.229120016 -0.1136257052
-1.565489769 -3.58156085 -0.2026459724
-1.96485424 -4.505946159 0.5984350443
-1.97277236 -4.519798756 0.7744022012
-1.971088052 -4.511642456 0.9487651587
-1.989557028 -4.55175066 1.136899233
-1.982702255 -4.531757355 1.313817501
-0.5537574291 -1.259702206 -0.3077296317
-0.5500792861 -1.247197032 -0.1155431271
-1.589092612 -3.599551678 -0.2040067166
-1.839295268 -4.18011713 0.3958359957
-1.98615694 -4.509614468 0.5998975039
-1.99410677 -4.523382664 0.7762794495
-1.996329427 -4.524145603 0.952962935
-2.005439758 -4.542645454 1.136449337
-2.00788784 -4.543897152 1.319511652
-0.5567029715 -1.256272078 -0.3072797358
-0.5679669976 -1.281087041 -0.2641424835
-0.5685070157 -1.281097651 -0.2153053731
-0.5635253787 -1.268677235 -0.1653113812
-0.5503236055 -1.23837316 -0.1148458794
-1.606443524 -3.611523867 -0.2049487531
-1.796231389 -4.055338383 0.07671898603
-1.997061372 -4.504503727 0.2560286224
-2.008410215 -4.527966976 0.4296524227
-2.010805368 -4.529102325 0.6033098102
-2.017145157 -4.539108276 0.7800338864
-2.01453805 -4.531110764 0.9556342959
-2.020493507 -4.540235996 1.137349129
-2.030793428 -4.55909586 1.325723171
-0.5642677546 -1.261436582 -0.3090793192
-0.5628119111 -1.257592678 -0.2595630586
-0.5705526471 -1.273697138 -0.2143667489
-0.5655138493 -1.261268377 -0.1645801514
-0.5546428561 -1.236444712 -0.1148458794
-1.623948932 -3.616826534 -0.2055767924
-2.027459621 -4.528202534 0.430349648
-2.030662537 -4.531113148 0.6045285463
-2.033785582 -4.533842087 0.7803467512
-2.032753944 -4.529424191 0.9567791224
-2.040321827 -4.542043686 1.139598727
-2.043526649 -4.544931889 1.323652625
-0.5556622744 -1.231801748 -0.3504930437
-0.5694695711 -1.261235356 -0.3095292449
-0.5688146353 -1.259198904 -0.2603262961
-0.5709261298 -1.262698054 -0.2128024101
-0.5723685622 -1.264712214 -0.1653113812
-0.5532031059 -1.221795917 -0.1136257052
-1.644808173 -3.629327536 -0.2066235095
-1.812430978 -3.995482922 -0.0758812651
-2.048177242 -4.531991482 0.4313955307
-2.052193403 -4.53665781 0.6062346697
-2.059377193 -4.548308849 0.7841011882
-2.059893131 -4.547338009 0.9621217847
-2.071454525 -4.568615437 1.148146868
-2.064169168 -4.548326015 1.326758504
-0.5647616386 -1.240403891 -0.3535988927
-0.5665954351 -1.243280292 -0.3054801226
-0.5707631111 -1.251846671 -0.2591814399
-0.5679492354 -1.244523644 -0.2099865824
-0.572655797 -1.253678203 -0.1640926749
-0.5582925677 -1.221669555 -0.113800019
-1.65414381 -3.616298676 -0.2062048167
-0.4310551882 -0.9463019371 0.01745061018
-2.072252989 -4.542941093 0.4331386387
-2.067192554 -4.527660847 0.6059910059
-2.079345942 -4.550076008 0.7856655121
-2.074121952 -4.536548615 0.9613586068
-2.089821815 -4.566673279 1.149496555
-2.089687347 -4.562169075 1.332970262
-0.5682814121 -1.23666954 -0.3530812263
-0.5684888363 -1.23598361 -0.3041304052
-0.5743088126 -1.248063326 -0.2587998211
-0.5739426017 -1.246122003 -0.210612312
-0.5745354295 -1.246263266 -0.16336146
-0.5569230318 -1.206951737 -0.1125798449
-1.675965905 -3.630449533 -0.2073561996
-2.097264051 -4.555587769 0.4350560904
-2.096276045 -4.549263954 0.609890759
-2.105970621 -4.56610918 0.7897328138
-2.097346783 -4.545325279 0.9647930861
-2.111469984 -4.571734428 1.152645826
-2.112895489 -4.570628643 1.337628841
-0.578501761 -1.246845245 -0.3567047119
-0.5760817528 -1.241062045 -0.3059300184
-0.5747431517 -1.237047434 -0.2568917274
-0.5768401623 -1.240427732 -0.2099865824
-0.5738577843 -1.233451366 -0.1618990451
-0.564497292 -1.212224722 -0.1132770777
-2.118984938 -4.558711529 0.4361019135
-2.116328478 -4.550918579 0.6111094952
-2.124397516 -4.56410265 0.7906714082
-2.127257586 -4.566081047 0.9708989859
-2.129035711 -4.565731049 1.153095722
-2.136186838 -4.578982353 1.34228766
-0.5820314288 -1.243068814 -0.3561870754
-0.5789726973 -1.235413074 -0.3050302267
-0.5773909092 -1.231478572 -0.25612849
-0.5836841464 -1.243771434 -0.2109252065
-0.5800626278 -1.234933257 -0.1623865068
-0.5509302616 -1.172379732 -0.1096165404
-0.4274223745 -0.9083191156 -0.0168223232
-2.138269424 -4.558502197 0.4367991984
-2.139743328 -4.557506084 0.6130593419
-2.143675804 -4.563811302 0.7919228673
-2.149865627 -4.572841167 0.9739519954
-2.15242672 -4.574141026 1.157144904
-2.152158499 -4.57149744 1.34228766
-0.5822405815 -1.23229599 -0.3535988927
-0.5672429204 -1.200011611 -0.2964820564
-0.5942806005 -1.256075382 -0.261852771
-0.5844249725 -1.23468709 -0.2096737176
-0.5841546655 -1.233002901 -0.1623865068
-0.5550193191 -1.170449376 -0.1096165404
-0.4417787194 -0.9312227964 -0.05181372538
-0.4340214133 -0.9140471816 -0.01696194336
-2.160135508 -4.563616276 0.4380193949
-2.163340807 -4.568325996 0.6154967546
-2.167207956 -4.572365761 0.7947387099
-2.167541742 -4.571008682 0.9750968218
-2.18011713 -4.593386173 1.163893342
-2.177220583 -4.583152771 1.347981691
-0.5896478295 -1.237334371 -0.355669409
-0.5470986366 -1.147016168 -0.2834348977
-0.5925240517 -1.241694689 -0.2591814399
-0.5861772299 -1.227291942 -0.2087351084
-0.5747564435 -1.202300787 -0.1584866792
-0.5588976145 -1.168602467 -0.1096165404
-1.823129177 -3.805165291 -0.07294926792
-2.177832365 -4.561821938 0.4385423064
-2.183553696 -4.569702625 0.6167154312
-2.193382978 -4.586157799 0.7984931469
-2.186873913 -4.570498466 0.9766232967
-2.197821379 -4.589263439 1.164793253
-2.197380543 -4.584234238 1.350569844
-0.5956380367 -1.238750458 -0.3567047119
-0.5502541065 -1.143343449 -0.2829850018
-0.5960031748 -1.23785007 -0.2587998211
-0.5990334749 -1.243033528 -0.2118638009
-0.5763625503 -1.194923282 -0.1577554792
-0.5586439371 -1.157672405 -0.1087449864
-1.831178904 -3.787975788 -0.0727398321
-1.827370167 -3.798692942 0.07287944853
-1.896695137 -3.939281225 0.2269298583
-2.204983473 -4.577527046 0.4408083558
-2.205526352 -4.574569702 0.6184216142
-2.213670731 -4.587368488 0.8000574708
-2.213057041 -4.584052563 0.981202662
-2.224849463 -4.604373455 1.170641899
-2.225985765 -4.602623463 1.358334541
-0.6067040563 -1.250568748 -0.3608458042
-0.5814803243 -1.197512031 -0.2973818779
-0.6063252091 -1.248123527 -0.2614711523
-0.6059602499 -1.246264577 -0.2128024101
-0.5857420564 -1.203613758 -0.159217909
-0.5661702752 -1.162880778 -0.109442234
-1.837377429 -3.76718235 -0.07246059924
-1.829268813 -3.768903494 0.07242568582
-1.892979145 -3.896707296 0.224836424
-2.22965765 -4.587721825 0.4425514936
-2.228427172 -4.581124783 0.6203715801
-2.234858513 -4.590269566 0.8019346595
-2.237642527 -4.593950272 0.985018909
-2.238346577 -4.591324329 1.169292212
-2.247121572 -4.605242252 1.361440182
-0.6280514598 -1.283146501 -0.3711985648
-0.6190926433 -1.263725758 -0.3149280548
-2.228988886 -4.547921658 -0.9762417078
-2.235418081 -4.557016373 -0.7972416282
-0.5899396539 -1.201561928 -0.159217909
-0.5605635643 -1.141226053 -0.1075247973
-1.840654016 -3.758903742 0.07235588133
-1.899538636 -3.875727415 0.2239990383
-2.249165773 -4.58706665 0.443248719
-2.254900455 -4.594702244 0.62329638
-2.252609968 -4.585987091 0.8025604486
-2.26232338 -4.603731632 0.9888350964
-2.26382041 -4.602717876 1.174241066
-2.266596317 -4.604302883 1.363510847
-1.821453691 -3.688673019 -1.090715528
-2.21393919 -4.479566574 -1.14364779
-2.253551245 -4.557712555 -0.9800578952
-2.259196997 -4.565119743 -0.8000574708
-0.5941305757 -1.199495196 -0.159217909
-0.5583513379 -1.126765728 -0.1063046232
-2.124551773 -4.283635139 -0.2483875901
-1.87590611 -3.797276974 0.07322850078
-2.266931057 -4.582759857 0.4435973465
-2.276208878 -4.597476959 0.6247588396
-2.283514977 -4.608185291 0.8078792095
-2.283610821 -4.606360435 0.9911246896
-2.290267229 -4.615735531 1.179639935
-2.284373045 -4.599822998 1.364546061
-1.836041331 -3.685750961 -1.09175086
-2.233040333 -4.478786945 -1.145447373
-2.277333498 -4.565629959 -0.9834923744
-2.277765512 -4.562507629 -0.8009960651
-0.6000883579 -1.200965762 -0.1597053856
-0.5613900423 -1.123027921 -0.1061303169
-2.080508471 -4.158306122 -0.2414792478
-2.290031195 -4.589080811 0.444991827
-2.298453569 -4.60193491 0.6264650226
-2.306651592 -4.614322186 0.8103821278
-2.30406785 -4.607139587 0.9930328727
-2.310725927 -4.616427422 1.181889534
-2.309934139 -4.610821247 1.370240211
-1.85063076 -3.682771683 -1.092786193
-2.250411749 -4.474446297 -1.146347165
-2.300316334 -4.571682453 -0.9865453839
-2.3034513 -4.573935986 -0.8044375777
-0.5971289873 -1.184682369 -0.1577554792
-0.5679979324 -1.126398325 -0.1066532433
-1.925830722 -3.815807343 -0.2218009382
-2.316786289 -4.602414608 0.4470835924
-2.317181826 -4.599202633 0.6271961927
-2.328081369 -4.616824627 0.812259376
-2.327208996 -4.613092422 0.9960857034
-2.332975626 -4.620509148 1.185038805
-2.334727049 -4.619972229 1.375416517
-1.872209191 -3.693520784 -1.097962499
-2.257200241 -4.449184895 -1.141848087
-2.316260576 -4.563625336 -0.9865453839
-2.330139399 -4.587002277 -0.8081920743
-0.5958626866 -1.171973825 -0.1562930495
-0.5710231066 -1.12263298 -0.106478937
-1.910143018 -3.752104998 -0.2184514254
-2.343662262 -4.615617275 0.4491752982
-2.338618279 -4.601703644 0.6286586523
-2.354930162 -4.629798889 0.816013813
-2.353091955 -4.624187946 1.000283718
-2.358817577 -4.631439686 1.189987659
-2.362245083 -4.634169102 1.382145882
-1.885089874 -3.686963558 -1.097962499
-2.294023037 -4.482913971 -1.152645826
-2.33754468 -4.565997601 -0.9888350964
-2.354243994 -4.594662666 -0.8110079169
-0.6008558869 -1.171653032 -0.1565367877
-0.569481492 -1.109996676 -0.1054330692
-1.89038527 -3.681452751 -0.2146832347
-2.364300728 -4.616274834 0.4500468671
-2.368249893 -4.620009899 0.632314682
-2.370174885 -4.619792461 0.8157008886
-2.376390934 -4.629918575 1.003336549
-2.377641439 -4.628377438 1.191337466
-2.381940603 -4.6327672 1.384216428
-1.892636418 -3.670058012 -1.09485662
-2.309657574 -4.474879265 -1.152645826
-2.365178585 -4.580487728 -0.9937961698
-2.376616716 -4.598700523 -0.8131979704
-0.6040300727 -1.167785406 -0.1562930495
-0.5669429898 -1.095615387 -0.1042128876
-2.380734682 -4.610613823 0.2697406411
-2.384972334 -4.616844177 0.4509184062
-2.393479824 -4.629349232 0.6347521544
-2.396272898 -4.63078928 0.8191425204
-2.40066123 -4.637286663 1.006771207
-2.403644562 -4.639082432 1.196286321
-2.406990767 -4.641573906 1.389392734
-1.905435085 -3.663429737 -1.09485662
-2.318064928 -4.452960968 -1.14904654
-2.392033815 -4.593099117 -0.9983754754
-2.394480944 -4.593880177 -0.8138237596
-0.6081027985 -1.165669799 -0.1562930495
-0.5679985285 -1.088330865 -0.1036899537
-1.914191127 -3.664625168 -0.2144739032
-2.171606779 -4.1539011 -0.08111698925
-2.407883644 -4.623533249 0.2709967196
-2.410279512 -4.626160145 0.4526615143
-2.408706665 -4.619205475 0.6345083714
-2.420649052 -4.638158321 0.8219583631
-2.420468569 -4.635839939 1.008297563
-2.432459116 -4.654844284 1.202584982
-2.431236267 -4.64855051 1.394051552
-1.921801925 -3.663599014 -1.096927166
-2.328158617 -4.434490204 -1.146347165
-2.417182684 -4.602101803 -1.002191663
-2.417854071 -4.599482536 -0.8163266778
-0.6056979895 -1.151242375 -0.1545868665
-0.5755057335 -1.093393922 -0.1043871939
-1.921386242 -3.647318602 -0.2138458639
-2.232724905 -4.23473978 -0.08286222816
-2.187420845 -4.168191433 0.08146603405
-2.428652763 -4.623939991 0.2715200782
-2.435679913 -4.635356426 0.4544046223
-2.434055805 -4.628338814 0.6369457841
-2.445103884 -4.645412445 0.8247740865
-2.44303894 -4.639522076 1.010968924
-2.450510025 -4.649773121 1.203484774
-2.46006608 -4.663957596 1.401298404
-1.929157376 -3.646622419 -1.093821406
-2.378275156 -4.491781235 -1.163443446
-2.435988426 -4.598841667 -1.003336549
-2.44129777 -4.604976177 -0.818829596
-0.6059909463 -1.14210701 -0.1536119133
-0.5793191791 -1.091378212 -0.1043871939
-1.939728379 -3.6511724 -0.2144739032
-2.247493505 -4.226920128 -0.08286222816
-2.215052843 -4.185274601 0.08195470273
-2.447582483 -4.620729446 0.2718340755
-2.465839386 -4.653233528 0.4570193291
-2.460427284 -4.639105797 0.6396269202
-2.467788696 -4.64906168 0.8269641995
-2.469347 -4.65004015 1.015166759
-2.476786137 -4.660119057 1.208433628
-2.482682228 -4.667281151 1.404921889
-1.943693519 -3.643275261 -1.09485662
-2.37191081 -4.442195415 -1.152645826
-2.455726385 -4.597236633 -1.004863024
-2.468532324 -4.617331028 -0.822584033
-0.6118471026 -1.143485308 -0.1540994048
-0.577483356 -1.078810215 -0.1033413261
-1.950575352 -3.640857935 -0.2142645568
-2.249005318 -4.194376469 -0.08237355947
-2.261662722 -4.23749876 0.08314146847
-2.470284462 -4.624489784 0.2725668252
-2.487701893 -4.655141354 0.4580652118
-2.486904383 -4.649743557 0.6423079967
-2.488662243 -4.64912796 0.828528583
-2.495759726 -4.660429478 1.019364595
-2.507766247 -4.678926945 1.215632081
-0.4607074261 -0.8588556647 0.2495536208
-1.963721395 -3.650078535 -1.098997712
-2.396641493 -4.451046944 -1.157144904
-2.463379622 -4.573081017 -1.001428485
-2.482760429 -4.605209351 -0.8219583631
-0.6111216545 -1.13260746 -0.1528806984
-0.5698890686 -1.055748463 -0.101249598
-1.966119528 -3.639298916 -0.2145785689
-2.27694726 -4.211127281 -0.08286222816
-2.272649288 -4.222533703 0.08300184458
-2.497778177 -4.636939049 0.273822844
-2.50204587 -4.642920971 0.4577165544
-2.5144279 -4.662000656 0.6452329159
-2.514260292 -4.657794952 0.8316572309
-2.519474506 -4.665509224 1.022417426
-2.523158312 -4.668429852 1.215182185
-0.4572684765 -0.8453480601 0.2459301353
-1.976450682 -3.643201351 -1.098997712
-2.412163973 -4.442654133 -1.157144904
-2.43903327 -4.490271568 -0.985018909
-2.467685699 -4.539242744 -0.8116335869
-0.614122808 -1.128723741 -0.1526369601
-0.5773807168 -1.06075263 -0.1019468307
-1.974989295 -3.625398159 -0.214159891
-2.291632891 -4.20315361 -0.08286222816
-2.287375212 -4.214575291 0.08300184458
-2.521575689 -4.642232418 0.2746602595
-2.525847912 -4.648163795 0.4591110647
-2.534479856 -4.660170555 0.6462078691
-2.541835308 -4.669810772 0.8354117274
-2.539500475 -4.663582802 1.02394402
-2.556223869 -4.690395355 1.223280549
-0.4537413716 -0.8318748474 0.2423066795
-1.989155769 -3.63628006 -1.098997712
-2.427657366 -4.434206963 -1.157144904
-2.347178936 -4.285434246 -0.9415144324
-2.477818489 -4.520207882 -0.8097564578
-0.6142398715 -1.119611621 -0.1516619921
-0.5812646747 -1.058629274 -0.1019468307
-1.976093411 -3.597475529 -0.2129038125
-2.306290865 -4.195128441 -0.08286222816
-2.321273327 -4.241649628 0.08369994909
-2.543521166 -4.643911839 0.275288254
-2.558333874 -4.66902256 0.4620743692
-2.550731421 -4.651295185 0.6462078691
-2.56952548 -4.681689739 0.8391661048
-2.567102909 -4.675341129 1.028523326
-2.570703745 -4.67802763 1.222380638
-2.577396154 -4.686330318 1.421486378
-1.998736978 -3.622199535 -1.096927166
-2.414866209 -4.374524593 -1.14364779
-2.477748156 -4.484732151 -0.9876902103
-2.557456732 -4.625190258 -0.8304057717
-0.6085355878 -1.100090265 -0.1492246091
-0.5868865252 -1.060080051 -0.1022954583
-1.992169619 -3.595449686 -0.2132178396
-2.320920706 -4.187052727 -0.08286222816
-2.336065292 -4.233520985 0.08369994909
-2.561647415 -4.638502598 0.2754976153
-2.581212044 -4.670076847 0.4631202519
-2.582321405 -4.670158386 0.6501076818
-2.584895849 -4.670963764 0.83885324
-2.588026285 -4.672770023 1.030049801
-0.4715522528 -0.8507029414 0.2145998776
-2.606855154 -4.700957298 1.42873323
-2.009489059 -3.611824274 -1.095891833
-2.472597837 -4.44055748 -1.163443446
-2.27460146 -4.083296776 -0.9002996683
-2.59378624 -4.652467251 -0.8369759917
-0.6172066331 -1.106627703 -0.1504433006
-0.5818434954 -1.042367578 -0.1007266566
-2.029060125 -3.632064342 -0.2158346474
-2.351131439 -4.20685482 -0.08342070878
-2.351566315 -4.224930286 0.08369994909
-2.593369484 -4.657452106 0.2771723568
-2.604287386 -4.673220634 0.4643404186
-2.609090328 -4.677998543 0.6525450349
-2.605035067 -4.668812275 0.8401046991
-2.613893747 -4.680848598 1.033865929
-0.4686682224 -0.8389269114 0.2119004577
-2.625134706 -4.695201397 1.429768562
-2.013897181 -3.591660738 -1.09175086
-2.487308979 -4.432333946 -1.163443446
-2.294857264 -4.087715149 -0.9029709697
-2.613069534 -4.650729656 -0.8382274508
-0.6179549694 -1.099383593 -0.1497121006
-0.5784589052 -1.02827704 -0.09950647503
-2.34936738 -4.171157837 -0.08286222816
-2.365563869 -4.217109203 0.08369994909
-2.619550705 -4.667986393 0.2783237398
-2.622697115 -4.669770241 0.4648633599
-2.640151978 -4.69700861 0.6564449072
-2.641803741 -4.698027611 0.8469878435
-2.641919136 -4.694396973 1.038827062
-2.656024694 -4.717534065 1.239926934
-2.646379948 -4.696568489 1.432874322
-2.033399582 -3.598417282 -1.095891833
-2.500074863 -4.420668602 -1.162543654
-2.299699306 -4.064703941 -0.8995363712
-2.62361145 -4.633444309 -0.8366631866
-0.6217887998 -1.097219825 -0.1497121006
-0.5897263288 -1.040219069 -0.1009009704
-2.413284779 -4.249876022 -0.08460746706
-2.414961576 -4.271910191 0.08495652676
-2.648615599 -4.681411266 0.279684484
-2.649944067 -4.681855202 0.4669550657
-2.666475773 -4.707226753 0.6591259837
-2.668902397 -4.707680702 0.8504293561
-2.669094563 -4.706102848 1.043406487
-2.677284479 -4.71670866 1.242176294
-2.67611742 -4.710818291 1.440121293
-2.052642345 -3.603047848 -1.099515438
-2.337218285 -4.097580433 -0.9086952806
-2.611368895 -4.574507236 -0.8275899291
-0.6226605177 -1.089871883 -0.1489808857
-0.5874221325 -1.027775288 -0.0998551026
-2.442013979 -4.265722752 -0.08509614319
-2.419956923 -4.246080399 0.08460746706
-2.668897867 -4.679077148 0.2801031768
-2.673182726 -4.684689522 0.4681752324
-2.676983356 -4.687548161 0.6576635838
-2.692181826 -4.710340023 0.8526194096
-0.480219394 -0.8398697376 0.1798048764
-2.69954133 -4.71748209 1.244875789
-2.701185703 -4.716535568 1.444779992
-2.073865891 -3.610937357 -1.104174137
-2.542529583 -4.423381805 -1.167942524
-2.357379198 -4.099608898 -0.910984993
-2.637174129 -4.582485199 -0.8307186365
-0.6175444722 -1.072210193 -0.1467872262
-0.5931751132 -1.029067636 -0.1002037227
-2.456889391 -4.257172585 -0.08509614319
-2.68919754 -4.67665863 0.2805218697
-2.695480108 -4.685691833 0.4692211151
-2.708186626 -4.703980446 0.6613196731
-2.716496229 -4.714607716 0.855122447
-0.4782461822 -0.8296836019 0.1778967828
-2.720859766 -4.716470718 1.247125268
-2.729224205 -4.727154255 1.450991631
-2.084181786 -3.598296881 -1.102621198
-2.557954788 -4.414479733 -1.167942524
-2.377313614 -4.099432468 -0.9128930569
-2.721378803 -4.688965321 -0.8519937396
-0.6252704263 -1.076914787 -0.1477621794
-0.5887553692 -1.013209581 -0.09880922735
-2.473595619 -4.27061224 0.08544518799
-2.706507206 -4.668970585 0.2806265354
-2.731632471 -4.708525181 0.4725330472
-2.731565237 -4.706516743 0.6630257964
-0.4837022126 -0.8327544928 0.145848453
-2.743711948 -4.719853401 1.052946925
-2.751847744 -4.73004818 1.253423929
-2.757368565 -4.737635136 1.457203388
-2.090885401 -3.580990314 -1.099515438
-2.562319279 -4.384883881 -1.162543654
-2.404489517 -4.11314249 -0.9178540707
-2.742717505 -4.687962055 -0.8535580635
-0.6272072792 -1.071189642 -0.1472747028
-0.582218349 -0.9939565063 -0.09706611186
-2.5229671 -4.302014828 -0.08635271341
-2.739919424 -4.688809872 0.2824059725
-2.748051643 -4.698961258 0.4725330472
-2.760829926 -4.717031479 0.6659506559
-0.4816155732 -0.8225377202 0.1442840993
-2.775059462 -4.735654831 1.058671236
-2.777214527 -4.735542774 1.257473111
-2.774867058 -4.729647636 1.457720995
-2.105332375 -3.576999426 -1.100550652
-2.578823566 -4.379721165 -1.163443446
-2.422819376 -4.111489773 -0.9193805456
-2.750222921 -4.665227413 -0.8510551453
-0.6317647696 -1.070813775 -0.147518456
-0.5937885046 -1.005643368 -0.09846060723
-2.537968874 -4.293181896 -0.08635271341
-2.772488594 -4.706751347 0.284080714
-2.77759099 -4.711652279 0.4747990966
-2.785532713 -4.723239422 0.6681442857
-0.4864919782 -0.8242539167 0.1449098438
-2.788752079 -4.723045349 1.057908058
-2.802817106 -4.743083954 1.26197207
-2.794309616 -4.724921227 1.459273934
-2.12210989 -3.578306913 -1.103138924
-2.580170393 -4.347232342 -1.157144904
-2.448468208 -4.123690128 -0.9239599705
-2.773553848 -4.667487144 -0.8532451987
-0.6263667941 -1.05324626 -0.1453247964
-0.5940639973 -0.998531878 -0.09793766588
-2.791960239 -4.702197075 0.2843947411
-2.807445526 -4.726397514 0.4772394598
-2.809103727 -4.725431919 0.6698504686
-2.814377785 -4.73054409 0.8651341796
-2.814258099 -4.72846508 1.061342478
-2.831323624 -4.753362179 1.26737082
-2.829580784 -4.746666431 1.469109058
-2.134587049 -3.57087779 -1.103138924
-2.595330477 -4.338198662 -1.157144904
-2.4648633 -4.118487835 -0.9247231483
-2.817236423 -4.703531742 -0.861692667
-0.6228951216 -1.03913486 -0.1436186284
-0.5975459218 -0.9964520931 -0.09793766588
-2.818613052 -4.709560871 0.2854414582
-2.831089497 -4.728535175 0.4784596264
-0.492113024 -0.821284771 0.1124200746
-2.84611249 -4.746103287 0.8698272705
-2.845896482 -4.743865967 1.067066789
-2.854920387 -4.755144596 1.270520091
-2.859067202 -4.75828743 1.475838304
-2.152023315 -3.571677923 -1.105727077
-2.63460803 -4.369164944 -1.167942524
-2.487337351 -4.123307705 -0.9277761579
-2.843846083 -4.710580349 -0.8648213148
-0.6285718083 -1.040352464 -0.144106105
-0.5948366523 -0.9841296673 -0.09689180553
-2.844320297 -4.71508503 0.2863835096
-2.855815411 -4.732270241 0.4798541367
-0.4908718467 -0.8127649426 0.111445114
-2.866748333 -4.742902279 0.8710787296
-2.884787321 -4.770863056 1.075462461
-2.881590843 -4.761822701 1.275019169
-2.880663157 -4.756540298 1.478426456
-2.168488979 -3.570748806 -1.107797503
-2.645795822 -4.353280067 -1.166142941
-2.510895014 -4.1296978 -0.9312107563
-2.865407228 -4.709062099 -0.8663856983
-0.6260043979 -1.027979255 -0.1426436603
-0.5972319841 -0.9803456068 -0.09671749175
-2.211497545 -3.627285957 -0.220440194
-2.614403963 -4.303323269 0.08719042689
-2.874250889 -4.727313042 0.2877442241
-0.4919736683 -0.8088367581 0.07911203057
-2.89249444 -4.751712799 0.677893877
-2.894593 -4.751422405 0.8745203018
-2.896314383 -4.752381802 1.073554277
-2.912401676 -4.775026798 1.28131783
-2.907313108 -4.762945652 1.483602881
-2.172872066 -3.549976587 -1.10365653
-2.654866934 -4.334047794 -1.163443446
-2.561197758 -4.179495811 -0.9445673227
-2.888022661 -4.709135532 -0.8682629466
-0.620243609 -1.010561109 -0.1404500157
-0.5966496468 -0.9713593721 -0.09602024406
-0.4999277592 -0.8158081174 0.04794086516
-0.4833396077 -0.7884298563 0.07719460875
-2.910101891 -4.743279457 0.67813766
-2.913226843 -4.74465704 0.8751460314
-2.915967226 -4.747262001 1.074699163
-2.93823576 -4.779773712 1.285366893
-2.931008339 -4.764285564 1.487226248
-2.184854507 -3.540344954 -1.103138924
-2.667932034 -4.321437836 -1.162543654
-2.564116716 -4.150038719 -0.9399879575
-2.915652275 -4.71532011 -0.871391654
-0.6206343174 -1.003325462 -0.1397188157
-0.6010855436 -0.970964849 -0.09619455785
-2.943358898 -4.749001026 -0.09682415426
-0.5156493783 -0.8355597854 0.01643837057
-0.4975249171 -0.8055616021 0.04741750658
-2.942697048 -4.760915756 0.4859549999
-2.931861162 -4.741534233 0.679356277
-2.957837105 -4.779812813 0.8835934401
-2.944717884 -4.75490284 1.07889688
-2.960869074 -4.777253151 1.287616491
-2.962890148 -4.778654099 1.494990945
-2.206381559 -3.547459841 -1.107797503
-2.681693792 -4.308321476 -1.161643863
-2.570285082 -4.127729893 -0.9369350076
-2.93836236 -4.715172291 -0.8732687831
