# .PCD v0.7 - Point Cloud Data file format
VERSION 0.7
FIELDS x y z
SIZE 4 4 4
TYPE F F F
COUNT 1 1 1
WIDTH 1229
HEIGHT 1
VIEWPOINT 0 0 0 1 0 0 0
POINTS 1229
DATA ascii
-2.728218555 0.458995223 -0.4314978123
-2.733316183 0.4603433609 -0.3351972401
-2.737011433 0.4619481862 -0.2391299605
-2.733487368 0.4623341262 -0.1430876404
-2.748469114 0.4653621614 -0.04795741662
-2.739496231 0.4584347308 0.04778289422
-2.730190754 0.4578565657 0.142878294
-2.739298344 0.4603669643 0.2393042892
-2.696202755 0.4536088407 0.3305662274
-2.735849857 0.461260438 0.4327492714
-2.760065079 0.4663345814 0.5358544588
-2.726687431 0.4616741538 0.6285098791
-2.732272387 0.4631102681 0.7309570909
-2.685921192 0.4591126442 -0.7185336947
-2.708508968 0.4639473557 -0.6244606972
-2.714411974 0.4654454887 -0.5270772576
-2.734387159 0.4698538482 -0.4327492714
-2.735523701 0.4710315168 -0.3356847465
-2.731455564 0.4708225727 -0.2387813479
-2.739729404 0.473233521 -0.1435063332
-2.742804527 0.4747500122 -0.04788760841
-2.74173975 0.4691463411 0.04785270244
-2.730463028 0.468197763 0.1429829746
-2.745529175 0.4712744653 0.2400015444
-2.706259727 0.4655063152 0.3320286274
-2.72830081 0.4702787697 0.4318106472
-2.762289762 0.4766332507 0.5366176963
-2.734660387 0.4728494585 0.6307593584
-2.726749659 0.4724619091 0.7299218178
-2.67669034 0.4671570063 -0.7164632082
-2.714551449 0.4747413099 -0.6262603402
-2.716638565 0.475594908 -0.5278404951
-2.724947929 0.4780299366 -0.4314978123
-2.737772465 0.4812654853 -0.3361722231
-2.727833271 0.4800084233 -0.238607049
-2.745928288 0.4841814041 -0.1439250112
-2.750976562 0.486060977 -0.04806213081
-2.736145973 0.4780257642 0.04778289422
-2.732746601 0.478414923 0.1431923211
-2.726205111 0.477760762 0.2384327203
-2.708528996 0.4756368995 0.3325161338
-2.728588343 0.4801412523 0.4321235418
-2.756742001 0.4855914116 0.5358544588
-2.734912157 0.482730478 0.6312092543
-2.711767435 0.4796219766 0.7262982726
-2.682650805 0.4778527021 -0.7185336947
-2.70520401 0.4828443527 -0.6244606972
-2.72269249 0.486456126 -0.5293669701
-2.719373703 0.4868427217 -0.4308720827
-2.743891478 0.4922205806 -0.3371471465
-2.735946178 0.4912881553 -0.239478603
-2.738324404 0.4927018881 -0.143610999
-2.755253553 0.4962443411 -0.04816684499
-2.726586103 0.4861697555 0.04764327407
-2.742942333 0.4895801544 0.1438203603
-2.728443384 0.4879750013 0.2387813479
-2.706852198 0.4850885868 0.3325161338
-2.734758377 0.4905821979 0.433375001
-2.743436337 0.4931280911 0.5335647464
-2.748553514 0.4950376153 0.6348084807
-2.717767 0.4899830818 0.7283688784
-2.699973583 0.4906682968 -0.7237101197
-2.701670885 0.49146384 -0.6240108609
-2.732566357 0.4980694652 -0.5316566825
-2.725517511 0.4972761571 -0.4321235418
-2.738338709 0.5006030798 -0.3366596699
-2.734214544 0.5008354783 -0.239478603
-2.738640308 0.5021401048 -0.1437156796
-2.757438183 0.5065817237 -0.04823665693
-2.736763477 0.49735412 0.04785270244
-2.739251614 0.4987941086 0.1437156796
-2.738483667 0.4996418357 0.2398272157
-2.689606428 0.4912091792 0.3305662274
-2.744687796 0.5022588372 0.4352522194
-2.753372908 0.5043447614 0.5358544588
-2.735396624 0.5020388365 0.6321091056
-2.733139992 0.5026108623 0.7330275774
-2.704030514 0.5006737113 -0.7252629995
-2.709519148 0.502668798 -0.6262603402
-2.721248388 0.5053354502 -0.529748559
-2.727649212 0.5075097084 -0.4327492714
-2.732671738 0.5094311237 -0.3361722231
-2.744200706 0.5125715733 -0.2405244559
-2.736870766 0.5116968155 -0.1437156796
-2.753687143 0.5158363581 -0.04820175096
-2.735010624 0.5069042444 0.04785270244
-2.729639292 0.5068936348 0.1432970017
-2.752482414 0.5116332173 0.241221711
-2.699584246 0.5027753711 0.3320286274
-2.746801853 0.5125613213 0.435877949
-2.759315252 0.5153946877 0.5373809338
-2.7259655 0.5101502538 0.6303094625
-2.742761612 0.5142844915 0.7361334562
-2.696482182 0.5095056891 -0.7237101197
-2.709662676 0.5124852657 -0.6267102361
-2.719377756 0.515306592 -0.529748559
-2.733533621 0.5189775229 -0.4340007603
-2.738677502 0.5204492807 -0.3371471465
-2.73848033 0.5214022994 -0.2401758432
-2.746748209 0.5239707232 -0.1443437189
-2.740085125 0.5231946111 -0.04799232259
-2.762698412 0.5220173597 0.04837627336
-2.737665176 0.5182770491 0.1438203603
-2.752546072 0.5220887661 0.2413960099
-2.713414907 0.5151578784 0.3339785635
-2.731411934 0.5195618272 0.4336878955
-2.761265039 0.526239872 0.5381441712
-2.733648062 0.5219655633 0.6325589418
-2.72576952 0.5209542513 0.7319923043
-2.692790508 0.5185492635 -0.723192513
-2.717333317 0.5242598057 -0.6289597154
-2.723345757 0.525912106 -0.530893445
-2.731705427 0.528516233 -0.4340007603
-2.744639874 0.5315150023 -0.3381221294
-2.738599777 0.531337738 -0.240350157
-2.74686265 0.5339359045 -0.1444483697
-2.748056173 0.5346656442 -0.04816684499
-2.819673538 0.5434933901 0.04942341894
-3.235918283 0.6243112683 0.1705116928
-2.729188919 0.5275352597 0.239478603
-2.715406418 0.5258538127 0.3344660103
-2.731520653 0.5294697285 0.4340007603
-2.759411335 0.5358746648 0.5381441712
-2.745292664 0.5336307287 0.6357082725
-2.720142126 0.5297266245 0.7309570909
-2.692951918 0.5278476477 -0.7237101197
-2.71366787 0.5328925252 -0.6285098791
-2.731218576 0.5368334651 -0.5328015089
-2.722184896 0.5360454321 -0.4327492714
-2.758443117 0.543684721 -0.340072006
-2.730958462 0.5392585397 -0.2398272157
-2.747036695 0.5434296131 -0.1445530504
-2.738421917 0.542222023 -0.04802722484
-2.833553791 0.5559207201 0.04970265925
-2.845783949 0.5588366389 0.1497866511
-2.737199306 0.538505137 0.240350157
-2.70975256 0.5340878963 0.3339785635
-2.749130249 0.54234761 0.4371294677
-2.753767014 0.5442609787 0.5373809338
-2.747331619 0.5434879661 0.6366081238
-2.725950241 0.5402464271 0.7330275774
-2.694975853 0.5375307798 -0.7247454524
-2.709974766 0.5415067077 -0.6280599236
-2.737123966 0.5474277735 -0.5343280435
-2.728139877 0.5466220379 -0.4340007603
-2.744946957 0.5504872203 -0.338609606
-2.748688698 0.5522363186 -0.2415703386
-2.739345312 0.5513533354 -0.1442390382
-2.746410131 0.5532746315 -0.04820175096
-2.816006899 0.5621823072 0.04942341894
-2.838039875 0.5670966506 0.149472639
-2.743212938 0.5491434932 0.2410473973
-2.700181007 0.5415096283 0.3330036104
-2.75312686 0.5526275039 0.4380680621
-2.7596457 0.5549380779 0.5389074087
-2.741693258 0.551825881 0.6357082725
-2.72982502 0.5504292846 0.7345805168
-2.708324671 0.5495380759 -0.7288864851
-2.706254244 0.5501015782 -0.6276100278
-2.737217426 0.5568928719 -0.5347096324
-2.737926006 0.5580323339 -0.435877949
-2.739216328 0.5587933064 -0.3381221294
-2.74293828 0.5605505705 -0.241221711
-2.747285366 0.5624372959 -0.1447623968
-2.732806444 0.5599707365 -0.04799232259
-3.041450739 0.6176844239 0.05347237736
-2.804827929 0.5701386333 0.1477978826
-2.772614002 0.5645983219 0.243836388
-2.704205751 0.5516512394 0.3337348402
-2.753214359 0.5621494055 0.4383809268
-2.78087163 0.5688075423 0.5434868336
-2.736029863 0.56013304 0.6348084807
-2.735554695 0.5610312819 0.7366511226
-2.702508211 0.5586786866 -0.727851212
-2.715669632 0.5623879433 -0.6303094625
-2.727468252 0.5653277636 -0.5331831574
-2.745532751 0.570071578 -0.4374423027
-2.744824409 0.5709245801 -0.3390970826
-2.74076581 0.5710778832 -0.241221711
-2.753026247 0.5741345286 -0.1451810896
-2.742380619 0.5729133487 -0.04820175096
-2.847261429 0.5891211033 0.05005170777
-2.845643282 0.5898221135 0.1501006633
-2.766624212 0.5739473104 0.2434877604
-2.715770721 0.5643863082 0.3354409933
-2.739432096 0.5703011751 0.4365036786
-2.767236233 0.5765933394 0.5411971211
-2.745305061 0.5730235577 0.6375079155
-2.737162113 0.572321713 0.737686336
-2.700442553 0.5685802102 -0.727851212
-2.725131035 0.5742750764 -0.6330088973
-2.733061552 0.5769426823 -0.5347096324
-2.737626791 0.5789052844 -0.4365036786
-2.754467487 0.5829679966 -0.3405595124
-2.730959177 0.5789892673 -0.2405244559
-2.762625694 0.5867099166 -0.145809114
-2.738408089 0.5820668936 -0.04816684499
-3.138706207 0.6608569622 0.0552874282
-2.837704182 0.5985144973 0.1497866511
-2.764502048 0.5840836763 0.2434877604
-2.72349453 0.5759168863 0.3366596699
-2.741289854 0.5806788802 0.4371294677
-2.768945456 0.5875470042 0.5419603586
-2.743185997 0.5830824971 0.6375079155
-2.729479074 0.5806661844 0.7361334562
-2.702219486 0.5788123608 -0.7288864851
-2.721102476 0.583850503 -0.6325589418
-2.736789465 0.587716043 -0.5358544588
-2.731727362 0.5876265168 -0.435877949
-2.752312422 0.593059063 -0.3405595124
-2.742555141 0.5914582014 -0.2417446524
-2.75665617 0.5955069661 -0.1455997676
-2.742120028 0.5933679938 -0.0482715629
-2.909451723 0.6237316728 0.05123846978
-2.849160671 0.6118474007 0.1505193561
-2.774133682 0.5962414145 0.2445336282
-2.711662531 0.5838055015 0.3354409933
-2.741073847 0.5911387801 0.4374423027
-2.759201288 0.5955520868 0.5404338837
-2.752562523 0.5951247215 0.6402073503
-2.729220629 0.5910758972 0.7366511226
-2.707732916 0.5898855925 -0.7309570909
-2.709528208 0.5912680626 -0.6303094625
-2.744311571 0.5993595719 -0.5377625823
-2.733518839 0.5980027318 -0.4365036786
-2.750225306 0.6026635766 -0.3405595124
-2.748258352 0.602735281 -0.2424418926
-2.750659466 0.6042681932 -0.1453904361
-2.751749754 0.6055146456 -0.04848098755
-2.926794767 0.6381444335 0.05158751458
-2.829446077 0.6179530025 0.1495773047
-2.77203536 0.6059220433 0.2445336282
-2.701851368 0.59156847 0.3344660103
-2.762148142 0.6057815552 0.4411967695
-2.772446394 0.6085472107 0.5434868336
-2.742855072 0.6030555964 0.6384077072
-2.736573935 0.6026759744 0.7392392755
-2.709429741 0.6001694798 -0.7319923043
-2.713155508 0.6019883156 -0.6316591501
-2.738369703 0.6080842614 -0.5369993448
-2.741056204 0.6096855402 -0.4380680621
-2.748211622 0.6117804646 -0.3405595124
-2.755860567 0.6144928932 -0.2433134466
-2.748533249 0.61386621 -0.1453904361
-2.738017797 0.6120192409 -0.0482715629
-2.885503531 0.6397008896 0.05088942125
-2.807883024 0.6230062246 0.1485305876
-2.781573057 0.6181882024 0.245579496
-2.711395979 0.6035848856 0.3359284699
-2.750483513 0.6127900481 0.4396324158
-2.774137497 0.6190764308 0.544250071
-2.740840197 0.6121479869 0.6384077072
-2.745871782 0.6142780781 0.7423450947
-2.701770306 0.6078788638 -0.7304394245
-2.722550631 0.6135528088 -0.6343585849
-2.732507706 0.6162978411 -0.5362361073
-2.742872715 0.6196424961 -0.4386937916
-2.757785082 0.6235165 -0.3420219123
-2.751864433 0.6231883168 -0.2431391329
-2.762064934 0.6265118718 -0.1462278068
-2.755473852 0.6255224943 -0.04862061143
-2.852152586 0.6422375441 0.05033094063
-2.807750225 0.6327533126 0.1486352682
-2.763959885 0.623899281 0.2441850007
-2.717124701 0.6143234372 0.3369034231
-2.738803148 0.6197279096 0.4380680621
-2.779728174 0.6300076246 0.545776546
-2.750198126 0.6238201857 0.641107142
-2.736284018 0.621668458 0.7402745485
-2.7053895 0.6181259751 -0.7319923043
-2.729999065 0.6247514486 -0.6366081238
-2.739908218 0.6280255914 -0.5381441712
-2.748504162 0.6305015683 -0.4399452507
-2.76333046 0.6349180341 -0.3429968953
-2.743848085 0.6314492822 -0.2426162064
-2.763753414 0.6370467544 -0.1464371532
-2.741582394 0.6324395537 -0.04841117933
-2.822715998 0.6454510093 0.04984227568
-2.840567827 0.6505764723 0.1505193561
-2.738571644 0.6277192831 0.2420932651
-2.720876455 0.6246629953 0.3376346231
-2.746248722 0.63149786 0.4396324158
-2.773685694 0.6388263702 0.5450133085
-2.751801491 0.6342918277 0.6420069337
-2.737862349 0.6320852637 0.7413098216
-2.706869125 0.6289126277 -0.7330275774
-2.720098734 0.632986486 -0.6348084807
-2.743323565 0.6394005418 -0.5392889977
-2.73463273 0.6378781796 -0.4380680621
-2.768717051 0.6468477249 -0.3439718485
-2.753154516 0.6442260742 -0.2436620593
-2.75556612 0.645804882 -0.1461231261
-2.758714437 0.6470506787 -0.04876022786
-2.824226856 0.6566982865 0.04991208389
-2.857615948 0.6655141711 0.1515660733
-2.759536982 0.6431794763 0.2441850007
-2.718568563 0.6346319914 0.3376346231
-2.753533363 0.6438071728 0.4411967695
-2.771325827 0.6489874721 0.5450133085
-2.760842323 0.6470414996 0.6447063684
-2.735527515 0.6421152353 0.7413098216
-2.710186481 0.6401613355 -0.7345805168
-2.721553326 0.643849194 -0.6357082725
-2.748716831 0.6507820487 -0.5408155322
-2.736120462 0.6488083601 -0.4386937916
-2.758602142 0.6551571488 -0.3429968953
-2.752827644 0.6542926431 -0.243836388
-2.749409199 0.6544947028 -0.1459137946
-2.752434015 0.6562293768 -0.04869041964
-3.1487391 0.744330883 0.05577609316
-2.859044552 0.676903069 0.1517754197
-2.776548147 0.6578837633 0.2459281236
-2.708498478 0.6427577734 0.3366596699
-2.758842468 0.6557222605 0.4424482286
-2.769043446 0.658657372 0.5450133085
-2.754660845 0.656252265 0.6438065171
-2.74255085 0.6543796062 0.7438979745
-2.71357131 0.6509690881 -0.7361334562
-2.719289303 0.6533453465 -0.6357082725
-2.74642849 0.6603729129 -0.5408155322
-2.745361567 0.6611301899 -0.4405709803
-2.760158062 0.6657127738 -0.3434843719
-2.764084578 0.6671702266 -0.2450565547
-2.756814718 0.6664339304 -0.1464371532
-2.746239662 0.6648928523 -0.04862061143
-2.835010767 0.6806257367 0.0501913242
-2.945992231 0.7083576322 0.1565903276
-2.770360947 0.6666389108 0.245579496
-2.719747305 0.6554647088 0.3383658528
-2.754616499 0.6648849845 0.442135334
-2.7781775 0.6710857153 0.547303021
-2.748565197 0.6649474502 0.6429067254
-2.745882511 0.6653130651 0.7454509139
-2.703773975 0.6586090922 -0.7340628505
-2.720778704 0.6637573242 -0.6366081238
-2.736477375 0.6680932045 -0.5392889977
-2.746875286 0.6716477871 -0.4411967695
-2.765529871 0.6772321463 -0.3444592953
-2.752062798 0.6744434834 -0.2441850007
-2.766109705 0.6789095402 -0.1470651776
-2.755671024 0.6768580675 -0.04883003607
-3.139580727 0.7653471828 0.05570628494
-2.862132311 0.6982417703 0.1521940976
-2.752533197 0.6725221276 0.2441850007
-2.727083683 0.6673129201 0.3395845294
-2.750477791 0.673546195 0.441822499
-2.787258625 0.6835845113 0.5495927334
-2.753797293 0.6763978004 0.6447063684
-2.743661165 0.6744151711 0.7454509139
-2.703334093 0.6685069203 -0.7345805168
-2.729912281 0.6755850315 -0.6393074989
-2.734128475 0.6776412725 -0.5392889977
-2.748467207 0.6817042232 -0.441822499
-2.763268709 0.6863994002 -0.3444592953
-2.747758627 0.683564961 -0.2440107018
-2.771595478 0.6900086403 -0.1474838704
-2.778515816 0.6927614808 -0.04928379878
-2.843900681 0.7032675743 0.05043565854
-2.917838335 0.7226316929 0.155334264
-2.755970478 0.6835651994 0.244707942
-2.73063612 0.6777873635 0.3403157592
-2.750026941 0.6836196184 0.442135334
-2.781166077 0.6918758154 0.5488294959
-2.75910306 0.6874098778 0.6465059519
-2.737541676 0.6830530167 0.7444156408
-2.70859766 0.6793478131 -0.7366511226
-2.727537632 0.6851094961 -0.6393074989
-2.747098684 0.6905332804 -0.5423419476
-2.738408327 0.6893644333 -0.4405709803
-2.776254654 0.6999230981 -0.3464092314
-2.757067919 0.695596993 -0.2450565547
-2.761424541 0.697722137 -0.1470651776
-2.768326283 0.700494051 -0.04914418235
-3.0722332 0.7711217403 0.05458933115
-2.905612946 0.730378747 0.1548109055
-2.759485006 0.6941588521 0.2452308834
-2.728253365 0.6873150468 0.3403157592
-2.757200718 0.6956304908 0.4436996877
-2.771120071 0.699657321 0.547303021
-2.760464907 0.6979922652 0.6474057436
-2.750122547 0.6963984966 0.7485567927
-2.713698387 0.6907045841 -0.7387216091
-2.721352816 0.6936642528 -0.6384077072
-2.756085873 0.703029871 -0.54463166
-2.739813328 0.6998977065 -0.4411967695
-2.766102314 0.7076412439 -0.3454342782
-2.766203642 0.7081822157 -0.2461024374
-2.762841702 0.7083485126 -0.147274524
-2.785233021 0.7151261568 -0.04949323088
-2.778849363 0.7078028321 0.049353607
-2.800475359 0.7143529058 0.1492632926
-2.758975744 0.7042791843 0.2454051822
-2.71429801 0.6938843131 0.3388533294
-2.766237736 0.708190918 0.4455769062
-2.776268005 0.7112751603 0.5488294959
-2.761786938 0.7085924745 0.6483055353
-2.74767518 0.7059933543 0.7485567927
-2.722494125 0.7030706406 -0.7418274879
-2.730234861 0.7060870528 -0.641107142
-2.749813795 0.711661756 -0.5438684821
-2.752650976 0.7134220004 -0.4436996877
-2.767457962 0.7182905674 -0.3459217548
-2.76371479 0.7178338766 -0.2461024374
-2.764217854 0.7189945579 -0.1474838704
-2.774979115 0.7228271961 -0.049353607
-2.749256611 0.7104937434 0.04886494204
-2.749625921 0.7116131186 0.1466464847
-2.762286663 0.7154041529 0.2459281236
-2.723388672 0.7063444853 0.3403157592
-2.758012772 0.71635288 0.4446382821
-2.777568817 0.7219490409 0.5495927334
-2.755524874 0.7172468901 0.6474057436
-2.760148764 0.7194792032 0.7526978254
-2.710679293 0.7101218104 -0.7392392755
-2.727753639 0.7156124711 -0.641107142
-2.747312784 0.7212561965 -0.5438684821
-2.753964901 0.7240301371 -0.4443254471
-2.76877284 0.7289572954 -0.3464092314
-2.76119256 0.72747612 -0.2461024374
-2.775209665 0.7322058678 -0.1482165605
-2.766639233 0.7309776545 -0.04924889654
-2.766102791 0.7251579165 0.04921399057
-2.758715868 0.7242498398 0.147274524
-2.759772301 0.7250427008 0.2459281236
-2.732424974 0.7188770175 0.3417782187
-2.749765158 0.7244654298 0.4436996877
-2.79021883 0.7356443405 0.5526456833
-2.753004789 0.7268605232 0.6474057436
-2.742679358 0.7251592278 0.7485567927
-2.70631671 0.7190835476 -0.7387216091
-2.730888844 0.7266330719 -0.6424568295
-2.748572826 0.7318520546 -0.54463166
-2.745694876 0.7321121693 -0.4433868229
-2.773883581 0.740665555 -0.3473841846
-2.758636236 0.7371101379 -0.2461024374
-2.774566412 0.7424042821 -0.1483212411
-2.764200211 0.740147531 -0.04924889654
-2.763554811 0.7348083258 0.04921399057
-2.773670197 0.7380162477 0.1482165605
-2.745673656 0.7315933108 0.2448822558
-2.737570524 0.7304584384 0.3427531421
-2.764524221 0.7381665111 0.4465155005
-2.787633657 0.7453802824 0.5526456833
-2.761745214 0.7394902706 0.6501051784
-2.743991375 0.7352503538 0.7495920658
-2.711251736 0.7305364013 -0.7407921553
-2.730345488 0.7361924052 -0.6429067254
-2.749791861 0.7424654365 -0.5453948975
-2.745158911 0.7417285442 -0.4436996877
-2.782909155 0.7529708743 -0.3488466144
-2.756046534 0.7467351556 -0.2461024374
-2.7797997 0.7536917329 -0.1487399191
-2.777037859 0.7539843321 -0.04952813312
-2.753379822 0.7418876886 0.04907437414
-2.774933577 0.748734355 0.1484259069
-2.756567001 0.7448109984 0.2461024374
-2.729384661 0.7379775643 0.3420219123
-2.771464348 0.7503933311 0.4480798542
-2.773777246 0.7515392303 0.5503559709
-2.770562172 0.7517063022 0.6528045535
-2.750729322 0.747356832 0.7521802187
-2.721859932 0.7430843115 -0.7444156408
-2.722119808 0.7441769242 -0.6415569782
-2.762464046 0.7557245493 -0.5484478474
-2.746363401 0.7523503304 -0.4443254471
-2.776435137 0.7616302371 -0.3483591378
-2.768925667 0.7600898743 -0.2474969327
-2.769448519 0.7612729669 -0.1483212411
-2.784029245 0.7663269639 -0.04970265925
-2.762347221 0.7546563745 0.04928379878
-2.774229288 0.7589432001 0.1485305876
-2.765611887 0.757104516 0.2471483052
-2.721048594 0.7459260225 0.3412907422
-2.770733118 0.7605860233 0.4483927488
-2.778709412 0.7632971406 0.5518824458
-2.767921448 0.7613728642 0.6528045535
-2.751829147 0.7579795718 0.7532154918
-2.728558779 0.7551580071 -0.7470038533
-2.727017641 0.7557557225 -0.6433566213
-2.752242088 0.7632641792 -0.546921432
-2.751333952 0.7640459538 -0.4455769062
-2.769934416 0.7702535391 -0.3478716612
-2.770094156 0.7708195448 -0.2478455603
-2.770622253 0.772007823 -0.1485305876
-2.775558949 0.7744275331 -0.04959794506
-2.767404795 0.7664291263 0.04942341894
-2.761940241 0.7659537792 0.148007229
-2.768711805 0.7683520913 0.2476712167
-2.729903936 0.7586086988 0.3427531421
-2.76996398 0.7707833052 0.4487055838
-2.783593416 0.7750986218 0.5534089208
-2.753983974 0.7678903937 0.6501051784
-2.760330439 0.7706977725 0.7563213706
-2.720325708 0.763112545 -0.7454509139
-2.737495422 0.7689598799 -0.6465059519
-2.75334096 0.7739292979 -0.5476846099
-2.763862133 0.7779276371 -0.4480798542
-2.76722908 0.7799171805 -0.3478716612
-2.763551712 0.7794020772 -0.2474969327
-2.779443264 0.784930706 -0.1491586268
-2.765141726 0.7819347382 -0.04945832118
-2.776264429 0.7793264985 0.04963284731
-2.766940594 0.7777520418 0.1484259069
-2.771766901 0.7796298265 0.2481941581
-2.738703728 0.7713623643 0.3442156017
-2.7558496 0.7772298455 0.4468283951
-2.795986414 0.7890763879 0.5564618707
-2.762538671 0.7806780338 0.6528045535
-2.753905296 0.7792771459 0.7552860379
-2.717645645 0.772603035 -0.7454509139
-2.746040344 0.7817121744 -0.6492053866
-2.761951685 0.7867619991 -0.5499743223
-2.757330418 0.7864869833 -0.4474541247
-2.787394762 0.7961146235 -0.3507965207
-2.756982803 0.787948966 -0.2471483052
-2.784366846 0.7968267202 -0.1495773047
-2.770084858 0.7937856913 -0.04959794506
-2.769680262 0.7879184484 0.04956303909
-2.771892786 0.7895938158 0.1488445997
-2.755616188 0.7854772806 0.2469739914
-2.739812374 0.7820066214 0.3447030485
-2.764515638 0.7901018858 0.4487055838
-2.785664558 0.7966713905 0.5549353361
-2.767290354 0.7924623489 0.6546041965
-2.749311686 0.7883523107 0.7547684312
-2.726070404 0.7852933407 -0.7485567927
-2.735805511 0.789131999 -0.6474057436
-2.762961149 0.7974871993 -0.5507375598
-2.750773191 0.7950095534 -0.4468283951
-2.788412571 0.8069432974 -0.3512839973
-2.765698195 0.8008922935 -0.2481941581
-2.775813818 0.8048725724 -0.1492632926
-2.776899099 0.8062381148 -0.04977246746
-2.755383968 0.7942591906 0.049353607
-2.780633211 0.802587986 0.149472639
-2.771998882 0.8006206751 0.2487170994
-2.740879774 0.7926686406 0.3451905251
-2.767433167 0.8013947606 0.449644208
-2.782866716 0.8063904643 0.5549353361
-2.771993399 0.8042892814 0.65640378
-2.755818844 0.8006392717 0.7573565841
-2.727021456 0.795886755 -0.7495920658
-2.73677516 0.799770236 -0.6483055353
-2.767697334 0.8093316555 -0.5522640347
-2.751772642 0.8057169318 -0.4474541247
-2.777959108 0.8144379258 -0.3503090441
-2.768620968 0.8122242093 -0.2487170994
-2.772987366 0.8145571351 -0.1492632926
-2.781741381 0.8181835413 -0.04991208389
-2.764111996 0.8072353601 0.04956303909
-2.77014637 0.8100478053 0.1490539461
-2.765362978 0.8091722727 0.2483685017
-2.726666212 0.7988831997 0.3437281251
-2.768409967 0.8121622801 0.4502699375
-2.783802509 0.8172063828 0.5556986332
-2.769169092 0.8139598966 0.65640378
-2.760420322 0.8124358654 0.7594271302
-2.73733592 0.8087573647 -0.7532154918
-2.734107971 0.8088414073 -0.6483055353
-2.7574687 0.8162756562 -0.5507375598
-2.764237165 0.8193288445 -0.4499570727
-2.775243044 0.8236455917 -0.3503090441
-2.773408175 0.8241544366 -0.2494143546
-2.779842854 0.8265945315 -0.1497866511
-2.773263216 0.8256917596 -0.04980736971
-2.771008253 0.8192318082 0.04973756149
-2.763615131 0.818095088 0.1488445997
-2.770305872 0.8206016421 0.249065727
-2.733517885 0.8107424974 0.3449468017
-2.771382332 0.8230253458 0.4512085319
-2.799896479 0.8320257664 0.5595148206
-2.770190477 0.8242499828 0.6573035717
-2.761414051 0.82268852 0.7604624629
-2.72880125 0.8171222806 -0.7516625524
-2.744335175 0.822295785 -0.6514548659
-2.760099649 0.8280692697 -0.5518824458
-2.768782854 0.8317286372 -0.4512085319
-2.779955626 0.8356131315 -0.3512839973
-2.766698837 0.8326821327 -0.249065727
-2.788268805 0.8402346969 -0.1504146755
-2.766535044 0.83421278 -0.04973756149
-2.773878574 0.8306204081 0.04984227568
-2.77604723 0.8323258162 0.1496819854
-2.774912834 0.8330413699 0.2497629821
-2.73637414 0.8219932318 0.3456780016
-2.764709473 0.831556499 0.4505828023
-2.793068171 0.8411493301 0.5587515235
-2.774613619 0.8366488218 0.6591031551
-2.762224436 0.8334380984 0.761497736
-2.724083662 0.8260821104 -0.7511449456
-2.748761415 0.8346134424 -0.6532544494
-2.764706135 0.8399817944 -0.5534089208
-2.77342248 0.8436875343 -0.4524600506
-2.795863867 0.8515813351 -0.35372141
-2.759963751 0.8411723375 -0.2487170994
-2.802511454 0.8552097082 -0.1513567269
-2.77699399 0.8479519486 -0.04998189583
-2.774642944 0.8419423699 0.04991208389
-2.780769348 0.844332099 0.1501006633
-2.766269445 0.8409833312 0.2492400408
-2.744737864 0.8354848623 0.3471404314
-2.769348145 0.8435049653 0.4518342614
-2.793871164 0.8520393372 0.5595148206
-2.767948866 0.8451900482 0.6582033634
-2.748213053 0.8396881223 0.7583918571
-2.756271839 0.8463597298 -0.7609800696
-2.764606714 0.8494477272 -0.6577534676
-2.810545683 0.8646359444 -0.5633309484
-2.800816298 0.8621786237 -0.4574659169
-2.834759474 0.8737099767 -0.3590836525
-2.81222105 0.8678390384 -0.2537721395
-2.83210206 0.8745155931 -0.153136149
-2.837062836 0.877132237 -0.05113375187
-2.787128448 0.8558347225 0.0501913242
-2.812168598 0.8645986915 0.1519847512
-2.818538666 0.867634058 0.2542950511
-2.781791925 0.8568538427 0.3522589505
-2.770162344 0.8543304205 0.4524600506
-2.787277937 0.8601416945 0.5587515235
-2.780025959 0.8589667082 0.6618025899
-2.760029316 0.8538443446 0.7625330091
-2.777432919 0.8629468679 -0.7677093744
-2.789536476 0.8677757978 -0.664501965
-2.817035437 0.8768687844 -0.5652390718
-2.809105396 0.8754767179 -0.4593431354
-2.835482121 0.8847831488 -0.3595711291
-2.824542046 0.8819104433 -0.25516662
-2.830938339 0.884992063 -0.1532408148
-2.84734273 0.8912114501 -0.05137808993
-2.814676762 0.8750571012 0.0507498011
-2.818668365 0.8773770928 0.1525081098
-2.828961849 0.8811234832 0.2555152476
-2.780679226 0.8671499491 0.3525027037
-2.772819996 0.8657612205 0.4533986151
-2.791754723 0.8722079396 0.5602779984
-2.777010679 0.8686656356 0.6618025899
-2.768093586 0.8669371009 0.7656388283
-2.789146662 0.8772737384 -0.7718504667
-2.78649044 0.8775072098 -0.664501965
-2.813957453 0.8866968155 -0.5652390718
-2.821103096 0.8900318146 -0.4618461132
-2.830483437 0.894077599 -0.3593274057
-2.829045773 0.8941665888 -0.2558638752
-2.829735994 0.8954711556 -0.1533454955
-2.834682703 0.8981252313 -0.05120356753
-2.828771591 0.8902803659 0.05106394365
-2.813683987 0.8866106272 0.152403459
-2.839169979 0.8951869607 0.2567354441
-2.788993359 0.8804359436 0.3539651334
-2.771664619 0.8760303259 0.4537115097
-2.803668022 0.8866836429 0.5633309484
-2.773961544 0.8783539534 0.6618025899
-2.76873374 0.8777620196 0.7666741014
-2.769500017 0.8817298412 -0.7671917081
-2.794550657 0.8907796741 -0.6672013998
-2.807104111 0.895321548 -0.5644758344
-2.827388048 0.902877748 -0.4634104371
-2.833017349 0.9057660103 -0.3600585759
-2.825907469 0.9040356874 -0.2558638752
-2.841809511 0.9102172852 -0.1541828662
-2.825817823 0.9061828256 -0.05109884962
-2.831363201 0.9019703269 0.05116865784
-2.820085526 0.8994619846 0.1529268175
-2.832231998 0.9038806558 0.2563868165
-2.797248363 0.893791914 0.3554275632
-2.766708612 0.8850973248 0.4533986151
-2.808034658 0.8988589644 0.5648574233
-2.774590254 0.8892204762 0.6627023816
-2.765652895 0.8874214888 0.7666741014
-2.771921158 0.8931699991 -0.7687446475
-2.793278933 0.9011274576 -0.6676513553
-2.817039967 0.9093365073 -0.5671471357
-2.818580151 0.9109193087 -0.4624718428
-2.837393761 0.9180935025 -0.3610335588
-2.817047596 0.9120540619 -0.2553409338
-2.846214771 0.9225941896 -0.154601559
-2.83404994 0.9197450876 -0.05130828172
-2.828197479 0.9118475318 0.05116865784
-2.824531317 0.9117547274 0.1533454955
-2.829059839 0.9137609005 0.2563868165
-2.79411149 0.9035508037 0.3554275632
-2.778636694 0.89961797 0.4559015632
-2.797409534 0.9062353373 0.5633309484
-2.778883934 0.9013057351 0.664501965
-2.762538671 0.8970693946 0.7666741014
-2.781643867 0.9070322514 -0.7723681331
-2.795673609 0.9126873612 -0.6690009832
-2.819447517 0.9209925532 -0.5682920218
-2.817260742 0.9213673472 -0.4627847075
-2.845490694 0.9316985607 -0.3624959588
-2.825207233 0.925603807 -0.2563868165
-2.844875097 0.9331464171 -0.1547062248
-2.840321541 0.9327510595 -0.05148280412
-2.819293976 0.9198533893 0.05106394365
-2.836519957 0.9265694022 0.1541828662
-2.831534147 0.9254876375 0.2569097579
-2.787167311 0.912063241 0.3549400866
-2.76984787 0.9074668288 0.4549629688
-2.790498018 0.9147709012 0.5625677705
-2.790533304 0.9158619642 0.6681011915
-2.763060808 0.9079138637 0.7677093744
-2.782129765 0.9179470539 -0.7734034061
-2.790620565 0.9218286872 -0.668551147
-2.823671818 0.9332931638 -0.5698184371
-2.819653273 0.9330568314 -0.4637233019
-2.832798719 0.9385047555 -0.3612772822
-2.829523563 0.9379670024 -0.2570840418
-2.834017992 0.9405555129 -0.1542875469
-2.852229595 0.9477043152 -0.0517620407
-2.823661804 0.9321960211 0.05120356753
-2.829475641 0.9352114797 0.1539735347
-2.837744236 0.9384946227 0.257781297
-2.791504383 0.9242825508 0.3559150398
-2.781663418 0.9221016765 0.4574659169
-2.791014671 0.9257422686 0.5633309484
-2.77992177 0.923140049 0.6663016081
-2.770873785 0.9212100506 0.7708151937
-2.793568134 0.9325466156 -0.7775444984
-2.798475266 0.9352704883 -0.6712505817
-2.820396662 0.9431440234 -0.5698184371
-2.823872089 0.9454021454 -0.4649747908
-2.827623844 0.9477559924 -0.3610335588
-2.843233347 0.9535399079 -0.2586528659
-2.83829093 0.9529846907 -0.1547062248
-2.84321785 0.9557440281 -0.05165733024
-2.83366704 0.9464821219 0.05144789815
-2.826194048 0.9450826645 0.1539735347
-2.842008829 0.9509226084 0.2584785521
-2.792025566 0.9352822304 0.3564025164
-2.782173634 0.9330621958 0.4580916464
-2.806378603 0.9417254925 0.5671471357
-2.776682615 0.9328382611 0.6663016081
-2.776796818 0.933955431 0.7734034061
-2.77931428 0.9385831356 -0.7744386792
-2.798885584 0.9462816119 -0.6721503735
-2.813367844 0.9517251253 -0.5690552592
-2.83178091 0.9590556026 -0.4668520093
-2.839337826 0.9627199769 -0.3629834652
-2.832340479 0.9608985186 -0.2579556108
-2.84440279 0.9660980105 -0.1552295834
-2.824718475 0.9605121017 -0.05137808993
-2.836029768 0.9582882524 0.05155261233
-2.826661587 0.9562221766 0.1541828662
-2.8386724 0.9608373642 0.2584785521
-2.792503834 0.9462968111 0.356889993
-2.769546509 0.9395949841 0.4565272927
-2.814229012 0.955301702 0.5694368482
-2.777099609 0.9437791109 0.6672013998
-2.771690845 0.9430203438 0.7728857398
-2.783333302 0.9507777095 -0.7765091658
-2.810316801 0.9610899687 -0.6757495999
-2.817458391 0.9640822411 -0.5705816746
-2.820940733 0.9663731456 -0.4656005204
-2.849104404 0.9771332741 -0.3646896482
-2.827084541 0.9701327682 -0.257781297
-2.854235411 0.9805634618 -0.1559622884
-2.834755421 0.974424243 -0.05162242055
-2.838344097 0.9701223373 0.05165733024
-2.829144955 0.9675288796 0.1544968933
-2.827761173 0.9681589007 0.257781297
-2.800450802 0.9599006772 0.3583524227
-2.773889542 0.9513375163 0.4577788115
-2.810877085 0.9651194811 0.5694368482
-2.788531542 0.9585351944 0.6708006263
-2.764894724 0.9509498477 0.7718504667
-2.783649445 0.9617493749 -0.7775444984
-2.803430319 0.9691306353 -0.6748497486
-2.828918219 0.9790478945 -0.5736346245
-2.82145381 0.9770153761 -0.4662262499
-2.855226278 0.9898269773 -0.3659083247
-2.833092213 0.9832616448 -0.2586528659
-2.83964777 0.9860921502 -0.155334264
-2.842669487 0.9882534146 -0.05183185264
-2.829441071 0.9775703549 0.05155261233
-2.838962555 0.9819693565 0.1552295834
-2.831895351 0.9806309938 0.2584785521
-2.801003456 0.9704819918 0.3588398993
-2.779883623 0.9642506242 0.4593431354
-2.807661295 0.9744354486 0.5694368482
-2.796382666 0.9716140628 0.673500061
-2.772506237 0.9644035101 0.7749563456
-2.784092665 0.9722489715 -0.7785797715
-2.796351433 0.9776243567 -0.6739499569
-2.823802948 0.9877755642 -0.5732530355
-2.825483561 0.9894704223 -0.4674777389
-2.848007202 0.9984734654 -0.3654208481
-2.841096163 0.9966080785 -0.2596987188
-2.841841698 0.9979829788 -0.1556482762
-2.854469776 1.002977967 -0.05211109295
-2.833562613 0.9900786877 0.05169223249
-2.833805561 0.9907186031 0.1551249176
-2.841791391 0.9946237803 0.2596987188
-2.791978836 0.9782842994 0.3581086993
-2.784127235 0.9760780334 0.4605945945
-2.800537348 0.9829297066 0.5686736107
-2.792973757 0.9813700914 0.673500061
-2.776582718 0.9761552215 0.7770268321
-2.793433428 0.9864636064 -0.7822031975
-2.796768904 0.9881905913 -0.6748497486
-2.822188854 0.9982804656 -0.5736346245
-2.82963562 1.001470208 -0.468729198
-2.835325003 1.004597664 -0.3642021716
-2.848866701 1.010515809 -0.2607446015
-2.840398788 1.008069515 -0.155752942
-2.845298529 1.010927439 -0.05200637504
-2.845348358 1.004796743 0.05197146907
-2.824680805 0.9986080527 0.1548109055
-2.842059135 1.005867243 0.2600473762
-2.792461872 0.9888628125 0.3585961759
-2.7862885 0.9877706766 0.4615332186
-2.808364391 0.9961493015 0.5709633231
-2.782358408 0.9880181551 0.671700418
-2.780439615 0.9884291887 0.7790973783
-2.781049252 0.992475152 -0.7796150446
-2.800642967 1.00056982 -0.6766493917
-2.820711613 1.008294702 -0.574016273
-2.835421801 1.014670014 -0.4702935517
-2.839276075 1.017166734 -0.3651770949
-2.836122274 1.016596079 -0.2598730326
-2.848142385 1.022025824 -0.1563809812
-2.834224463 1.018148422 -0.05186675489
-2.841823578 1.014722824 0.05197146907
-2.830581427 1.01182282 0.155334264
-2.838707924 1.015286326 0.2600473762
-2.790861607 0.9992727041 0.3588398993
-2.77538538 0.9948252439 0.4602817595
-2.821502209 1.011910558 0.574397862
-2.789897203 1.001675606 0.6743998528
-2.773336411 0.9968218207 0.7780621052
-2.779385328 1.002832532 -0.7801327109
-2.820960045 1.018946171 -0.6824980974
-2.852255821 1.030813098 -0.5812669992
-2.838264227 1.024636626 0.05197146907
-2.840180635 1.026449084 0.156066969
-4.111106396 1.486576438 0.3787534535
-3.892135382 1.411238074 0.7964995503
-3.828676701 1.389740944 0.9303941131
-3.980906963 1.446571827 1.123326778
-3.791221619 1.3843894 -0.9218460917
-3.81491375 1.39379549 -0.7812348604
-3.804096222 1.391348362 -0.634862721
-3.831246853 1.402795076 -0.4958210588
-3.822107792 1.400961995 -0.3524324298
-3.836633921 1.40704608 -0.2119617611
-3.831340075 1.406621933 -0.07054083049
-3.850940228 1.405434489 0.07085497677
-4.003435612 1.46267271 0.221172899
-4.126476288 1.508442521 0.3806709051
-4.170773983 1.526286006 0.540181458
-4.011107445 1.469444275 0.6699039936
-3.872438669 1.419410467 0.79344666
-3.823801994 1.403097153 0.9303941131
-3.983086586 1.463123322 1.125397325
-3.762599945 1.388842463 -0.9159973264
-3.782156467 1.397561431 -0.7755106091
-3.787854671 1.401169658 -0.6329854727
-3.805848598 1.408581018 -0.4931399524
-3.805984259 1.410142899 -0.3513865769
-3.797744513 1.408596754 -0.2100776732
-3.798284769 1.409552336 -0.07001725584
-3.800984144 1.402257085 0.07001725584
-3.801581144 1.40398407 0.210182339
-4.137738228 1.529774666 0.3822396696
-4.143079281 1.532571316 0.5372566581
-4.030035973 1.492354631 0.6739712954
-3.861687899 1.431547046 0.792301774
-3.833249807 1.422527909 0.9339933991
-3.992443562 1.482396722 1.129538417
-3.722474575 1.388074994 -1.052927971
-3.735575914 1.394445658 -0.9105984569
-3.764380932 1.405946732 -0.7728391886
-3.76813817 1.408849001 -0.6304824948
-3.783927917 1.416257143 -0.4909462929
-3.791709423 1.419925213 -0.350515008
-3.787193537 1.419742584 -0.209763661
-3.798958778 1.424908161 -0.07012197375
-3.784578085 1.411984086 0.06980782747
-3.781687975 1.411658764 0.2093449831
-4.145438194 1.549090147 0.3834598958
-4.159745216 1.556092381 0.540181458
-4.019251823 1.504334807 0.673032701
-3.865859032 1.448462248 0.7942098379
-3.828261137 1.4358989 0.9339933991
-3.998096466 1.50039649 1.132644176
-3.72483778 1.403784633 -1.054998517
-3.729108095 1.406137347 -0.9101486206
-3.753940105 1.416997433 -0.7716943622
-3.765293598 1.422034979 -0.6307954192
-3.786638021 1.431605458 -0.4919212162
-3.781139851 1.431036472 -0.3499920666
-3.795540094 1.437242866 -0.210496366
-3.780872345 1.43319881 -0.06987763941
-3.785488605 1.426642179 0.06991253793
-3.787949085 1.429080725 0.2099730074
-4.136277676 1.562144041 0.3831112683
-4.173131943 1.576895118 0.5426189303
-4.012127876 1.517657399 0.6727197766
-3.864707232 1.462663889 0.7949730754
-3.832590103 1.452038288 0.9362428784
-3.981997252 1.510233045 1.129538417
-3.711134911 1.412692666 -1.052410364
-3.749670744 1.428861737 -0.9164472222
-3.730876207 1.422444344 -0.7678781748
-3.758460999 1.434465408 -0.6304824948
-3.777909517 1.44339788 -0.4914337695
-3.748086691 1.435004115 -0.06935407221
-3.765535593 1.434153557 0.06963330507
-3.792521 1.44519031 0.210496366
-4.123628616 1.573010564 0.3824140131
-4.175020218 1.594284058 0.5435938835
-4.014455318 1.533773184 0.6739712954
-3.857744694 1.475443244 0.7945914865
-3.842057467 1.470982075 0.9398421645
-3.987791061 1.52757597 1.132644176
-3.680938482 1.415928602 -1.045163393
-3.704900265 1.425889254 -0.9065493345
-3.70573616 1.427695155 -0.7636803985
-3.709447145 1.429869533 -0.6229736209
-3.743469954 1.444484115 -0.4875339568
-3.721130848 1.437357426 -0.3452856541
-3.744683504 1.447205305 -0.2081935704
-3.729999304 1.443027854 -0.06910973042
-3.717832088 1.430120349 0.06883049756
-3.796773195 1.462007642 0.2110197395
-4.132984638 1.593129158 0.3838084936
-4.173414707 1.609549046 0.5440813303
-4.031189442 1.556315184 0.6777256727
-3.849167347 1.486814022 0.793828249
-3.853516817 1.490040064 0.9438912868
-3.99684763 1.547064662 1.136785269
-3.652317286 1.420308113 -1.038434148
-3.659446955 1.424551249 -0.896651566
-3.685843468 1.435567856 -0.7606275082
-3.678163528 1.434056401 -0.618593514
-3.697464228 1.442324877 -0.4821716845
-3.700990438 1.445188999 -0.3438911736
-3.709336281 1.449939251 -0.2065188289
-3.706062078 1.449406028 -0.06876068562
-3.68622303 1.434233904 0.06834182888
-3.787666321 1.474464536 0.2108103782
-4.145681858 1.615499735 0.3855516016
-4.156106949 1.621234417 0.5426189303
-4.034660339 1.574670076 0.6792900562
-3.856230497 1.506583929 0.7964995503
-3.860735178 1.509119391 0.9470405579
-3.998346567 1.564520359 1.138855934
-3.626008987 1.423938274 -1.03222239
-3.647447586 1.433826685 -0.8948518634
-3.650002956 1.435567737 -0.7541399598
-3.655007124 1.439008355 -0.615464747
-3.672343969 1.446575284 -0.4794905484
-3.681349754 1.451606274 -0.3424966633
-3.682214499 1.45343256 -0.2052627653
-3.669616461 1.449201226 -0.06816729903
-3.681446552 1.446450114 0.06834182888
-3.782755852 1.487016916 0.2108103782
-4.151426315 1.633615971 0.3865974844
-4.150707722 1.635007858 0.5426189303
-4.029416084 1.588040948 0.6792900562
-3.865823507 1.525127411 0.7995525599
-3.884711742 1.533361673 0.9542390108
-4.012899876 1.585579753 1.144549966
-3.603309631 1.428833008 -1.027046084
-3.615504265 1.435130119 -0.8881033659
-3.623327732 1.438966632 -0.7495605946
-3.637365818 1.446012616 -0.6132746935
-3.648828506 1.452044725 -0.4770531654
-3.646898985 1.452014208 -0.3397077024
-3.643978357 1.452325225 -0.2033786774
-3.640390158 1.452368736 -0.06771353632
-3.658042192 1.451276064 0.06799277663
-3.788680315 1.504634619 0.2114384174
-4.149689674 1.648845434 0.3869461119
-4.167397499 1.657567024 0.5455437303
-4.027518749 1.603558064 0.6799157858
-3.875335693 1.543751121 0.8026054502
-3.939069748 1.570731997 0.9690858126
-3.998369694 1.595996022 1.141961694
-3.549879789 1.422007084 -1.013069749
-3.596002817 1.441938877 -0.8845041394
-3.592772722 1.441372514 -0.7442178726
-3.597467899 1.444713235 -0.6073302031
-3.621635675 1.455887914 -0.4741283059
-3.615929365 1.454326987 -0.3372673392
-3.63888669 1.465036273 -0.2033786774
-3.61118722 1.455349326 -0.06725978106
-3.612118244 1.447670221 0.06722487509
-3.798233509 1.523800611 0.2122757733
-4.143908978 1.663320541 0.3869461119
-4.168954372 1.675063372 0.5465186834
-4.023729324 1.618344188 0.6802287102
-3.858995676 1.55287075 0.8003157377
-4.027557373 1.622335434 0.9924806356
-3.999941349 1.612833142 1.144032359
-3.537731409 1.431491494 -1.010999322
-3.556629181 1.44058311 -0.8759559989
-3.565885305 1.445056677 -0.7396385074
-3.564944983 1.446124673 -0.6026371717
-3.599978447 1.461799502 -0.4719346762
-3.581042528 1.455566645 -0.3344783485
-3.589347363 1.459672332 -0.2008665502
-3.589415789 1.461160302 -0.06694563478
-3.573679209 1.446762085 0.06659658998
-3.796593428 1.538550019 0.2124851346
-4.151002407 1.68301487 0.3881663084
-4.174118519 1.694084883 0.547981143
-4.030866146 1.637584448 0.6824187636
-3.860826969 1.569289088 0.8018422723
-4.076022148 1.658416271 1.00597775
-4.008600235 1.632615328 1.148173332
-3.512791634 1.436404586 -1.00530529
-3.531739235 1.444872737 -0.8710071445
-3.538763523 1.449187636 -0.7350590825
-3.543170691 1.452437878 -0.5998213291
-3.558120966 1.459291697 -0.4670598805
-3.561194897 1.462004781 -0.333083868
-3.554415703 1.460671544 -0.1991918087
-3.562099934 1.464556098 -0.06652677804
-3.553799629 1.453173041 0.06631734967
-3.798593283 1.554819584 0.2129038125
-4.159554482 1.704261541 0.3895607591
-4.175525665 1.71165657 0.5489560962
-4.043400764 1.659143686 0.685547471
-3.864129305 1.587158799 0.8037503362
-4.080729961 1.677790761 1.008677125
-4.010023117 1.649537802 1.150243878
-3.484543562 1.439072251 -0.9985759258
-3.508410692 1.450361848 -0.8665081263
-3.508284092 1.451027393 -0.7297164202
-3.530778885 1.461773753 -0.59856987
-3.527074814 1.461683512 -0.4636475444
-3.530303955 1.463742733 -0.3306435049
-3.530848503 1.465413809 -0.1981450766
-3.525569916 1.463944554 -0.06593339145
-3.528119564 1.457789302 0.06593339145
-3.789451838 1.566542983 0.212694481
-4.155421257 1.719532847 0.3897351027
-4.191232204 1.736065269 0.5518809557
-4.046708584 1.677029133 0.6871117353
-3.873072386 1.606655359 0.8068032265
-4.074848652 1.692024946 1.008677125
-4.025649071 1.67241931 1.156455636
-3.452754021 1.440072179 -0.990811348
-3.489194393 1.455984592 -0.8629088998
-3.470589161 1.449644446 -0.7228472829
-3.500395298 1.462810874 -0.5941897035
-3.503895044 1.465711117 -0.4612101614
-3.50311923 1.466823578 -0.3285517693
-3.514916658 1.472484469 -0.1975170523
-3.4946208 1.465416074 -0.06544473022
-3.506655693 1.462553382 0.06561925262
-3.791332722 1.582839012 0.2131131738
-4.156747341 1.737099409 0.3904323578
-4.181789398 1.7484231 0.5513934493
-4.037186146 1.689618468 0.6864860654
-3.885833025 1.627073169 0.8106194735
-4.083594322 1.711553931 1.012276411
-4.034038067 1.692440271 1.160596609
-3.417690754 1.438771605 -0.9820115566
-3.451766253 1.454534173 -0.8548106551
-3.454908609 1.456569433 -0.7205575705
-3.458868742 1.459660172 -0.5879323483
-3.487785816 1.473297715 -0.4597477317
-3.468616009 1.466627955 -0.3257627785
-3.491361141 1.476962566 -0.1964703351
-3.471070051 1.46980834 -0.06509567797
-3.479414463 1.465469956 0.06520039588
-3.804187775 1.603823543 0.214159891
-4.143620968 1.747777224 0.3897351027
-4.182976246 1.76609838 0.5523684621
-4.051278591 1.712159514 0.689927578
-3.883745432 1.642156363 0.8113826513
-4.095540524 1.733394504 1.01677537
-4.02632761 1.705757022 1.160079002
-3.401728153 1.446751237 -0.9789056778
-3.423356295 1.456656218 -0.8489618897
-3.431484461 1.46152854 -0.7167413831
-3.428055525 1.461482048 -0.5835521221
-3.466188431 1.478454113 -0.4575541019
-3.456146002 1.475596786 -0.3250655234
-3.452865839 1.475622296 -0.1945862323
-3.447531939 1.474053383 -0.06474663317
-3.437474012 1.461953878 0.06450229883
-3.809592724 1.621786118 0.2147879303
-4.144518375 1.766077638 0.3904323578
-4.184090137 1.783802032 0.5533434153
-4.036192417 1.72241509 0.6883632541
-3.874090672 1.654837012 0.8106194735
-4.099911213 1.75298965 1.019474864
-4.043438911 1.729678631 1.166808367
-3.380681753 1.451756358 -0.9742469788
-3.389348984 1.456879735 -0.8417634368
-3.415540695 1.468844295 -0.7144517303
-3.408418179 1.4671911 -0.5810492039
-3.42793107 1.477009058 -0.4531667829
-3.425359726 1.476609945 -0.3226251602
-3.418353081 1.475004554 -0.1929114759
-3.436598539 1.484301567 -0.06464191526
-3.428417921 1.472964287 0.06443248689
-3.803622961 1.635738134 0.2147879303
-4.156630516 1.788407564 0.3921754658
-4.181170464 1.800696969 0.5538309216
-4.062505245 1.751271844 0.6939948797
-3.880909204 1.673793435 0.8132907748
-4.097344875 1.768835068 1.020374537
-4.056579113 1.752916336 1.172502279
-3.368503571 1.460474491 -0.972176373
-3.368154049 1.461719751 -0.8377143741
-3.376176834 1.465901732 -0.7072009444
-3.385159016 1.471206188 -0.5779204965
-3.388168335 1.473920345 -0.4485357404
-3.416530848 1.486967683 -0.3222765625
-3.398534775 1.480546474 -0.1920741051
-3.402068377 1.483498931 -0.06408344209
-3.408578873 1.478556633 0.06415324658
-3.801553726 1.650596023 0.2149972469
-4.150362492 1.802906156 0.3921754658
-4.174859524 1.815280199 0.5538309216
-4.063611984 1.768595219 0.6952463388
-3.893043756 1.695167303 0.8171069622
-4.094717979 1.784685254 1.021274447
-4.091160774 1.784832954 1.184407949
-3.326220989 1.45595634 -0.9613060355
-3.352321863 1.468774915 -0.8350149393
-3.349462271 1.468219757 -0.7026215196
-3.369149208 1.478251576 -0.5760433078
-3.37417388 1.481158376 -0.4473170638
-3.389430285 1.489266872 -0.320184797
-3.382376432 1.487576365 -0.1914460808
-3.362353802 1.479470611 -0.06342025101
-3.381416321 1.480819941 0.06373438984
-3.803376913 1.666398644 0.2154159397
-4.169588089 1.828585386 0.3946157992
-4.179403782 1.834629536 0.555293262
-4.055916309 1.781266809 0.6949334741
-3.8960886 1.712696433 0.8190150261
-4.103048325 1.804529309 1.024873614
-4.148871422 1.82641089 1.203042984
-3.291332483 1.453709841 -0.952506125
-3.338521004 1.475943804 -0.8327654004
-3.32482481 1.470583439 -0.6984237432
-3.335328817 1.476620555 -0.5710374117
-3.351093054 1.484300375 -0.4448796809
-3.344402313 1.482732415 -0.3163499534
-3.355517626 1.489063025 -0.1901900023
-3.339152575 1.482498288 -0.06307120621
-3.34905076 1.479901314 0.06321082264
-3.808790445 1.683847666 0.216043964
-4.148926258 1.83595252 0.3932213485
-4.187817097 1.854910612 0.557243228
-4.057210922 1.797908187 0.6961849332
-3.885003328 1.723219037 0.8178701401
-4.114853859 1.826030254 1.029372573
-4.14985466 1.843296289 1.205113649
-3.274142265 1.459110975 -0.948882699
-3.315811157 1.47906816 -0.8282663822
-3.307379961 1.476000309 -0.6957524419
-3.305163145 1.4763937 -0.5666572452
-3.338642836 1.492747903 -0.4439047277
-3.313745975 1.483004332 -0.31390962
-3.328686953 1.490388155 -0.1889339536
-3.323008299 1.489238143 -0.06286177039
-3.322208405 1.481227517 0.0627919659
-3.817480326 1.703645229 0.2168813646
-4.150092125 1.852950096 0.3939185739
-4.196140766 1.875267148 0.5591931343
-4.054517269 1.813672066 0.6968107224
-3.872099876 1.732885122 0.8163437247
-4.11912632 1.845161796 1.032072067
-4.178649902 1.873578191 1.21546638
-3.252917051 1.463966012 -0.9442239404
-3.27864337 1.476232171 -0.8201681376
-3.294788837 1.484885216 -0.6942259073
-3.287124634 1.482812762 -0.5644671321
-3.311699867 1.494593263 -0.4409798384
-3.304917336 1.492921948 -0.3135609627
-3.305003166 1.494349957 -0.1878872365
-3.319611549 1.501652956 -0.06289667636
-3.306076765 1.487890363 0.06258253008
-3.813330889 1.717780709 0.2169860303
-4.15235424 1.872242212 0.394790113
-4.171474457 1.88174057 0.5567557216
-4.058963299 1.832692266 0.6986879706
-3.8800354 1.753532767 0.8193966746
-4.108784199 1.858641624 1.031172276
-4.161525249 1.883373022 1.212360501
-3.256581545 1.479306936 -0.9468121529
-3.257244587 1.480979919 -0.8161190152
-3.328900576 1.514261127 -0.7026215196
-3.393392563 1.545027137 -0.5838650465
-3.519349098 1.603860021 -0.4697410166
-3.388516426 1.544949293 -0.3221022487
-3.681335449 1.680009604 -0.2098683268
-3.785488367 1.728338003 -0.07193702459
-3.315164804 1.506617546 0.06286177039
-3.80549407 1.730253816 0.2168813646
-4.165741444 1.895804644 0.3967075646
-4.182614803 1.905244946 0.5591931343
-4.054338932 1.847669005 0.6990007758
-3.884607792 1.771954656 0.8216863275
-4.102272034 1.872971654 1.031172276
-4.165468216 1.902704954 1.21546638
-3.72554183 1.708045959 -1.086574435
-3.748279095 1.719262004 -0.9420915842
-3.735745907 1.715091825 -0.7907752991
-3.790348053 1.740960836 -0.6539476514
-3.798983097 1.746534109 -0.5082517266
-3.493509769 1.607573032 -0.3327352405
-3.811811447 1.75485003 -0.2177187204
-3.790328979 1.746562719 -0.07214645296
-3.335599422 1.529269338 0.06335043907
-3.81939888 1.752690196 0.2180327475
-4.155478001 1.908670068 0.396358937
-4.190704346 1.925735831 0.5611430407
-4.040686131 1.858507276 0.6977493167
-3.901895523 1.795495749 0.8266473413
-4.110198021 1.89308691 1.034771442
-4.165818691 1.920468926 1.217536926
-3.732130766 1.726067543 -1.090197921
-3.763476372 1.742159247 -0.9474904537
-3.737163782 1.730770946 -0.792301774
-3.787832022 1.755842566 -0.6545734406
-3.810870647 1.768138289 -0.5106891394
-3.488159657 1.619149327 -0.3327352405
-3.816530466 1.773194313 -0.2183467597
-3.805967569 1.769902229 -0.07256531715
-3.333870411 1.542582989 0.06342025101
-3.822319269 1.770208478 0.218556121
-4.16720295 1.930815697 0.3981020451
