# .PCD v0.7 - Point Cloud Data file format
VERSION 0.7
FIELDS x y z
SIZE 4 4 4
TYPE F F F
COUNT 1 1 1
WIDTH 1170
HEIGHT 1
VIEWPOINT 0 0 0 1 0 0 0
POINTS 1170
DATA ascii
-0.7645113468 -0.579664886 0.1126638055
-0.7565772533 -0.5732336044 0.1436583698
-0.7806185484 -0.5912342072 0.1820945889
-0.7755687833 -0.5869839191 0.2145998776
-0.7742596865 -0.5855682492 0.2485183477
-0.7641789317 -0.5764777064 -0.2448948622
-0.7673575282 -0.5784554482 -0.2119004577
-0.7851966023 -0.5916882157 -0.1828578115
-0.7851012945 -0.5911864638 -0.1489771307
-0.7967684865 -0.5995365381 -0.117294848
-0.7931926847 -0.5966289043 -0.08312119544
-0.7999632955 -0.601284802 -0.05024364963
-0.7962699533 -0.5980738997 -0.01668270491
-0.8015066981 -0.6044174433 0.0168223232
-0.7784920335 -0.5866358876 0.04888291284
-0.7959586382 -0.5995801687 0.08346981555
-0.7697019577 -0.5793805122 0.1131512895
-0.7743601799 -0.5824633241 0.1467870474
-0.7920923829 -0.5955851674 0.1843842864
-0.777613163 -0.5842729211 0.2145998776
-0.7871130109 -0.5909813643 0.2521418035
-0.7677328587 -0.5749647617 -0.2454124987
-0.784974277 -0.587449491 -0.2163994908
-0.7872572541 -0.5889437199 -0.1828578115
-0.7934886813 -0.5931735635 -0.1502286196
-0.8052178025 -0.6015036702 -0.1182698086
-0.796866715 -0.5950487256 -0.08329550922
-0.8100610971 -0.6044607759 -0.05076700822
-0.7903373241 -0.5893141031 -0.01650818065
-0.8036116362 -0.6016159654 0.0168223232
-0.788531363 -0.5898968577 0.04940627143
-0.7996423244 -0.5979913473 0.08364413679
-0.7892113328 -0.5897613764 0.1158324108
-0.7621435523 -0.5691196918 0.1439712346
-0.8020330071 -0.5986885428 0.1862923801
-0.7890200019 -0.5885460973 0.2172992826
-0.7845245004 -0.5847664475 0.2505888641
-0.7681848407 -0.5711286664 -0.2448948622
-0.7901485562 -0.5870301127 -0.2172992826
-0.7924605608 -0.5885331631 -0.1836210638
-0.7987269759 -0.5927545428 -0.1508543491
-0.8105015159 -0.6010541916 -0.1187572777
-0.7925367951 -0.5875174999 -0.08259826154
-0.8121659756 -0.6016296744 -0.05076700822
-0.8004258871 -0.5925003886 -0.01668270491
-0.8041017056 -0.5976145864 0.0167874191
-0.8034132123 -0.5966673493 0.05024364963
-0.798525393 -0.5928211212 0.08329550922
-0.7896709442 -0.5858201385 0.1155886799
-0.7847551703 -0.5817488432 0.1480385363
-0.7993858457 -0.5923785567 0.1851475388
-0.7910696268 -0.5857883096 0.2172992826
-0.7881138921 -0.5831737518 0.2511065304
-0.7857170105 -0.57991606 -0.2500712276
-0.7968979478 -0.5877384543 -0.2186489999
-0.8071516752 -0.5950838327 -0.1866740137
-0.7944296598 -0.5852761865 -0.1496028751
-0.8253836036 -0.6076363325 -0.1207071841
-0.8042109609 -0.5918329358 -0.08364413679
-0.8174791336 -0.6011574268 -0.0509763509
-0.8186033964 -0.6015437841 -0.01703175157
-0.8110103607 -0.5983654261 0.01689213328
-0.8167439699 -0.6021558642 0.0509763509
-0.8070053458 -0.5947582722 0.0839927569
-0.7933092713 -0.5842373967 0.1158324108
-0.7788261175 -0.5731517076 0.1464741826
-0.7967044711 -0.586094439 0.1840026677
-0.8056707382 -0.5922572017 0.220898509
-0.801043272 -0.5884248614 0.2547299862
-0.7970867157 -0.5840203166 -0.2531770766
-0.7973721623 -0.5838021636 -0.2181991041
-0.8155611157 -0.5969004631 -0.1882004589
-0.8060343862 -0.5894962549 -0.1514800787
-0.8242942095 -0.602408886 -0.1202197075
-0.8110982776 -0.5925481915 -0.08416706324
-0.8163463473 -0.5959450006 -0.05076700822
-0.8239291906 -0.6010398269 -0.01710156351
-0.8147073984 -0.5967124104 0.01692703739
-0.8123942614 -0.5945826173 0.0505576618
-0.8187243938 -0.5989961624 0.08503861725
-0.7969464064 -0.5826360583 0.116076149
-0.8111281991 -0.5925700665 0.1524187028
-0.8161857128 -0.5960461497 0.1882004589
-0.8077331185 -0.5894414783 0.220898509
-0.8062142134 -0.5879015923 0.2557652891
-0.7975581288 -0.580098033 -0.25265944
-0.8041341901 -0.5844523311 -0.2195487916
-0.8144632578 -0.5917420983 -0.1874372363
-0.8144815564 -0.5913211107 -0.1527315676
-0.8263918161 -0.5995280743 -0.1202197075
-0.8276779056 -0.6002402902 -0.08573586494
-0.8265076876 -0.5989518762 -0.0512903668
-0.8227828145 -0.5958143473 -0.01703175157
-0.8345764279 -0.6068006754 0.01731099188
-0.8112332225 -0.5893952847 0.05034831911
-0.8337069154 -0.6055014133 0.08643311262
-0.7989753485 -0.5798505545 0.116076149
-0.7876058817 -0.5711796284 0.1474127918
-0.8198509216 -0.5943458676 0.1885820925
-0.8082077503 -0.5854749084 0.2204486132
-0.8176506758 -0.5918806791 0.2588711083
-0.8043781519 -0.5805628896 -0.2542123497
-0.8157542944 -0.5883406997 -0.2222482264
-0.8134413958 -0.5864568353 -0.1866740137
-0.8326708674 -0.5998788476 -0.1558602601
-0.8350279927 -0.6011341214 -0.1211946607
-0.829872191 -0.5972028375 -0.08573586494
-0.8449129462 -0.607578814 -0.05233708769
-0.829728663 -0.5964404345 -0.01713646762
-0.8465250134 -0.6107575893 0.01752042025
-0.8230049014 -0.593569994 0.0509763509
-0.832687974 -0.6001116633 0.0860844925
-0.807538569 -0.5815588832 0.1170511171
-0.7976105809 -0.5741974115 0.1489771307
-0.8331798911 -0.5993621945 0.1912534088
-0.811930418 -0.5836463571 0.220898509
-0.8212806582 -0.5901499987 0.259388715
-0.8016886115 -0.5743761659 -0.25265944
-0.830375433 -0.5947098136 -0.2258474231
-0.8250629306 -0.5904690623 -0.1889637113
-0.8314423561 -0.5948155522 -0.1552345157
-0.8499359488 -0.6075972319 -0.1231445819
-0.8222244382 -0.5873537064 -0.08469000459
-0.8534246683 -0.6094162464 -0.05275577307
-0.8334333897 -0.5947020054 -0.01717137173
-0.8452944756 -0.6056179404 0.01745061018
-0.8429355621 -0.6034827232 0.052127745
-0.834777534 -0.5972015262 0.0860844925
-0.8256095052 -0.5904249549 0.1194885001
-0.8044314981 -0.5748554468 0.1499157399
-0.8351626992 -0.5965961218 0.1912534088
-0.8249642849 -0.5888757706 0.2240478396
-0.8091809154 -0.5771831274 0.2547299862
-0.8114594817 -0.5773140192 -0.2552476227
-0.8324463367 -0.5918076038 -0.2258474231
-0.8366180062 -0.5945535898 -0.1912534088
-0.8335136175 -0.591909647 -0.1552345157
-0.85528934 -0.6069244146 -0.1236320436
-0.8371681571 -0.5938457251 -0.0860844925
-0.8522878289 -0.6041235328 -0.05254642665
-0.8484538794 -0.6011837721 -0.01745061018
-0.8474034071 -0.6026635766 0.01745061018
-0.8514434099 -0.6053131223 0.05254642665
-0.8497474194 -0.6036610007 0.08747898042
-0.8292841911 -0.5886884928 0.1197322309
-0.8192212582 -0.581330061 0.1524187028
-0.8404433727 -0.5959483385 0.1920166612
-0.8381450176 -0.5938792825 0.2271971405
-0.8252786994 -0.5845460892 0.259388715
-0.8260940313 -0.5833932757 -0.259388715
-0.8264442086 -0.583424449 -0.223597914
-0.8515224457 -0.6006830931 -0.1943063587
-0.8419293761 -0.593695879 -0.1564859897
-0.8572974801 -0.6040846109 -0.1236320436
-0.8522685766 -0.6000963449 -0.08747898042
-0.8493867517 -0.5978451967 -0.05223241448
-0.8603611588 -0.6051208973 -0.01766003855
-0.8591979146 -0.6067714691 0.01766003855
-0.851919353 -0.601185739 0.05244175717
-0.8518493772 -0.6006910801 0.08747898042
-0.8198741674 -0.5779291987 0.1180260554
-0.8277054429 -0.5830170512 0.1536701769
-0.8488358259 -0.5976792574 0.1935431212
-0.8337346911 -0.5866111517 0.2253975272
-0.8352158666 -0.5872172713 0.2619769275
-0.831187427 -0.5828691721 -0.2604240179
-0.8348594904 -0.5850093365 -0.2253975272
-0.8470776081 -0.5933507681 -0.1927798837
-0.8601799607 -0.602080822 -0.1596146822
-0.8642808795 -0.6045018435 -0.1243632734
-0.8607853055 -0.6018332839 -0.08817622811
-0.8711154461 -0.6086031795 -0.05348847434
-0.8608287573 -0.6009691358 -0.01762513444
-0.8645855784 -0.6060642004 0.01772984862
-0.8507409096 -0.5959168077 0.05223241448
-0.8636292219 -0.6047196984 0.08852485567
-0.8365251422 -0.5853058696 0.1202197075
-0.8264977336 -0.5778605342 0.1530444473
-0.8541354537 -0.5969617367 0.1943063587
-0.8357772827 -0.5836972594 0.2253975272
-0.8546869159 -0.596459806 0.2676709592
-0.8363882303 -0.5821713209 -0.261459291
-0.8448953629 -0.5876553655 -0.2276470363
-0.8523675799 -0.5926315784 -0.1935431212
-0.8655208349 -0.601328969 -0.1602404267
-0.8729083538 -0.6060096025 -0.1253382266
-0.8612439036 -0.5976891518 -0.08800191432
-0.8765170574 -0.6078350544 -0.05369782075
-0.8678519726 -0.6013776064 -0.01772984862
-0.8732617497 -0.6076110005 0.01786946692
-0.8626550436 -0.5997841954 0.05286044627
-0.8690068722 -0.6039755344 0.08887347579
-0.856498003 -0.5948383808 0.1229008436
-0.8317553401 -0.5772246122 0.1536701769
-0.8787974119 -0.6096435189 0.199649021
-0.8538254499 -0.5918782353 0.2298965454
-0.8535875678 -0.5912725925 0.2666356564
-0.8431835771 -0.5825425386 -0.2630122006
-0.8581674695 -0.5924525261 -0.230796352
-0.8641260862 -0.5963432789 -0.1958328336
-0.8708670735 -0.6005465984 -0.1608661562
-0.8880950212 -0.6119699478 -0.1272881329
-0.8649659157 -0.5958092213 -0.08817622811
-0.8983758688 -0.618360579 -0.05495388061
-0.8781840205 -0.6040106416 -0.01790437289
-0.8786681294 -0.6068320274 0.01793927886
-0.8746063113 -0.6035757661 0.05348847434
-0.8743897676 -0.6032013297 0.08922210336
-0.8667411804 -0.5974782705 0.1241195351
-0.8500331044 -0.5855231881 0.1567988545
-0.8776860833 -0.6043453217 0.1988857836
-0.8703350425 -0.5988360047 0.2339456528
-0.8620138764 -0.5926673412 0.2687062025
-0.8515846729 -0.5839660168 -0.2650827765
-0.8618379831 -0.5905546546 -0.2312462479
-0.8759206533 -0.5999801755 -0.1981225461
-0.8696979284 -0.595271647 -0.1602404267
-0.8967798352 -0.6133488417 -0.128263101
-0.8769088387 -0.5995332599 -0.08922210336
-0.8955815434 -0.6118409038 -0.05463986844
-0.8901963234 -0.6077062488 -0.01811380126
-0.874183476 -0.5992386341 0.0177996587
-0.8898898959 -0.6095487475 0.05432585254
-0.8830657601 -0.604647994 0.08991934359
-0.8655448556 -0.5922071338 0.1236320436
-0.8585945964 -0.5870119929 0.1580503434
-0.8830320835 -0.6034934521 0.199649021
-0.8788571954 -0.6001902819 0.2357452661
-0.8672689795 -0.5918326378 0.2697415054
-0.8632001281 -0.5875117183 -0.2681885958
-0.8638940454 -0.5875428319 -0.2312462479
-0.8942453265 -0.6079568863 -0.2019387186
-0.8848424554 -0.6011124253 -0.1627433747
-0.8989155293 -0.6102145314 -0.128263101
-0.8822936416 -0.5987060666 -0.08957072347
-0.8910995126 -0.6042274237 -0.05422117934
-0.8956230283 -0.6068387628 -0.01818361133
-0.879576683 -0.5984330177 0.01786946692
-0.8920122385 -0.6064386964 0.05432585254
-0.8917625546 -0.6060410738 0.09061658382
-0.8659644127 -0.5880672336 0.1233883053
-0.8671767712 -0.5884481072 0.1593018174
-0.8948814869 -0.6070201397 0.2019387186
-0.8873993158 -0.6014924049 0.2375448793
-0.8821254373 -0.5974683762 0.2738825977
-0.8700482249 -0.5877391696 -0.2697415054
-0.8724004626 -0.5888848305 -0.2330458611
-0.8898524046 -0.6004391313 -0.2004122436
-0.893486619 -0.6024376154 -0.1639948487
-0.9010401368 -0.6070729494 -0.128263101
-0.9075135589 -0.611204505 -0.09201107919
-0.9064590335 -0.6100341678 -0.05505855754
-0.9043735266 -0.6081721187 -0.01832322963
-0.8949179053 -0.6043119431 0.01814870723
-0.8875012398 -0.598852694 0.05390716344
-0.9037832618 -0.6096094251 0.09166246653
-0.8811808825 -0.5939164758 0.1253382266
-0.8725022674 -0.5876246095 0.159927547
-0.9035093784 -0.6082781553 0.2034651935
-0.8846426606 -0.5951280594 0.2361951619
-0.8970318437 -0.6030076742 0.2780237198
-0.8720946312 -0.584698379 -0.2697415054
-0.8841646314 -0.5923438072 -0.2357452661
-0.895205617 -0.5995140672 -0.201175496
-0.9087176919 -0.6081039906 -0.1664978117
-0.9097541571 -0.6083378792 -0.1292380393
-0.8997030854 -0.6013897061 -0.09096521884
-0.9235304594 -0.6168504357 -0.05600060523
-0.9031644464 -0.602791369 -0.01825342141
-0.9053277373 -0.6067508459 0.01832322963
-0.90286237 -0.6046417356 0.05474454165
-0.9092168808 -0.6086677909 0.09201107919
-0.8947984576 -0.5985630155 0.1270444095
-0.8729058504 -0.5834776163 0.1596146822
-0.9056271315 -0.6051206589 0.2034651935
-0.8931976557 -0.5963646173 0.2379947752
-0.8959171176 -0.59772861 0.2769884467
-0.8757385015 -0.5827209353 -0.2702591419
-0.8959634304 -0.5957279801 -0.238444671
-0.9071029425 -0.6029060483 -0.2034651935
-0.907543838 -0.6027421951 -0.1658720523
-0.9251040816 -0.6139398813 -0.1311879456
-0.9051175117 -0.600448072 -0.09131383151
-0.9256780744 -0.6136229634 -0.05600060523
-0.9069300294 -0.6007394791 -0.01828832552
-0.9174301028 -0.6102318168 0.018532658
-0.9082940221 -0.6036977172 0.05495388061
-0.9113360047 -0.6054903269 0.09201107919
-0.9051513672 -0.6009258628 0.128263101
-0.8848139644 -0.5869789124 0.1614918858
-0.9142785072 -0.6062959433 0.2049916685
-0.9082696438 -0.6018545628 0.2415940166
-0.8979981542 -0.5945976377 0.2769884467
-0.8826033473 -0.5828541517 -0.2718120217
-0.8931580782 -0.589376688 -0.2370949835
-0.9157573581 -0.6040600538 -0.2049916685
-0.9129408598 -0.601745069 -0.1664978117
-0.9371884465 -0.6172581911 -0.1326503754
-0.915528357 -0.6027632356 -0.09218539298
-0.9328201413 -0.6136807799 -0.0563146174
-0.9240602851 -0.6074561477 -0.01860246994
-0.9228923321 -0.609229207 0.01860246994
-0.9270680547 -0.611520946 0.05600060523
-0.9200974107 -0.606692493 0.09270832688
-0.9138739109 -0.6021313071 0.1292380393
-0.9000566602 -0.5925769806 0.1639948487
-0.9131094813 -0.6009422541 0.2042284459
-0.9201340675 -0.6051051617 0.2442934215
-0.9129841328 -0.5999464393 0.281129539
-0.9024059176 -0.5914183259 -0.2775060833
-0.8968402147 -0.58732301 -0.2375448793
-0.9277158976 -0.6073116064 -0.207281366
-0.9216483831 -0.6028800607 -0.1677492857
-0.9393373728 -0.6139830351 -0.1326503754
-0.9242985845 -0.6039229035 -0.09288264066
-0.934956491 -0.6104210615 -0.0563146174
-0.939573586 -0.6129679084 -0.01888170838
-0.9266861677 -0.6070996523 0.01863737404
-0.9325390458 -0.6104689837 0.05620994791
-0.935546875 -0.6122047901 0.09410282224
-0.9076629877 -0.5935056806 0.1280193478
-0.9037733078 -0.5905119777 0.1643077135
-0.9250638485 -0.6041926146 0.2065181434
-0.9189768434 -0.5997594595 0.2433936298
-0.9280180335 -0.6051982641 0.2852706313
-0.9141815901 -0.594584465 -0.2806119025
-0.9086887836 -0.5905603766 -0.2402442843
-0.9298300147 -0.6040697098 -0.207281366
-0.9370020628 -0.6082637906 -0.1702522188
-0.9446988106 -0.6130259037 -0.1331378669
-0.943118155 -0.6115324497 -0.09462574869
-0.9471386671 -0.6136699319 -0.05694264546
-0.933209002 -0.6044133902 -0.01870718412
-0.9422118068 -0.6125810742 0.01891661249
-0.9312090278 -0.6051964164 0.05600060523
-0.947703898 -0.6154461503 0.09514869004
-0.9197205901 -0.596817255 0.1294817924
-0.9123556614 -0.5918117166 0.1655591875
-0.943641901 -0.6116381288 0.2103343159
-0.9209607244 -0.596708715 0.2433936298
-0.9429929852 -0.6105166674 0.2894117534
-0.9145253301 -0.5905016661 -0.2800942659
-0.9171921611 -0.5917698145 -0.2420439124
-0.9351278543 -0.6031110883 -0.2080446184
-0.9456558228 -0.6094335318 -0.1715036929
-0.9534015656 -0.6141901612 -0.13411282
-0.9417903423 -0.6062447429 -0.09427713603
-0.9592471719 -0.6170085669 -0.0575706847
-0.9402542114 -0.6045598984 -0.01881189831
-0.9576790929 -0.6181286573 0.01919585094
-0.9432804585 -0.6086018682 0.05662863702
-0.949739635 -0.6122999787 0.09514869004
-0.9333760142 -0.6012895107 0.1311879456
-0.9093306661 -0.5855744481 0.1646205932
-0.9522687793 -0.6127551198 0.2118607908
-0.9360461831 -0.6020851731 0.2469928265
-0.9417621493 -0.6052971482 0.2883764505
-0.9132256508 -0.5853806734 -0.2790589631
-0.9339184165 -0.5981846452 -0.2460930347
-0.9470431209 -0.6063584089 -0.2103343159
-0.9476715922 -0.6062942147 -0.1715036929
-0.9722651243 -0.6215503216 -0.136550203
-0.9405424595 -0.6008086205 -0.09392850101
-0.971388042 -0.6202734113 -0.05819871277
-0.9541591406 -0.6088036299 -0.01905623265
-0.9597234726 -0.6149496436 0.01919585094
-0.9588552117 -0.6139212847 0.05746601149
-0.9517647624 -0.6091473699 0.09514869004
-0.9470713139 -0.6056776047 0.1328941286
-0.9263500571 -0.5919699669 0.1674364209
-0.9542955756 -0.6095939279 0.2118607908
-0.9512832165 -0.6072019339 0.2505920529
-0.9406118393 -0.5999284387 0.2873412073
-0.9349278212 -0.5944681168 -0.2852706313
-0.9376453161 -0.5959665179 -0.2465429306
-0.9608601928 -0.6102508307 -0.2130056471
-0.9465515614 -0.6007000804 -0.1708779633
-0.9811338782 -0.6224061847 -0.1375251561
-0.9560962915 -0.6060554385 -0.09532299638
-0.9669056535 -0.612434268 -0.05778002366
-0.9664157033 -0.6118873358 -0.01926566102
-0.9534268975 -0.6062306762 0.01902132668
-0.9677354097 -0.6148546934 0.05788469315
-0.9640833139 -0.6120620966 0.09619455785
-0.9525318742 -0.6044952869 0.1333816051
-0.9367519021 -0.5940224528 0.1690007597
-0.9598401785 -0.6081935167 0.2126240134
-0.9666740298 -0.6120508909 0.2541912496
-0.9557593465 -0.604906559 0.2914822996
-0.945166111 -0.5963554978 -0.287858814
-0.94312042 -0.5946042538 -0.2474427521
-0.9729499221 -0.6131738424 -0.2152953595
-0.9620152712 -0.6058132052 -0.1733809263
-0.9834083319 -0.6188061833 -0.1375251561
-0.9716981649 -0.6112005711 -0.09671749175
-0.9724196196 -0.6111810803 -0.05798937008
-0.9820916057 -0.6170207262 -0.01954489946
-0.972556293 -0.6134001017 0.0193703752
-0.9698759317 -0.6114726663 0.05788469315
-0.9830714464 -0.619312942 0.09793766588
-0.9513812065 -0.5988849998 0.1328941286
-0.9488511086 -0.5970611572 0.1708779633
-0.9735915065 -0.6121546626 0.2152953595
-0.9688045979 -0.6086728573 0.2541912496
-0.9676807523 -0.6077315211 0.2945881188
-0.9636161923 -0.6033041477 -0.2930352092
-0.9483906627 -0.5935413241 -0.2483425438
-0.9650969505 -0.603528142 -0.2130056471
-0.9707189202 -0.6068082452 -0.1746324003
-0.9854550362 -0.6155416369 -0.1375251561
-0.9839667678 -0.6141347289 -0.09776335955
-0.9846080542 -0.6142962575 -0.05861740187
-0.9808453918 -0.6114732027 -0.01947508939
-0.9847545624 -0.6165385246 0.01957980357
-0.9686179757 -0.6059651375 0.05767535418
-0.9886061549 -0.6179897785 0.0982863009
-0.9617792368 -0.6009864807 0.13411282
-0.9475783706 -0.5916526914 0.1702522188
-0.982278049 -0.61308074 0.2168218344
-0.9642036557 -0.60133183 0.2523916364
-0.9829126 -0.6125237346 0.2987292409
-0.9688930511 -0.6021447778 -0.2940704823
-0.968667388 -0.6015358567 -0.2532914579
-0.9704290628 -0.6023952365 -0.2137688845
-0.9862605333 -0.6117457747 -0.1771353483
-0.9960341454 -0.6173267961 -0.1387438476
-0.9826107025 -0.608769834 -0.09741473943
-0.9935391545 -0.6150606871 -0.05903609097
-0.9863752127 -0.6101495624 -0.01954489946
-0.9919965267 -0.616263032 0.01968451962
-0.9809086323 -0.6089004278 0.05830338225
-0.9974219799 -0.618909955 0.09898354113
-0.9739938378 -0.6039018631 0.1355752498
-0.9563546777 -0.5925030708 0.1715036929
-0.9960957766 -0.6168838143 0.2194931507
-0.9795536399 -0.6061663032 0.2559908628
-0.9883311391 -0.6111207008 0.299764514
-0.9578343034 -0.5906471014 -0.28992939
-0.9840337634 -0.6063289642 -0.2568906546
-0.985898912 -0.6072409153 -0.2168218344
-0.9917545915 -0.6103701591 -0.1777610928
-1.020165205 -0.6273644567 -0.1419124603
-0.9847297072 -0.6053361297 -0.09741473943
-1.004189372 -0.616815567 -0.05955944955
-0.9953162074 -0.6108868718 -0.01968451962
-0.9958437085 -0.613846004 0.01971942373
-0.9932316542 -0.611757338 0.05893141776
-0.9927896857 -0.6112464666 0.0982863009
-0.9913127422 -0.609859705 0.1377688944
-0.9651484489 -0.5932990909 0.1727551818
-0.9982430339 -0.6134030223 0.2194931507
-0.9949491024 -0.6109007001 0.2595900893
-0.9888117313 -0.6066567898 0.2992468774
-0.9730731249 -0.5953661799 -0.2940704823
-0.9828190804 -0.6008574367 -0.2559908628
-1.001413941 -0.6119859219 -0.2198747545
-0.9938790798 -0.6069045067 -0.1777610928
-1.029127121 -0.6279354095 -0.1428874135
-1.003846288 -0.6122695804 -0.09915785491
-1.009747267 -0.6153852344 -0.05976878852
-1.009398103 -0.6146891117 -0.0199288521
-1.003098369 -0.6134959459 0.01982413605
-1.012403011 -0.6187015772 0.05997813866
-1.00851953 -0.616086185 0.09968078882
-0.9917410612 -0.6053617001 0.1375251561
-0.9823915958 -0.5991837978 0.1755709946
-1.007083058 -0.6140030026 0.2210196257
-1.010389328 -0.6155347228 0.263189286
-0.9991739392 -0.6082241535 0.3018350601
-0.9949620366 -0.6039955616 -0.3002821207
-0.9932411909 -0.6024766564 -0.2582403719
-1.01361692 -0.6145937443 -0.2221644819
-1.006128311 -0.6095733047 -0.1796382964
-1.027916431 -0.6222831011 -0.1423999369
-1.019613981 -0.6170141697 -0.1005523503
-1.015307546 -0.6139237285 -0.05997813866
-1.030364752 -0.6225373149 -0.02031280659
-1.017200708 -0.6172524691 0.02006847039
-1.01797235 -0.6172346473 0.06018747762
-1.024294734 -0.6208236217 0.1010752767
-0.9904522896 -0.5998392105 0.1370376796
-1.001377225 -0.6059783101 0.1786996871
-1.019299388 -0.6165804267 0.2233093232
-1.009196162 -0.6099882126 0.2622894943
-1.014520288 -0.6127225757 0.3059761822
-1.003789425 -0.6043305397 -0.3023526967
-1.003792167 -0.6038546562 -0.260489881
-1.022592425 -0.6149217486 -0.2236909568
-1.018515229 -0.6119856238 -0.1815155149
-1.036998034 -0.6225986481 -0.1433748901
-1.032118797 -0.6194242239 -0.1015982181
-1.031253934 -0.6184156537 -0.06081551686
-1.03767693 -0.6220211387 -0.02041751891
-1.029736161 -0.6197069287 0.02027789876
-1.023543596 -0.6157366037 0.06039682403
-1.040224195 -0.625277102 0.1024697721
-1.006257892 -0.6043819785 0.1389875859
-1.008567452 -0.6055293083 0.1796382964
-1.031653523 -0.6189004183 0.2255990505
-1.021453977 -0.6122965217 0.2649888992
-1.036538482 -0.6210928559 0.3121878207
-1.009209871 -0.6028042436 -0.3033879697
-1.010808825 -0.6035196781 -0.2618395984
-1.024732709 -0.6113484502 -0.2236909568
-1.034111857 -0.6166989207 -0.1840184629
-1.049288392 -0.6252534986 -0.1448373199
-1.034274578 -0.6158179045 -0.1015982181
-1.052177906 -0.6262289882 -0.06196689978
-1.038123131 -0.6173730493 -0.02038261481
-1.042086244 -0.622441411 0.02048732899
-1.032546759 -0.6162545681 0.06081551686
-1.049245477 -0.6257238984 0.1031670198
-1.021897554 -0.6091734171 0.1409375072
-1.003886461 -0.5979614854 0.1783868223
-1.047195196 -0.6235110164 0.2286519706
-1.033527374 -0.6148841381 0.267688334
-1.032057762 -0.6135222316 0.3101172447
-1.014526844 -0.6014244556 -0.3044232428
-1.039735794 -0.6158784032 -0.2690380216
-1.040269017 -0.6159489155 -0.2267438769
-1.043058634 -0.6171090603 -0.1852699369
-1.061717868 -0.6276479363 -0.1462997645
-1.036417842 -0.6122038364 -0.1015982181
-1.062956691 -0.6276295185 -0.06249026582
-1.050605416 -0.6198424697 -0.02059204318
-1.044252634 -0.6188000441 0.02048732899
-1.051877499 -0.6228223443 0.06186223403
-1.054743648 -0.6242708564 0.1035156399
-1.037687063 -0.6136866212 0.1428874135
-1.017871976 -0.6014885902 0.1805769056
-1.056126833 -0.6238457561 0.2301784456
-1.04573679 -0.6172158122 0.2703877389
-1.037521243 -0.6118786335 0.3111525476
-1.030047536 -0.6055343151 -0.3085643649
-1.033478737 -0.6073086858 -0.2667885125
-1.052677631 -0.6180964708 -0.2290336043
-1.041905761 -0.6112826467 -0.1846441925
-1.074176431 -0.6299633384 -0.1477621794
-1.048862457 -0.6146261692 -0.1026440784
-1.068696856 -0.6257479787 -0.0626996085
-1.064843655 -0.6232419014 -0.02083637752
-1.049853921 -0.6171779037 0.02055713907
-1.060933709 -0.6231931448 0.0622809194
-1.067334414 -0.6264519691 0.1045615152
-1.034686327 -0.6070469618 0.1421561986
-1.033598423 -0.6059238911 0.1830798537
-1.058406353 -0.6199703813 0.2301784456
-1.058083057 -0.6192849874 0.2730871439
-1.049655318 -0.6141064763 0.3142583668
-1.042167902 -0.6077743173 -0.3116701841
-1.040748954 -0.6064601541 -0.2681382298
-1.071793199 -0.6242995858 -0.2328497916
-1.057691455 -0.61559093 -0.1871471554
-1.079800248 -0.6282066107 -0.148249656
-1.068226695 -0.6209740639 -0.1043871939
-1.070874572 -0.6220136285 -0.0626996085
-1.079118013 -0.6265496612 -0.02108070999
-1.069384813 -0.6233967543 0.02090618573
-1.063102603 -0.6194859743 0.0622809194
-1.083288908 -0.6307424903 0.1059559956
-1.043767691 -0.6072435975 0.1431311518
-1.049368143 -0.6102567315 0.1855828017
-1.074143767 -0.62416327 0.2332313955
-1.066871166 -0.6196882129 0.2748867571
-1.061817408 -0.6162573099 0.317364186
-1.059225798 -0.613024056 -0.316328913
-1.051189065 -0.607883513 -0.2703877389
-1.077257037 -0.6227069497 -0.2336130142
-1.073411345 -0.6199845672 -0.1896501034
-1.085315824 -0.6266074777 -0.1487371475
-1.084086537 -0.6253929138 -0.1057816893
-1.083313704 -0.6244435906 -0.0633276403
-1.082922459 -0.6239659786 -0.0211156141
-1.081831694 -0.6258552074 0.0211156141
-1.06860888 -0.6179570556 0.06249026582
-1.099175572 -0.6351211071 0.107350491
-1.057809591 -0.6107267141 0.1448373199
-1.049675226 -0.6057861447 0.1852699369
-1.089813709 -0.6284437776 0.2362843454
-1.068920255 -0.6161469221 0.2748867571
-1.080595732 -0.622374475 0.3225405812
-1.056226969 -0.6066220403 -0.3147760034
-1.073481441 -0.6160336137 -0.2757865489
-1.075910091 -0.6171774268 -0.2328497916
-1.09945488 -0.630173862 -0.19403027
-1.097832084 -0.6287343502 -0.1501995772
-1.089612484 -0.6237748265 -0.1061303169
-1.095780611 -0.6267977953 -0.06395567209
-1.085093737 -0.6201822758 -0.0211156141
-1.094306588 -0.6282379627 0.02132504433
-1.091549158 -0.6261484623 0.06374633312
-1.108189344 -0.6354367733 0.1080477387
-1.077053308 -0.6170839071 0.1472747028
-1.058640718 -0.6060442924 0.1865214258
-1.102115631 -0.6306768656 0.2385740429
-1.087981701 -0.622084856 0.2793857753
-1.079406857 -0.6166821122 0.3215053082
-1.06001687 -0.6038874388 -0.3152936697
-1.087480426 -0.6190310121 -0.2789358795
-1.095121622 -0.6231272221 -0.2366659641
-1.094778895 -0.6224268675 -0.192778796
-1.113828421 -0.6327425838 -0.1521494836
-1.088318229 -0.6179995537 -0.1057816893
-1.111858845 -0.630853951 -0.06479305029
-1.106387496 -0.6272391677 -0.0214995686
-1.099968076 -0.6263936162 0.02139485441
-1.100671768 -0.626285255 0.06416501105
-1.110400558 -0.6315648556 0.1080477387
-1.093007565 -0.6211670637 0.1492246091
-1.076209664 -0.6111237407 0.1893372387
-1.106017709 -0.627794981 0.2389556617
-1.096927047 -0.6221287847 0.2811853886
-1.088275909 -0.6167203188 0.3235758543
-1.072209597 -0.6058862805 -0.3183994889
-1.086241007 -0.6133146882 -0.2780360878
-1.107657433 -0.6248974204 -0.2389556617
-1.103827596 -0.6224825382 -0.19403027
-1.129865646 -0.6366468668 -0.1540994048
-1.107937336 -0.6237812042 -0.1075247973
-1.121126652 -0.6306915879 -0.06521173567
-1.112056255 -0.6253336072 -0.02156937681
-1.105630279 -0.6245171428 0.02146466449
-1.116765976 -0.6302930713 0.06500238925
-1.119539618 -0.6316009164 0.1087449864
-1.089981437 -0.614423573 0.1484934092
-1.090384245 -0.6141492128 0.1915273219
-1.111733079 -0.6256630421 0.239718914
-1.122870088 -0.6316723824 0.28748402
-1.100526333 -0.6185972095 0.3266816735
-1.087906003 -0.6095062494 -0.3225405812
-1.095283031 -0.613137126 -0.2798356712
-1.127074838 -0.6304171085 -0.242771849
-1.10954988 -0.6203609109 -0.1946559995
-1.132191658 -0.6325011849 -0.1540994048
-1.124133945 -0.6274849176 -0.1089192927
-1.12343049 -0.6265784502 -0.06521173567
-1.137046576 -0.6339121461 -0.02202314138
-1.118380308 -0.6263228655 0.02167409286
-1.119068503 -0.6261956692 0.06500238925
-1.132280231 -0.6333286762 0.1097908542
-1.093958974 -0.6113929152 0.1487371475
-1.099526525 -0.6140012741 0.192778796
-1.124305606 -0.6273233891 0.2420086116
-1.118369937 -0.6237559319 0.2856844068
-1.116286278 -0.6220827699 0.3308227956
-1.110398293 -0.6167713404 -0.3287522197
-1.10774672 -0.6147922873 -0.2825351059
-1.129268408 -0.6264792681 -0.242771849
-1.132548809 -0.6277819276 -0.1984104365
-1.141337872 -0.6323937774 -0.1550743431
-1.13677597 -0.6293472052 -0.1099651605
-1.139592409 -0.6303869486 -0.06604910642
-1.139252543 -0.6299391985 -0.02202314138
-1.134654641 -0.6299854517 0.02195333131
-1.124740601 -0.6242237687 0.06521173567
-1.152017832 -0.6388369799 0.1115339622
-1.11529243 -0.6179624796 0.1514182687
-1.113759518 -0.6168590188 0.1949688792
-1.14366591 -0.6329013109 0.2458247989
-1.120540619 -0.6198480129 0.2856844068
-1.135358572 -0.6275277734 0.335999161
-1.112437606 -0.6130856872 -0.3287522197
-1.126849771 -0.6205154657 -0.2870341241
-1.138219357 -0.6265178323 -0.244298324
-1.146740675 -0.6306864619 -0.2006005347
-1.145168424 -0.6295617819 -0.1553180963
-1.138856769 -0.6255740523 -0.1099651605
-1.152181745 -0.632370472 -0.06667714566
-1.141335249 -0.6261578202 -0.02202314138
-1.143743634 -0.6300787926 0.02209295146
-1.140800714 -0.6281977296 0.06604910642
-1.157621264 -0.6369342208 0.1118825972
-1.129512429 -0.6209548116 0.1531244367
-1.11060524 -0.6103081703 0.19403027
-1.152642012 -0.63288486 0.2473512739
-1.136256576 -0.6236299872 0.2892836332
-1.145902634 -0.6284038424 0.3385873437
-1.114464521 -0.6093932986 -0.3287522197
-1.132321239 -0.6186444163 -0.2879339159
-1.150629163 -0.6283859015 -0.2465880364
-1.147091508 -0.6259342432 -0.2002876401
-1.16478765 -0.6350629926 -0.1577554792
-1.151421785 -0.6275146008 -0.1110110357
-1.178829312 -0.6419183016 -0.0681425482
-1.157566071 -0.6298158765 -0.02230237983
-1.14933598 -0.6282005906 0.02216275968
-1.157009482 -0.631870389 0.06688648462
-1.164973378 -0.6359556913 0.1124055237
-1.138536215 -0.6210080385 0.1540994048
-1.128339648 -0.6149350405 0.1968460977
-1.158182621 -0.6309374571 0.2481144816
-1.162389278 -0.6327027082 0.2955822647
-1.14808929 -0.6244000196 0.3385873437
-1.130170822 -0.6128666997 -0.3328933418
-1.1481812 -0.6221147776 -0.2915331423
-1.166626215 -0.6318454146 -0.2496409565
-1.156218648 -0.6256868839 -0.201539129
-1.182713151 -0.639490664 -0.1599491239
-1.158863187 -0.6263337135 -0.1115339622
-1.174033284 -0.6340034008 -0.06772386283
-1.17383635 -0.6333679557 -0.02258161828
-1.151521802 -0.6241848469 0.02216275968
-1.176770329 -0.6373394728 0.06793320179
-1.175946832 -0.6366280317 0.1132770777
-1.151173115 -0.6226967573 0.1555618197
-1.147857189 -0.6203852296 0.1999747753
-1.167287111 -0.6306234598 0.2496409565
-1.17487967 -0.6341955662 0.2982816696
-1.163864374 -0.6277247667 0.3427284658
-1.149317503 -0.6180676222 -0.3380697072
-1.146912575 -0.6162583232 -0.2906333506
-1.180931687 -0.6342718601 -0.2523123026
-1.175801516 -0.6309877634 -0.2046678066
-1.191936016 -0.6391105652 -0.160924077
-1.180469632 -0.6324319243 -0.1134513989
-1.179760575 -0.6317871213 -0.06793320179
-1.197198033 -0.6405875683 -0.02300047502
-1.171306968 -0.6296297312 0.0225118082
-1.175468922 -0.6313378215 0.06772386283
-1.192204952 -0.6400589943 0.114671573
-1.156838298 -0.6205512881 0.1560492963
-1.167426467 -0.6257062554 0.2031034678
-1.176403522 -0.6302534938 0.2511674464
-1.180522442 -0.6319299936 0.2991814911
-1.176269412 -0.6291251779 0.345834285
-1.161803842 -0.6193034053 -0.3411755264
-1.162815332 -0.619582057 -0.2942325473
-1.184981465 -0.6308618188 -0.2526939213
-1.188570261 -0.6322404742 -0.20654504
-1.192406893 -0.6340140104 -0.1606803238
-1.198505521 -0.6367205381 -0.1150202006
-1.199709535 -0.6368230581 -0.06897991896
-1.195893884 -0.634530127 -0.0229306668
-1.187615037 -0.6330621243 0.02279104665
-1.188242197 -0.6328644156 0.06835189462
-1.213890433 -0.6459805965 0.1165890023
-1.169512749 -0.6221031547 0.1575117409
-1.169603467 -0.6216273308 0.2031034678
-1.192577124 -0.6333038211 0.2542203963
-1.186273575 -0.6294256449 0.3000812829
-1.188698411 -0.6304463744 0.348940134
-1.167374492 -0.6170497537 -0.3422108293
-1.185756683 -0.6262367964 -0.299631387
-1.192384839 -0.6294712424 -0.2538387775
-1.208242178 -0.6373032928 -0.2096737176
-1.210416555 -0.6381801963 -0.1628739834
-1.20600915 -0.6353185773 -0.1155431271
-1.216064215 -0.6400737166 -0.06981729716
-1.201640964 -0.6322139502 -0.02300047502
-1.207607985 -0.6380470991 0.02314009517
-1.197508693 -0.632443428 0.06877057999
-1.209089398 -0.638020277 0.1158917546
-1.192856789 -0.6289220452 0.1604366004
-1.177008629 -0.6203041077 0.2040420771
-1.215626121 -0.640113771 0.2587998211
-1.198700786 -0.6309345365 0.3027806878
-1.204570413 -0.6334867477 0.3530812263
-1.179679751 -0.6185578108 -0.3453166485
-1.198183775 -0.6277275681 -0.302330792
-1.211857796 -0.6346213818 -0.2576549649
-1.210348725 -0.6332933903 -0.2096737176
-1.230116725 -0.6433627605 -0.1653113812
-1.20810926 -0.6313157678 -0.1155431271
-1.235884666 -0.6452814937 -0.07086401433
-1.221458793 -0.6374778152 -0.02334952354
-1.220344186 -0.6396088004 0.02334952354
-1.213752627 -0.6358840466 0.0696079582
-1.218259335 -0.6377032399 0.1165890023
-1.209008217 -0.6323227882 0.1623865068
-1.193063974 -0.6237190366 0.20654504
-1.228183031 -0.6415327787 0.2610895336
-1.221516013 -0.6377792954 0.3081795275
-1.206664443 -0.6294887662 0.3530812263
-1.192007661 -0.6199912429 -0.3484224677
-1.210633993 -0.6291425228 -0.3050302267
-1.224408865 -0.6360293031 -0.2599446774
-1.221208811 -0.6338261366 -0.2112380713
-1.253501534 -0.6500313282 -0.1682362407
-1.227884769 -0.636475265 -0.1172862425
-1.238017678 -0.6411795616 -0.07086401433
-1.241436601 -0.6424003839 -0.02369857207
-1.218910098 -0.633713603 0.02327971347
-1.233688951 -0.6408498883 0.07065467536
-1.238049626 -0.6428411603 0.1183321178
-1.228719115 -0.6374515891 0.1648238897
-1.20224905 -0.6231869459 0.207796514
-1.226817369 -0.6356500387 0.2603262961
-1.234118342 -0.6388869286 0.3108789325
-1.215717912 -0.6288232803 0.3551517725
-1.21476841 -0.6264519095 -0.354634136
-1.209358096 -0.6231275201 -0.3041304052
-1.251056671 -0.6443366408 -0.2652873099
-1.237465382 -0.6367902756 -0.2137410194
-1.262824655 -0.649282515 -0.1692111939
-1.247819781 -0.6412920952 -0.1190293655
-1.243801832 -0.6386787891 -0.07107336819
-1.261463284 -0.6471915245 -0.02404762059
-1.242444158 -0.6404497027 0.02369857207
-1.239469409 -0.6383687854 0.07086401433
-1.258000255 -0.6476350427 0.1200752333
-1.211518884 -0.6231709719 0.1621427685
-1.225500226 -0.6298214197 0.2115509361
-1.253476858 -0.6439233422 0.2656689286
-1.243276 -0.6381342411 0.3126785457
-1.238533497 -0.6351543069 0.3613634408
-1.225548148 -0.6266049147 -0.3572223186
-1.228879929 -0.6277675033 -0.3086294234
-1.253298163 -0.6399656534 -0.2652873099
-1.250238419 -0.6378532052 -0.2156182379
-1.261546254 -0.6430674791 -0.1687237173
-1.264252424 -0.6441689134 -0.1204238534
-1.263822556 -0.643394351 -0.07212008536
-1.270844221 -0.6464105248 -0.02418724075
-1.255355954 -0.6415688992 0.02390800044
-1.252362967 -0.639488101 0.07149205357
-1.267351747 -0.6468629241 0.120772481
-1.245518208 -0.6351711154 0.1665300727
-1.229451299 -0.6264368296 0.2118638009
-1.27321136 -0.6484538913 0.2694851458
-1.248969436 -0.6355583668 0.3135783672
-1.257963777 -0.6395822763 0.3665398061
-1.231174231 -0.6240699887 -0.3582576215
-1.241494894 -0.6287569404 -0.3113288581
-1.262530923 -0.6391337514 -0.2668137848
-1.273609996 -0.6441840529 -0.2193726599
-1.28150034 -0.647613287 -0.1711611003
-1.270050168 -0.6415486336 -0.120772481
-1.276758909 -0.6443781853 -0.0727481097
-1.269521832 -0.6401696801 -0.02411742881
-1.278993011 -0.648028791 0.02432685718
-1.265279174 -0.640525043 0.07212008536
-1.283823967 -0.6496315598 0.1221669763
-1.256585598 -0.6352977753 0.1677487642
-1.236919999 -0.6248133779 0.2128024101
-1.289487243 -0.6510846019 0.2725380659
-1.265099287 -0.6382166147 0.3171775639
-1.270539284 -0.6404043436 0.3696456254
-1.233345032 -0.619768858 -0.3582576215
-1.268063903 -0.6366608739 -0.3176274896
-1.28230083 -0.6435290575 -0.2706299722
-1.277616739 -0.6406198144 -0.2196855247
-1.301501393 -0.6520275474 -0.1735984832
-1.277626276 -0.6397876143 -0.1212954074
-1.300434589 -0.6506415606 -0.07400418073
-1.286058187 -0.6428871155 -0.02439666912
-1.28482151 -0.645355165 0.02439666912
-1.288928151 -0.6468549967 0.07337614894
-1.286083937 -0.6451461911 0.1221669763
-1.288964748 -0.6460287571 0.1718923151
-1.253223777 -0.6275678277 0.2153053731
-1.305797219 -0.6536092162 0.2755910158
-1.288234591 -0.6442565322 0.3225764036
-1.272766829 -0.6359657049 0.3696456254
-1.263167739 -0.6292420626 -0.3665398061
-1.270278454 -0.6322308779 -0.3176274896
-1.295086145 -0.6442955732 -0.2729196846
-1.283382773 -0.637914896 -0.2203112692
-1.321548581 -0.6563099623 -0.176035881
-1.301267028 -0.6459549665 -0.123387143
-1.309854865 -0.6496478915 -0.07442286611
-1.30979538 -0.6490488648 -0.024815524
-1.290646434 -0.6426489353 0.02446647733
-1.312636614 -0.6530268192 0.07463220507
-1.309735775 -0.6512985229 0.1242587119
-1.285878897 -0.6388753653 0.1711611003
-1.273100495 -0.6319729686 0.2184340507
-1.30455327 -0.6473021507 0.2748277783
-1.307934999 -0.6484117508 0.327075392
-1.292290449 -0.6400936246 0.3748220503
-1.284410596 -0.6342372894 -0.3722338378
-1.291701436 -0.6372771859 -0.3225764036
-1.314935088 -0.6484541297 -0.276735872
-1.299777508 -0.6404156685 -0.2228142172
-1.320269465 -0.6499397159 -0.1755484045
-1.314240098 -0.6466863155 -0.1244330108
-1.322868586 -0.6503589749 -0.0750508979
-1.330001831 -0.6532891393 -0.02516457438
-1.310813189 -0.6469907165 0.024815524
-1.32207334 -0.6519743204 0.0750508979
-1.32629776 -0.6537702084 0.1256531924
-1.307690263 -0.6440304518 0.1738422215
-1.29302299 -0.6362462044 0.2215627432
-1.320898414 -0.6496762633 0.2778806984
-1.317186594 -0.6472797394 0.3288750052
-1.315326214 -0.6457957029 0.3810336888
-1.303968072 -0.638243258 -0.377410233
-1.300920725 -0.6361885667 -0.3243759871
-1.324245691 -0.6473091841 -0.278262347
-1.323305249 -0.6462769508 -0.2265686542
-1.336802483 -0.6522912383 -0.1774982959
-1.334397078 -0.650828898 -0.1261761338
-1.339494228 -0.6527366638 -0.0758882761
-1.346657395 -0.6556453109 -0.02544381097
-1.331026316 -0.6511992812 0.02516457438
-1.327929616 -0.6491099 0.07526023686
-1.35005331 -0.6596324444 0.127744928
-1.30636251 -0.6377204657 0.1733547598
-1.314766049 -0.6412541866 0.2250042856
-1.333746433 -0.6502237916 0.2801704407
-1.326445937 -0.646091342 0.3306746185
-1.329731941 -0.6471177936 0.3846571743
-1.307926178 -0.6345308423 -0.3779278696
-1.320669413 -0.6401437521 -0.3288750052
-1.340631604 -0.6495307684 -0.2813152671
-1.339777112 -0.6485394239 -0.2290715873
-1.353367805 -0.6545348763 -0.1794482172
-1.354598522 -0.6548383832 -0.1279192567
-1.359749436 -0.6567430496 -0.07693499327
-1.345335841 -0.649202764 -0.02537400275
-1.347685575 -0.653529346 0.02544381097
-1.348161578 -0.6531789899 0.07630696148
-1.359520674 -0.6583890915 0.1284421831
-1.337171316 -0.6469900012 0.1772545725
-1.311661124 -0.6340816617 0.2240656912
-1.360755801 -0.65752244 0.2855130732
-1.349752188 -0.6516240239 0.3360734284
-1.338942766 -0.64582932 0.3867276907
-1.313615084 -0.6316357255 -0.3789631426
-1.333435178 -0.6405929923 -0.3315744102
-1.357049108 -0.6516457796 -0.284368217
-1.352718949 -0.6489856243 -0.2309488207
-1.377125263 -0.6601032615 -0.1823730916
-1.356876016 -0.6501062512 -0.1279192567
-1.37284255 -0.6571667194 -0.07756302506
-1.362025976 -0.6514046192 -0.0256532412
-1.353563428 -0.6505535245 0.02551362291
-1.364836812 -0.6553854346 0.07714433223
-1.365402818 -0.6553640366 0.1287908107
-1.362690568 -0.6534770727 0.1804231703
-1.337025404 -0.6405954361 0.228132993
-1.363042951 -0.6527681351 0.2855130732
-1.369597197 -0.6553198695 0.3405724764
-1.348160744 -0.6444844007 0.3887982368
-1.340227246 -0.638681829 -0.3862100542
-1.346220136 -0.6409608722 -0.334273845
-1.377043009 -0.6553410292 -0.2881844044
-1.36567986 -0.649349153 -0.2328260243
-1.38838613 -0.6595513821 -0.183591783
-1.380734444 -0.655621171 -0.1300109774
-1.389563918 -0.6592194438 -0.07840039581
-1.391396403 -0.6594934464 -0.02617681399
-1.372074127 -0.6535642147 0.02582776546
-1.381543994 -0.6574830413 0.07798171043
-1.389272451 -0.660864234 0.1308825463
-1.364963412 -0.6487160325 0.1804231703
-1.357097507 -0.6443974972 0.2312616855
-1.375954866 -0.6530569792 0.2878027856
-1.380680442 -0.6547098756 0.3428219855
-1.371352077 -0.6497002244 0.3950099051
-1.370398045 -0.6471990347 -0.3944922984
-1.359023571 -0.6412475109 -0.3369732499
-1.397078753 -0.6589052081 -0.2920005918
-1.385807395 -0.6529984474 -0.2359547168
-1.401456118 -0.6597741246 -0.1850542128
-1.397436976 -0.6575837135 -0.1314054728
-1.395471573 -0.6560643911 -0.07860974222
-1.415409446 -0.664834857 -0.02659567259
-1.387005448 -0.6547461748 0.02607209794
-1.394668937 -0.6577686667 0.07860974222
-1.409592867 -0.664506495 0.1326256692
-1.374403 -0.6473311782 0.1813981235
-1.37542522 -0.6472257376 0.2340774983
-1.392438412 -0.6549351215 0.2908557355
-1.390012383 -0.653201282 0.3446215987
-1.387601256 -0.6514773965 0.3991510272
-1.384896874 -0.6481437087 -0.3981157243
-1.3842026 -0.6472299099 -0.3428219855
-1.410041928 -0.6590120196 -0.2942903042
-1.409556985 -0.6581860185 -0.2397091538
-1.414544344 -0.6599135995 -0.1865166277
-1.421392441 -0.6628062725 -0.1334972233
-1.412236571 -0.6579368114 -0.07944711298
-1.423044682 -0.6626698971 -0.02670038491
-1.407395363 -0.6583741903 0.02642114647
-1.414935112 -0.6615998745 0.07965646684
-1.42273438 -0.664642036 0.1336715221
-1.394642234 -0.6509251595 0.1838355213
-1.391884923 -0.6493425369 0.2365804464
-1.416069508 -0.6600233316 0.2954351306
-1.40288341 -0.6532813907 0.3473210037
-1.407268286 -0.6550244689 0.4043273926
-1.397666216 -0.6481825113 -0.4012215734
-1.402253389 -0.6500124931 -0.3468711078
-1.412333608 -0.6540863514 -0.2942903042
-1.429658055 -0.661806345 -0.2428378314
-1.434742332 -0.663551867 -0.1889540404
-1.423697472 -0.6578406096 -0.1334972233
-1.427103281 -0.6591120958 -0.08017982543
-1.436243534 -0.6627254486 -0.02690981328
-1.434968472 -0.6654818058 0.02690981328
-1.419048071 -0.6574963927 0.0797611326
-1.446742535 -0.6697149277 0.1357632577
-1.414808989 -0.6546327472 0.1862729043
-1.395936251 -0.6453087926 0.236893326
-1.439636946 -0.6652056575 0.3000145555
-1.419196606 -0.6551599503 0.3509202302
-1.416563153 -0.653344512 0.4063979685
-1.405073643 -0.6459648013 -0.402774483
-1.429306269 -0.6565008163 -0.3531697392
-1.435905457 -0.6592284441 -0.2988696992
-1.439141512 -0.6601060629 -0.2440893203
-1.455096006 -0.6668098569 -0.1913914233
-1.43855083 -0.6589237452 -0.1347173899
-1.454820991 -0.6657620072 -0.08164522797
-1.460371614 -0.6676856875 -0.02732867189
-1.440916777 -0.6621386409 0.02697962523
-1.448561311 -0.6650388241 0.08133120835
-1.452577114 -0.6665759683 0.1361118853
-1.44054389 -0.6604449749 0.1894415021
-1.421527386 -0.6511262059 0.2409606129
-1.452660561 -0.6650799513 0.3023042679
-1.44628489 -0.6615504622 0.3572188616
-1.436405897 -0.6564254165 0.4115743339
-1.431932569 -0.6522676945 -0.4100214243
-1.440457582 -0.6555435658 -0.3554192483
-1.466790557 -0.6672189236 -0.3049755991
-1.452227235 -0.6599822044 -0.245966509
-1.475489974 -0.6699329615 -0.1938288063
-1.464428067 -0.6646022201 -0.1369834393
-1.4753263 -0.6689272523 -0.08269194514
-1.482730031 -0.6716607213 -0.02771262452
-1.454138994 -0.6620765924 0.02718905173
-1.469053745 -0.668248415 0.08237793297
-1.478473544 -0.6722214818 0.1383779347
-1.450069785 -0.6586968303 0.1904164553
-1.447176218 -0.6567727327 0.2450279146
-1.465700507 -0.6648716331 0.3045939803
-1.466335058 -0.6645420194 0.3617178798
-1.451007605 -0.6569852233 0.4151977897
-1.450048208 -0.6544173956 -0.4146801531
-1.449843049 -0.6537157893 -0.3572188616
-1.490589142 -0.6717746854 -0.3095549941
-1.468931794 -0.6613974571 -0.2484694868
-1.495923042 -0.6729221344 -0.1962661892
-1.483209848 -0.6665808558 -0.1385522485
-1.484939933 -0.6670469046 -0.08311063796
-1.506958485 -0.6763057709 -0.02813148312
-1.480137944 -0.6676857471 0.02764281631
-1.48594451 -0.6696814299 0.08321530372
-1.50624311 -0.6785129309 0.1408182979
-1.466841936 -0.660148561 0.1923663765
-1.46747601 -0.6598181129 0.2481565922
-1.482338309 -0.6661891341 0.3076469302
-1.489978671 -0.6689983606 0.3671166897
-1.481494188 -0.6645671129 0.4234800041
-1.470074415 -0.6569804549 -0.4198565483
-1.468129754 -0.655804038 -0.3612679839
-1.500212669 -0.6695072055 -0.3110814691
-1.492996216 -0.6656614542 -0.2522238791
-1.505515456 -0.6709287167 -0.1972411424
-1.509189367 -0.6719343066 -0.1408182979
-1.507448077 -0.6705290675 -0.08426202834
-1.520273447 -0.6759156585 -0.02834091149
-1.4988904 -0.6698583961 0.02795695886
-1.499215603 -0.669375658 0.08384333551
-1.530554652 -0.6827278137 0.1429100335
-1.492707133 -0.665532589 0.1955349594
-1.489619493 -0.6635331511 0.2515981495
-1.520643234 -0.6767163277 0.315279305
-1.499543667 -0.6666992307 0.3689163029
-1.506754756 -0.6695907712 0.4302093089
-1.486490488 -0.6581013799 -0.4239976406
-1.491909862 -0.6598778963 -0.3666667938
-1.518700957 -0.6714108586 -0.3145160377
-1.518801212 -0.6708214879 -0.2562911808
-1.531574488 -0.6758239865 -0.2004097551
-1.526109099 -0.6730945706 -0.1422127783
-1.539022803 -0.6781481504 -0.08593677729
-1.537263989 -0.6770532131 -0.02862014994
-1.523279309 -0.6740710735 0.02837581746
-1.523461699 -0.6738334298 0.08509939909
-1.543863177 -0.6822123528 0.1439559013
-1.516928315 -0.6696779132 0.1984598339
-1.504577398 -0.6639112234 0.2537882328
-1.54096055 -0.6793236136 0.3190954626
-1.523262858 -0.6708866954 0.3743151426
-1.519691586 -0.6689972281 0.4333151281
-1.490548015 -0.6536843777 -0.4245152771
-1.511937857 -0.6627503633 -0.371165812
-1.537220836 -0.6731935143 -0.3179506063
-1.531875014 -0.6705338359 -0.2581683993
-1.559270024 -0.6818767786 -0.2038220912
-1.543055534 -0.6741445661 -0.1436072737
-1.566888094 -0.6842307448 -0.08740218729
-1.557946563 -0.6796791553 -0.02896919847
-1.543819666 -0.6770468354 0.02872486599
-1.54775703 -0.6781296134 0.08635546267
-1.555360913 -0.6808140874 0.1448274702
-1.551876426 -0.678966105 0.202847138
-1.526795864 -0.6673582792 0.257229805
-1.561195374 -0.6820697188 0.3229116499
-1.550483465 -0.6767454147 0.3806137741
-1.53972578 -0.6714097857 0.4384915233
-1.510424972 -0.6564380527 -0.4296916425
-1.52854228 -0.6636776328 -0.3747650385
-1.564658284 -0.6790342927 -0.3232932687
-1.550517559 -0.6722545028 -0.2609842122
-1.587142467 -0.6874758601 -0.2072344273
-1.558081269 -0.6745649576 -0.1448274702
-1.583931804 -0.6851004958 -0.08823955804
-1.59151566 -0.6877213717 -0.02956258133
-1.551675677 -0.674044311 0.02882957831
-1.579429507 -0.6854447722 0.08803021908
-1.586855292 -0.6883383393 0.147616446
-1.565165401 -0.67828089 0.2043095678
-1.556307793 -0.6737971306 0.2619228363
-1.574377418 -0.6812940836 0.3252013624
-1.570723772 -0.6790621877 0.3851127923
-1.563342094 -0.6752233505 0.4447031915
-1.546421409 -0.665674746 -0.4395267963
-1.554122448 -0.668346405 -0.3806137741
-1.586859584 -0.682097137 -0.3274910748
-1.580081344 -0.6785298586 -0.2656772435
-1.596829772 -0.6850620508 -0.2082093954
-1.595218062 -0.6840410233 -0.1481393874
-1.604672551 -0.6874321103 -0.08928627521
-1.623320937 -0.6947504878 -0.03012105636
-1.585246444 -0.68205899 0.02942296118
-1.594656706 -0.6854487062 0.08876291662
-1.607554317 -0.690659821 0.1493595541
-1.578468442 -0.6775114536 0.2057719976
-1.587698221 -0.6808164716 0.2669287026
-1.603813529 -0.6873954535 0.3309256434
-1.587415934 -0.6797116995 0.3887120187
-1.599436641 -0.6841982603 0.4545383155
-1.589609027 -0.6776976585 -0.4514324963
-1.57078898 -0.669026792 -0.3842130005
-1.607294798 -0.6842433214 -0.3313072622
-1.615160584 -0.6869265437 -0.2713088989
-1.613827467 -0.6856940389 -0.2101592869
-1.632439494 -0.6932662129 -0.1514513046
-1.625448585 -0.6896272898 -0.09033299983
-1.634942055 -0.6929817796 -0.03029558249
-1.606013894 -0.6843603849 0.02977200784
-1.613578916 -0.6869185567 0.08970496058
-1.642955184 -0.699085772 0.1524971575
-1.600919604 -0.6805395484 0.2084531188
-1.593701482 -0.6768148541 0.267554462
-1.633311033 -0.6932994127 0.3366498947
-1.600543261 -0.6787315607 0.3914114237
-1.623160958 -0.6876541376 0.4607499838
-1.588405371 -0.6706418395 -0.4503971934
-1.619799018 -0.6832309365 -0.3959104419
-1.622336745 -0.6839674115 -0.3339785635
-1.643035531 -0.6920186281 -0.2756890655
-1.649145722 -0.6939149499 -0.214546591
-1.638522744 -0.6891080141 -0.1517999172
-1.644417882 -0.6909123659 -0.09127504379
-1.648414135 -0.6919141412 -0.03050501086
-1.643397808 -0.6935227513 0.03043520078
-1.641732216 -0.6921444535 0.09117037058
-1.652729511 -0.6964415908 0.1531944126
-1.628899455 -0.6857300997 0.2118654698
-1.61790514 -0.6804369688 0.2713088989
-1.662868857 -0.6990056634 0.3423741758
-1.633447528 -0.6859673262 0.3990597427
-1.632676959 -0.6849738359 0.4628205001
-1.601430535 -0.669564724 -0.4535030127
-1.641954184 -0.6858341694 -0.4008593559
-1.65188992 -0.6896461248 -0.3397028446
-1.656380177 -0.6908414364 -0.2775662839
-1.677211523 -0.6988431811 -0.2179589272
-1.659310937 -0.6910442114 -0.1535430402
-1.685544133 -0.7012791634 -0.09347315133
-1.676670671 -0.6969013214 -0.03099367768
-1.667949438 -0.6970345974 0.03085405752
-1.666255236 -0.6956434846 0.09242643416
-1.66802156 -0.6960390806 0.1544145942
-1.655102372 -0.6899700165 0.2150340676
-1.631211877 -0.6793419123 0.2731861174
