# .PCD v0.7 - Point Cloud Data file format
VERSION 0.7
FIELDS x y z
SIZE 4 4 4
TYPE F F F
COUNT 1 1 1
WIDTH 1243
HEIGHT 1
VIEWPOINT 0 0 0 1 0 0 0
POINTS 1243
DATA ascii
-3.007797003 1.488506079 0.7648301721
-3.013035297 1.492406845 0.8893542886
-2.644431829 1.313857913 -0.7796150446
-2.706555128 1.345902085 -0.6878969073
-2.583515406 1.285279155 -0.5526456833
-2.775377274 1.381938577 -0.4843726754
-2.795277119 1.39306426 -0.3783389926
-3.022571564 1.506998897 -0.2917720377
-1.70321393 0.8499332666 -0.09755536169
-3.002050638 1.497420907 0.6438523531
-3.011300564 1.50334847 0.767079711
-2.985341549 1.49168992 0.8826249838
-2.632921219 1.319618344 -0.7775444984
-2.67222929 1.340486646 -0.6802486181
-2.575503588 1.292528391 -0.5518824458
-2.76700592 1.389843941 -0.4837469161
-2.786849976 1.40103054 -0.3778515458
-3.013733387 1.515749454 -0.2914234102
-1.687748671 0.8495876193 -0.09682265669
-2.97751379 1.498184204 0.6396545172
-2.983408451 1.502455354 0.7612309456
-2.978653193 1.500712276 0.8821073771
-2.624850988 1.327057004 -0.7765091658
-2.652118444 1.341424823 -0.6761994362
-2.563970089 1.297963262 -0.5503559709
-2.767668724 1.401689649 -0.4846855104
-2.99776268 1.520851612 -0.2903775275
-1.668893337 0.8470439315 -0.09588060528
-1.777457833 0.8986368775 0.03406530246
-1.732300282 0.8765661716 0.09954413027
-2.969027519 1.50627327 0.6388913393
-2.971459389 1.508811474 0.7594313622
-2.957896233 1.503224254 0.8774486184
-2.61355114 1.332244754 -0.7744386792
-2.633532763 1.343589425 -0.6726002097
-2.545662165 1.299319148 -0.547303021
-2.768036366 1.414038062 -0.4856241345
-2.987381935 1.528062344 -0.2898546159
-1.67125988 0.8555948138 -0.0961946249
-1.758277297 0.8966597319 0.03375115618
-1.725671887 0.8807917833 0.09933478385
-2.953265429 1.511262059 0.6366016269
-2.93842268 1.504961133 0.7522329092
-2.949193239 1.511776924 0.8764133453
-2.583113909 1.328109622 -0.7666741014
-2.62189579 1.349207282 -0.6708006263
-2.528892994 1.301906347 -0.54463166
-2.787667751 1.436358809 -0.4900043309
-2.79168272 1.439661026 -0.3805326223
-2.959011316 1.526605606 -0.2875885665
-1.662939072 0.858674407 -0.09588060528
-1.764027476 0.9073656201 0.03392568231
-1.735017419 0.8932090998 0.1000674888
-2.903718472 1.500004411 0.74458462
-2.871823549 1.484798312 0.8546725512
-2.563027382 1.329114199 -0.7620153427
-2.605062962 1.352066755 -0.6676513553
-2.515620708 1.306203008 -0.5427235961
-2.787895441 1.448812842 -0.4909428954
-2.802490711 1.457641244 -0.3827263117
-2.930688143 1.524968743 -0.2853225172
-1.651074409 0.8598611951 -0.0953572467
-1.753749371 0.9098342657 0.03378606215
-1.721253395 0.8937382102 0.09943945706
-2.863900185 1.492121935 0.7355865836
-2.840928793 1.48141551 0.8469079733
-2.554948092 1.336262822 -0.7609800696
-2.588241577 1.354825735 -0.664501965
-2.504088879 1.311333179 -0.5411971211
-2.784570456 1.459452629 -0.49125579
-2.800901651 1.469258547 -0.3832137585
-2.925346851 1.535190225 -0.2853225172
-1.642758489 0.8628327847 -0.09504323453
-1.743475676 0.9122418165 0.033646442
-1.734047055 0.908080101 0.100381501
-2.839697838 1.492139459 0.73063761
-2.832321167 1.489524126 0.8458727002
-2.545142412 1.342468739 -0.7594271302
-2.573156357 1.358394146 -0.6618025899
-2.497760773 1.319148779 -0.5408155322
-2.798669338 1.479318857 -0.4946973622
-2.809793234 1.486452699 -0.3851636946
-2.911165237 1.540732503 -0.284450978
-1.630911827 0.8638874292 -0.09451986849
-1.805651903 0.9572537541 -0.03497282788
-1.749123573 0.9229883552 0.03382096812
-1.71850431 0.9075980783 0.09964879602
-1.731956005 0.9150889516 0.1676622629
-2.827584267 1.49839282 0.7288380265
-2.816863775 1.493971467 0.842766881
-2.531912804 1.346808672 -0.7568389177
-2.551197767 1.35820961 -0.6573035717
-2.463683128 1.312170267 -0.5343280435
-2.803947926 1.494653583 -0.4965745509
-2.815095663 1.50185883 -0.3866261244
-2.902254105 1.549007893 -0.2841023207
-1.627886057 0.8695755005 -0.09451986849
-1.761739254 0.9418664575 -0.03417001665
-1.7370646 0.9243913293 0.033646442
-1.711800098 0.9117135406 0.09943945706
-1.726992846 0.9201922417 0.1674879491
-2.793118954 1.492639184 0.7211896777
-2.808224916 1.501972914 0.8417316079
-2.512109995 1.346981406 -0.7521802187
-2.532942772 1.359290361 -0.6537043452
-2.429912567 1.304545999 -0.5278404951
-2.814636946 1.512358665 -0.4993903935
-2.876536131 1.546912551 -0.3958882093
-2.874291897 1.546352386 -0.2818363011
-1.623235226 0.8740218282 -0.09441520274
-1.749968648 0.9426547289 -0.03399549052
-1.742800474 0.9348729253 0.03382096812
-1.714206815 0.9199200869 0.09975346923
-1.722176552 0.9249714017 0.1673136503
-2.801878929 1.509286642 0.7247889042
-2.786486387 1.501622677 0.8365552425
-2.493797779 1.348391414 -0.7480391264
-2.524993658 1.36582768 -0.6528045535
-2.397720098 1.298065305 -0.5217345953
-2.86692667 1.552728891 -0.5097150803
-1.711281896 0.9283767343 -0.1666163951
-1.613306284 0.8755890727 -0.09399650991
-1.748424888 0.9497121572 -0.03403039649
-1.732654572 0.9368427992 0.03368134797
-1.712741852 0.9268488288 0.09985814244
-1.717185378 0.9300284386 0.1671393216
-2.769457102 1.50369215 0.7175904512
-2.76764822 1.503961205 0.8324140906
-2.479134798 1.351107001 -0.7449332476
-2.503102064 1.365302324 -0.6483055353
-2.37272191 1.294724584 -0.5171551704
-1.651849151 0.902862072 -0.2260023206
-1.629373074 0.8913164139 -0.1587723792
-1.596223712 0.873544693 -0.09315913916
-1.752114654 0.9596520662 -0.03417001665
-1.724106908 0.9400131106 0.03357663378
-1.723521948 0.9404752851 0.1006955206
-1.721087098 0.9395359755 0.1678365767
-2.782994032 1.523644447 0.7225394249
-2.764075518 1.514541864 0.832931757
-2.470780849 1.35832262 -0.7438979745
-2.489783287 1.369336009 -0.6460559964
-1.622106314 0.8936043382 -0.2866394818
-1.627824783 0.8971253037 -0.2230774462
-1.634974957 0.9018096328 -0.1596439332
-1.586017132 0.8755283356 -0.09274045378
-1.752255201 0.9676952362 -0.03423982486
-1.720815182 0.9460256696 0.03357663378
-1.709729552 0.9407086372 0.1000674888
-1.728103399 0.9516046047 0.1688824445
-1.730565548 0.9533535242 0.2374580353
-2.758626461 1.523470759 0.7175904512
-2.763844967 1.526983142 0.8344846964
-2.471092701 1.369749308 -0.7454509139
-1.621824145 0.9001023173 -0.3522962332
-1.618977308 0.8992610574 -0.2866394818
-1.624525785 0.9030851722 -0.2230774462
-1.630075693 0.9065433741 -0.1594696194
-1.570735335 0.8742595911 -0.09200774878
-1.734720945 0.9663264155 -0.03396058455
-1.722582579 0.9552357793 0.03368134797
-1.706269979 0.9469692111 0.1000674888
-1.735222816 0.9634335041 0.1699283123
-1.740941048 0.9674040079 0.2394079268
-2.770317078 1.542572021 0.7220894694
-2.78523016 1.552148819 0.842766881
-1.621432304 0.9061876535 -0.4861142337
-1.621033907 0.9067081213 -0.4188554287
-1.613532543 0.9028815627 -0.351151377
-1.624445677 0.9097334146 -0.2882038057
-1.616168499 0.905838728 -0.2223462313
-1.618211985 0.9073557258 -0.1585980654
-1.56244874 0.8768048882 -0.09169372916
-1.736568093 0.9753131866 -0.03406530246
-1.731455564 0.9680740833 0.03392568231
-1.711668849 0.9577955604 0.1005908474
-1.724895239 0.9655919075 0.1692310721
-1.751408339 0.9812369347 0.241357848
-2.749622345 1.54364717 0.7180404067
-2.776426554 1.559969902 0.8417316079
-1.601428628 0.9023584723 -0.4809378386
-1.617859244 0.9123606682 -0.4188554287
-1.606951356 0.9065791368 -0.3503881395
-1.604059219 0.9056856632 -0.2850751281
-1.606242061 0.9072879553 -0.2213712633
-1.609831929 0.9100570083 -0.1580751389
-1.592406631 0.9009404182 -0.09368249774
-1.733323932 0.9810669422 -0.03406530246
-1.7123878 0.9652744532 0.03361153975
-1.705003858 0.9615042806 0.100381501
-1.718043566 0.9696488976 0.1688824445
-1.753157735 0.9902734756 0.2420890629
-2.747880459 1.554676056 0.7189401984
-2.752746582 1.558696985 0.8360375762
-1.605147123 0.9114798903 -0.4830084145
-1.601270795 0.9100179076 -0.415256232
-1.607349396 0.9138436317 -0.351151377
-1.604480624 0.9129538536 -0.2857008576
-1.608400106 0.9155555964 -0.222102493
-1.613729715 0.9193354249 -0.1587723792
-1.580735087 0.9012698531 -0.09315913916
-1.740483165 0.992754221 -0.03427473083
-1.716132283 0.9748986959 0.03375115618
-1.719170332 0.9770213962 0.1014282256
-1.732137442 0.9851907492 0.1706255525
-1.74468863 0.9931356907 0.241357848
-1.734620094 0.9878051877 0.309478879
-1.8878299 1.075925589 0.4141183496
-2.7342453 1.558953762 0.7166906595
-2.737495422 1.562072396 0.832931757
-1.598762155 0.9148786664 -0.4819731116
-1.591480255 0.9114487171 -0.4134566188
-1.600743175 0.9174963236 -0.3503881395
-1.603157997 0.9192521572 -0.2860137522
-1.60863781 0.9231404662 -0.2225899547
-1.626060367 0.9338933229 -0.1603411883
-1.581042528 0.9087728262 -0.09336848557
-1.73700738 0.9988232255 -0.03427473083
-1.702477455 0.9746233821 0.03354173154
-1.719215274 0.9850022793 0.1016375646
-1.728860855 0.9909293652 0.1706255525
-1.749995112 1.003854513 0.2425765395
-1.741440296 0.9997552037 0.3113561273
-2.718649626 1.562661886 0.7139912248
-2.721978426 1.565838814 0.8298259377
-1.598744869 0.9226632714 -0.4830084145
-1.599941015 0.9240986705 -0.4166059196
-1.599069238 0.9243397117 -0.3507697582
-1.604908109 0.9280885458 -0.2869523466
-1.612115741 0.9330075979 -0.2235649228
-1.626074314 0.9418444633 -0.160689801
-1.588068724 0.9205709696 -0.09399650991
-1.728145003 1.002173901 -0.03417001665
-1.724870443 0.9958543777 0.03406530246
-1.703488588 0.9843019247 0.1009048671
-1.720042467 0.9942681193 0.1701026261
-1.732558012 1.002309084 0.2406266183
-1.729216933 1.001182437 0.3097917736
-2.714550257 1.57483542 0.8293082714
-1.590343237 0.92560184 -0.4814554751
-1.601595044 0.9328991175 -0.417955637
-1.592440367 0.9279389381 -0.3500065207
-1.610027671 0.9389402866 -0.2885166705
-1.608685493 0.9389097095 -0.2235649228
-1.6262182 0.9495236874 -0.1610384285
-1.598641038 0.9341703057 -0.09483388811
-1.726362586 1.009208798 -0.03420491889
-1.74021852 1.013237476 0.03444925696
-1.717300296 1.000295281 0.1019515842
-1.737042427 1.012606263 0.1721943617
-1.742589474 1.016655564 0.2425765395
-1.732535839 1.011194944 0.3110432625
-2.685689688 1.570647836 0.8220613599
-1.59543395 0.9360351562 -0.4840436578
-1.608576655 0.9441232681 -0.4206550419
-1.604427099 0.9424408674 -0.3534410894
-1.603499055 0.9422726631 -0.2878909409
-2.701203585 1.589860678 -0.2705060542
-1.609303117 0.9475736022 -0.09567126632
-1.738334775 1.024365902 -0.03451906517
-1.726500154 1.012931108 0.03423982486
-1.71207583 1.005272508 0.1018469036
-1.723190188 1.012607455 0.1711484939
-1.754610181 1.031482935 0.2447701991
-1.737508178 1.022245407 0.3126076162
-1.757571101 1.034462214 0.388168335
-2.66687727 1.572164655 0.8179202676
-1.595647216 0.9432869554 -0.4850789607
-1.586822033 0.9388178587 -0.4157061279
-2.290611982 1.355742812 -0.5091412067
-2.48058629 1.469353199 -0.4499570727
-2.697103977 1.598240495 -0.3798014522
-2.687348127 1.593727946 -0.2696344852
-1.599115491 0.9491077662 -0.09525258094
-1.726330996 1.025020242 -0.03434453905
-1.712626457 1.012844086 0.03403039649
-1.71217072 1.012978435 0.10205625
-1.716394186 1.016285658 0.1707998663
-1.747583508 1.03557694 0.2442827076
-1.746003628 1.035052538 0.3147976995
-1.747195363 1.0365839 0.38664186
-2.650022745 1.574093819 0.814296782
-1.595829844 0.9505503774 -0.4861142337
-2.338624477 1.394099593 -0.6186119914
-2.311396122 1.378415108 -0.5148655176
-2.489269972 1.48567009 -0.4524600506
-2.674744606 1.596999884 -0.3773640692
-2.683758736 1.603652954 -0.269808799
-1.597673774 0.9554302692 -0.0953572467
-1.748663068 1.046138763 -0.0348681137
-1.719565272 1.024659514 0.03423982486
-1.732820153 1.032967806 0.1035216525
-1.726703048 1.030138254 0.1721943617
-1.733913302 1.035261273 0.2428202927
-1.740865588 1.03982389 0.3144848049
-1.774080634 1.060504198 0.3935109675
-2.648103237 1.584856987 0.8153320551
-2.345682859 1.408870816 -0.621761322
-2.291666746 1.37697196 -0.5114309192
-2.480943918 1.49187994 -0.4518342614
-2.653846264 1.597113848 -0.3751704097
-2.659650087 1.601239085 -0.2678913772
-1.609893084 0.9699998498 -0.09629929811
-1.75698781 1.059464574 -0.03511244431
-1.743588924 1.046825528 0.03479830176
-1.71037209 1.027694941 0.1023702696
-1.730107784 1.039964318 0.1728916019
-1.738975763 1.046121955 0.2440389842
-1.740610003 1.047932029 0.3151105344
-1.763827205 1.062330008 0.3919845223
-2.635938883 1.590099096 0.8132615089
-2.351337433 1.422338247 -0.7247454524
-2.345751047 1.420078516 -0.6231110096
-2.270053387 1.374792933 -0.5076147318
-2.458827734 1.490292907 -0.4487055838
-2.638071537 1.600190878 -0.3737079501
-2.642121077 1.603278756 -0.2666711807
-1.620154381 0.9839074016 -0.09713667631
-1.725937724 1.04897368 -0.03455396742
-1.757032394 1.06325841 0.03514735028
-1.713607788 1.03779757 0.102788955
-1.723059058 1.043932438 0.1725429893
-1.750590444 1.061448216 0.2462326288
-1.748762727 1.061175466 0.3173006475
-1.770177603 1.07459259 0.394274205
-2.613865137 1.58925426 0.808085084
-2.349657059 1.432548523 -0.7257806659
-2.359079123 1.439422727 -0.6280599236
-2.261889219 1.380662799 -0.5068514943
-2.445182562 1.493717313 -0.4471412599
-2.629082203 1.607319355 -0.3732204735
-2.622911215 1.604174852 -0.2652767003
-1.626930594 0.9958131909 -0.09776470065
-1.739317656 1.065437317 -0.03490301967
-1.743067265 1.063137174 0.03493792191
-1.735546231 1.059381723 0.1043590307
-1.716004014 1.047863722 0.1721943617
-1.757037759 1.07376349 0.2476950586
-1.743362784 1.066242218 0.3169877529
-1.769765139 1.082814455 0.3950374424
-2.591829538 1.588275313 0.8029087186
-2.354518175 1.44680953 -0.7288864851
-2.355700254 1.448669553 -0.6285098791
-2.252039671 1.385463238 -0.5057066679
-2.424814463 1.492922544 -0.4443254471
-2.618385792 1.613362432 -0.3724892735
-2.613903522 1.611229897 -0.2649280727
-1.626844525 1.003583074 -0.09797404706
-1.752603173 1.082007527 -0.03525206819
-1.729124069 1.062932253 0.03472849354
-1.726734638 1.062293649 0.104045026
-1.72930336 1.064290524 0.1739374846
-1.736376762 1.069479704 0.2452576756
-1.756445885 1.082686543 0.3201164305
-1.754276991 1.081772208 0.3923661113
-2.58298254 1.595282078 0.8018734455
-2.362592697 1.4631567 -0.7330275774
-2.347316265 1.454829931 -0.6276100278
-2.240515471 1.389177799 -0.5041801333
-2.416231394 1.499294758 -0.4436996877
-2.59587431 1.612020135 -0.3700518906
-1.616546869 1.005037665 -0.09755536169
-1.755607247 1.092344046 -0.03539168462
-1.745801806 1.081599593 0.03514735028
-1.738293052 1.077786803 0.10498707
-1.739122748 1.078722 0.17533198
-1.747812152 1.084956646 0.2474513054
-1.752655864 1.088811159 0.3201164305
-1.768832445 1.099288464 0.3965639174
-2.575758219 1.603267908 0.8013558388
-2.378775358 1.484692693 -0.7397568822
-2.348834991 1.467144489 -0.6294096708
-2.223997831 1.389708042 -0.501508832
-2.397584677 1.499340296 -0.4411967695
-2.57676959 1.61264658 -0.3681019545
-2.589082003 1.620980263 -0.2635335922
-1.640108347 1.027641535 -0.09923011065
-1.728065252 1.083592892 -0.03490301967
-1.758977652 1.098277807 0.03549639881
-1.724357367 1.077498078 0.1043590307
-1.721830964 1.076337337 0.1739374846
-1.727185249 1.080522895 0.2450139225
-1.750519276 1.095970511 0.3204293251
-1.763320446 1.104414105 0.3961822987
-1.899057031 1.19035244 0.5074861646
-2.563599825 1.608142972 0.7992852926
-2.370307922 1.49093008 -0.7387216091
-2.368436813 1.490907192 -0.6361581683
-2.20418191 1.388047576 -0.4980743229
-2.388993502 1.505594492 -0.4405709803
-2.56150198 1.616187453 -0.2612675428
-1.641577721 1.036559224 -0.09954413027
-1.741368651 1.099996924 -0.03525206819
-1.748363376 1.100150704 0.03535677865
-1.725845337 1.086402297 0.1046730503
-1.728178382 1.088712811 0.1749833524
-1.730119944 1.090780258 0.2459889054
-1.735179663 1.094392896 0.3182392418
-1.772736192 1.118945837 0.3992352486
-1.894890308 1.196974277 0.5074861646
-2.533756495 1.6011554 0.7915207148
-2.366721153 1.500228763 -0.7392392755
-2.375000238 1.506057978 -0.6393074989
-2.199323416 1.39573276 -0.4980743229
-2.378984928 1.51033175 -0.4396324158
-2.565733433 1.630148292 -0.3681019545
-2.560888767 1.628326178 -0.2617904842
-1.653298259 1.051644683 -0.1004861742
-1.737518311 1.10606885 -0.03525206819
-1.744705439 1.105942488 0.03535677865
-1.742280841 1.105258822 0.1059291065
-1.734459519 1.101145744 0.1760292053
-1.72314167 1.094383001 0.245501399
-1.753021002 1.114218593 0.3223065138
-1.749135375 1.11217761 0.3946558237
-1.890910506 1.203251481 0.5074861646
-2.515116453 1.601687789 0.7873796225
-2.369874239 1.513267398 -0.7418274879
-2.368086338 1.513290286 -0.6388576031
-2.184757948 1.396673441 -0.4957846105
-2.36537838 1.513304591 -0.4380680621
-2.54498148 1.629461169 -0.3659083247
-2.525275469 1.617466569 -0.2586528659
-1.649617195 1.057409406 -0.1004861742
-1.733840942 1.111824512 -0.03525206819
-1.747575402 1.116332054 0.03549639881
-1.748703957 1.117483258 0.1065571457
-1.732477188 1.107964993 0.176203534
-1.734359026 1.11002171 0.2476950586
-1.737671614 1.112569332 0.3201164305
-1.751854658 1.122512579 0.3961822987
-1.886698842 1.209844589 0.5074861646
-2.503287077 1.605847359 0.7853090763
-2.38244772 1.533029556 -0.7475214601
-2.356501102 1.516914606 -0.63705796
-2.178218603 1.403227925 -0.495402962
-2.353705406 1.516859293 -0.4368165731
-2.522881508 1.627132416 -0.3634709418
-2.521288395 1.627351403 -0.2588271797
-1.649457335 1.065040827 -0.1006955206
-1.756822348 1.135234594 -0.03581054136
-1.750590205 1.126449347 0.03563601524
-1.741434455 1.121417522 0.1063477993
-1.733623147 1.117243648 0.1767264754
-1.730668545 1.115767002 0.2476950586
-1.761995196 1.13683486 0.325435251
-1.748122573 1.128315926 0.3961822987
-2.496043921 1.61352694 0.78479141
-2.384916544 1.547008157 -0.7501096129
-2.358831644 1.531257749 -0.6393074989
-2.168121815 1.407994509 -0.4942581356
-2.344551086 1.523732662 -0.4361908436
-2.532006979 1.647447348 -0.2605702877
-1.658745527 1.080085039 -0.1015328914
-1.745947242 1.137300611 -0.03567092121
-1.749607325 1.135340095 0.0357058309
-1.744013309 1.132142663 0.1067664847
-1.739541054 1.130102634 0.1777723283
-1.739685774 1.131060362 0.2496449649
-1.744569302 1.134668589 0.3229322731
-1.763522387 1.147871852 0.4007617235
-2.459293842 1.601970792 0.6676513553
-2.482020617 1.61739099 0.7822031975
-2.389204502 1.561665416 -0.7532154918
-2.378205776 1.555068851 -0.6460559964
-2.16155076 1.414479017 -0.493876487
-2.346096277 1.535827041 -0.4374423027
-2.497889757 1.636441588 -0.3615210354
-2.492916584 1.634427547 -0.2570840418
-1.671855569 1.096533537 -0.1025796086
-1.748653769 1.147776961 -0.03581054136
-1.765918732 1.154264569 0.03612468764
-1.730022311 1.13166368 0.1061384603
-1.728917956 1.131803036 0.177075088
-1.737585902 1.137910604 0.2498886883
-1.753815413 1.149413943 0.325435251
-1.767915249 1.159095883 0.4026698172
-2.457226992 1.612254858 0.668551147
-2.466670513 1.619683027 0.7790973783
-2.384012461 1.56957984 -0.7532154918
-2.385781765 1.571937799 -0.6496552229
-2.173240423 1.432443738 -0.4976926744
-2.301146507 1.517902017 -0.4299334586
-2.475880623 1.633782506 -0.3590836525
-2.472519636 1.632803917 -0.2555152476
-1.674682617 1.106767535 -0.1029982939
-1.744837999 1.15356946 -0.03581054136
-1.751858711 1.153822303 0.03591525555
-1.749609351 1.152778149 0.1076038629
-1.731808424 1.141917229 0.1777723283
-1.743544579 1.150529146 0.2513511479
-1.75329113 1.157399893 0.3260609806
-1.758944392 1.162013531 0.401524961
-2.456744432 1.623618126 0.6699008346
-2.446784019 1.618262529 0.7744386792
-2.39811492 1.590288401 -0.7594271302
-2.380555868 1.579840779 -0.6496552229
-2.178291798 1.446157932 -0.4999823868
-2.312553644 1.536456108 -0.433062166
-2.472102165 1.643082738 -0.3593274057
-2.458797455 1.63547647 -0.2546437085
-1.674328566 1.114528418 -0.1032076478
-1.741003275 1.159348845 -0.03581054136
-1.758020878 1.166258097 0.03612468764
-1.759090066 1.167408943 0.1084412411
-1.734651208 1.152063131 0.1784695834
-1.744679332 1.159601092 0.2520823479
-1.762603045 1.171957731 0.3285639286
-1.753446698 1.166752458 0.4011433423
-2.457835674 1.636075258 0.671700418
-2.439796448 1.625296593 0.7739210129
-2.397647381 1.601451039 -0.7609800696
-2.372063637 1.585560441 -0.6487554312
-2.183276415 1.459920764 -0.5022720695
-2.353413105 1.574877501 -0.441822499
-2.446559191 1.638447046 -0.3564025164
-2.458325863 1.646948099 -0.25516662
-1.660669804 1.113401175 -0.1025796086
-1.746908784 1.172104478 -0.03601996973
-1.757469177 1.174303651 0.03619449586
-1.741721988 1.164660573 0.1076038629
-1.73247695 1.158916831 0.1786438823
-1.74082458 1.165380001 0.2520823479
-1.769989371 1.185799003 0.3307540119
-1.778923273 1.192234635 0.4080124497
-2.437544107 1.63487494 0.6676513553
-2.429296255 1.630573511 0.7723681331
-2.417685747 1.627068996 -0.7692622542
-2.178166628 1.467533469 -0.5022720695
-2.416691303 1.629464746 -0.4549629688
-2.435888529 1.643645525 -0.3556712866
-2.445956707 1.651060462 -0.2544693947
-1.666703582 1.125898957 -0.1032076478
-1.765999913 1.193874598 -0.03650863841
-1.753359675 1.18043077 0.03619449586
-1.750896811 1.179661632 0.1084412411
-1.746595144 1.177206039 0.180561319
-1.753202915 1.18255043 0.2545197308
-1.785486817 1.205232501 0.334508419
-1.794275165 1.211621404 0.4125918448
-2.418905497 1.634644508 0.6640521288
-2.418789148 1.635796189 0.7708151937
-2.423184395 1.643087149 -0.7728857398
-2.396412134 1.626155019 -0.6586532593
-2.181152821 1.480640769 -0.5041801333
-2.319484949 1.575728893 -0.4374423027
-2.431778193 1.653254628 -0.3559150398
-2.425063372 1.649927616 -0.2529006004
-1.671018958 1.137329102 -0.1037310064
-1.755210996 1.195528388 -0.03636901826
-1.757502794 1.192156672 0.03636901826
-1.743463635 1.183522463 0.1082318947
-1.742475271 1.183295727 0.180561319
-1.742497325 1.184199572 0.2535448074
-1.755133748 1.193683624 0.3295024931
-1.806267381 1.228920579 0.4164080918
-2.40835166 1.639788389 0.6627023816
-2.405081987 1.63879025 0.7682270408
-2.408416748 1.646608591 -0.6636021733
-2.188673735 1.497493982 -0.5072330832
-2.364221811 1.618816018 -0.4471412599
-2.419441462 1.657245994 -0.3549400866
-2.407785654 1.650497079 -0.2516804039
-1.680015087 1.152484655 -0.1045683846
-1.774110198 1.217488885 -0.03685768694
-1.746726871 1.193771124 0.03622940183
-1.742618799 1.191856146 0.1084412411
-1.738126636 1.189674258 0.180561319
-1.771111727 1.212705135 0.2584195733
-1.777029037 1.217668176 0.334508419
-1.792035818 1.228871346 0.4141183496
-2.399112463 1.646398664 0.6618025899
-2.378641844 1.632962346 0.761497736
-2.416138411 1.663671136 -0.7744386792
-2.400760889 1.654319167 -0.6631523371
-2.193131685 1.511810422 -0.5095227957
-2.404084682 1.658466578 -0.4559015632
-2.406816483 1.661591411 -0.3539651334
-2.402009726 1.658891916 -0.2516804039
-1.677624702 1.159477353 -0.1046730503
-1.773139238 1.22594893 -0.03692749515
-1.748926997 1.204702616 0.03636901826
-1.751604795 1.206997871 0.1092786193
-1.743804455 1.202520728 0.1816071868
-1.782992959 1.230463505 0.2608569562
-1.782521367 1.230597496 0.3363856375
-1.787735343 1.235119104 0.4141183496
-2.394953489 1.655871511 0.6622524858
-2.374515772 1.64235425 0.7620153427
-2.405554056 1.668792248 -0.7728857398
-2.401665449 1.666715503 -0.6649519205
-2.200741291 1.528415918 -0.5125757456
-2.395326853 1.664175391 -0.4552758336
-2.386624575 1.65936482 -0.3517715037
-2.386391163 1.660439372 -0.250634551
-1.670492053 1.16275239 -0.1044637039
-1.765566945 1.229845285 -0.03685768694
-1.738350153 1.205936432 0.03622940183
-1.74081862 1.208548427 0.1088599339
-1.765775919 1.226788998 0.1843961626
-1.778903008 1.236369014 0.2608569562
-1.784701586 1.241323829 0.3376370966
-1.777183294 1.236555457 0.4125918448
-2.371857882 1.651555181 0.6573035717
-2.360844135 1.64511013 0.7594271302
-2.395255804 1.673440814 -0.7713328004
-2.381459713 1.665038705 -0.6609027982
-2.192443132 1.533455014 -0.5118125677
-2.3846488 1.669127822 -0.4543372393
-2.374313831 1.663130045 -0.3507965207
-2.375977755 1.664912581 -0.2501116097
-1.676234603 1.175456762 -0.1050917432
-1.777850151 1.247176766 -0.03720673546
-1.730851889 1.209705949 0.03615958989
-1.740074992 1.216603518 0.1090692729
-1.745373249 1.221215725 0.1826530397
-1.774576068 1.242571354 0.2608569562
-1.774103642 1.242702246 0.3363856375
-1.795362949 1.258527875 0.4179345369
-2.350125313 1.648632646 0.6528045535
-2.361701012 1.657368898 0.761497736
-2.376761675 1.672896266 -0.7671917081
-2.374331474 1.671804667 -0.6604529023
-2.193496466 1.54562211 -0.5133389831
-2.38071537 1.678164721 -0.454650104
-2.359053373 1.6641289 -0.3493341208
-2.362012863 1.667451739 -0.2492400408
-1.68537879 1.190225959 -0.1059291065
-1.770219326 1.251067281 -0.03713692725
-1.749724388 1.23155272 0.03664825857
-1.755411863 1.236471772 0.1103253365
-1.741100073 1.227300406 0.1826530397
-1.786668777 1.259889364 0.2632943392
-1.78589499 1.260276556 0.3395143449
-1.810426116 1.278061748 0.422513932
-2.343053341 1.655292392 0.6523546576
-2.335394621 1.651104808 0.7547684312
-2.360168695 1.672948837 -0.7635682225
-2.368481398 1.68008256 -0.6604529023
-2.199294329 1.561223984 -0.516010344
-2.353905201 1.671596289 -0.4505828023
-2.356466293 1.674652696 -0.3498215675
-2.352930546 1.673377037 -0.2488914132
-1.697277427 1.20797646 -0.1069758385
-1.769099593 1.259558439 -0.03720673546
-1.751939893 1.242279291 0.036787875
-1.770630598 1.256462216 0.1115813926
-1.743519425 1.237680793 0.1833503097
-1.791969776 1.273016095 0.2647567391
-1.781484962 1.266502857 0.3395143449
-1.802530169 1.28241241 0.4217506945
-2.340435982 1.665721655 0.6532544494
-2.326469898 1.65700531 0.7537331581
-2.346161604 1.675972819 -0.7609800696
-2.352795601 1.681952477 -0.6577534676
-2.206330776 1.578413248 -0.5190632939
-2.338124037 1.673314691 -0.4487055838
-2.343856573 1.678655505 -0.3488466144
-2.337065458 1.675025225 -0.2478455603
-1.687969685 1.210697055 -0.1066618189
-1.780718803 1.277691364 -0.03755578399
-1.747374892 1.248692155 0.036787875
-1.782259464 1.274561167 0.1126281098
-1.738971114 1.244063258 0.1833503097
-1.787292242 1.27957499 0.2647567391
-1.805734634 1.293732643 0.3451459706
-1.801008701 1.291298389 0.422513932
-2.337482214 1.676560283 0.6541542411
-2.317241907 1.66326797 0.7526978254
-2.343138456 1.686818004 -0.7620153427
-2.327641487 1.67689538 -0.6523546576
-2.207178831 1.590696216 -0.5205897689
-2.325566769 1.677251101 -0.4474541247
-2.318664551 1.672889233 -0.3459217548
-2.323127031 1.677342057 -0.2469739914
-1.67402029 1.209563017 -0.1060337871
-1.802178025 1.302642941 -0.03811426088
-1.759013534 1.266774297 0.03713692725
-1.774558663 1.27843976 0.1124187708
-1.753793836 1.264410257 0.1854420304
-1.772931099 1.279148817 0.2632943392
-1.8012079 1.300027728 0.3451459706
-1.793307304 1.295278192 0.4217506945
-2.312661409 1.671013117 0.6487554312
-2.309856653 1.670214891 0.7521802187
-2.332839966 1.691177487 -0.7604624629
-2.318912983 1.682316422 -0.6514548659
-2.208246946 1.602620006 -0.5221162438
-2.310402155 1.677988887 -0.4455769062
-2.301862717 1.672401547 -0.3442156017
-2.315940857 1.683864355 -0.2467996776
-1.69099474 1.230383754 -0.1073945239
-1.797848701 1.308611631 -0.03811426088
-1.761278152 1.277296543 0.03727654368
-1.757376313 1.274934888 0.1115813926
-1.759264827 1.277242422 0.1864879131
-1.797587156 1.306023836 0.2676816285
-1.822453737 1.324575782 0.3501518965
-2.289128065 1.664981246 0.5419603586
-2.288198233 1.664914608 0.6433566213
-2.298058271 1.673316836 0.7501096129
-2.313176155 1.688652039 -0.7558037043
-2.278702974 1.664706588 -0.6415569782
-2.202921152 1.609933019 -0.5221162438
-2.306419611 1.686807513 -0.445889771
-2.294409513 1.67925334 -0.3439718485
-2.291053295 1.677411318 -0.244707942
-1.696571946 1.243067145 -0.1080225557
-1.799720049 1.319609523 -0.03825387731
-1.760262728 1.285488844 0.03734635189
-1.775490999 1.297559738 0.11304681
-1.783970952 1.30423522 0.1896255165
-1.80285871 1.319010377 0.2691440582
-1.784347892 1.306423187 0.3435816169
-2.29784894 1.683003664 0.5453948975
-2.279229164 1.670587778 0.6424568295
-2.281299353 1.673329711 0.746486187
-2.29637289 1.688705444 -0.7521802187
-2.294852257 1.688820839 -0.6478556395
-2.208354712 1.625760794 -0.5247875452
-2.289384842 1.686645865 -0.4436996877
-2.286935806 1.686074257 -0.3437281251
-2.272356272 1.675937414 -0.2433134466
-1.698650122 1.253726125 -0.1084412411
-1.78866899 1.32113111 -0.03811426088
-1.775094032 1.305845022 0.03776520863
-1.76451683 1.299013376 0.1126281098
-1.760155916 1.296276689 0.187533766
-1.791851878 1.320584297 0.2681691051
-1.811572075 1.336093903 0.3498390019
-2.273002863 1.677026987 0.5408155322
-2.276518822 1.680849195 0.6433566213
-2.256799698 1.667506576 0.7402745485
-2.287359715 1.694411278 -0.7511449456
-2.284246683 1.693339586 -0.6465059519
-2.212127924 1.640476227 -0.5270772576
-2.266034126 1.681678534 -0.4402581453
-2.279442787 1.692863464 -0.3434843719
-2.2792871 1.693364978 -0.244707942
-1.695866466 1.260839581 -0.1085459143
-1.784046531 1.32736671 -0.03811426088
-1.765705466 1.308461308 0.03766049817
-1.811308146 1.343235135 0.1159776226
-1.765221357 1.309534907 0.1885796487
-1.793606639 1.331564069 0.2691440582
-1.794211864 1.332985044 0.3473360538
-2.254529238 1.675582409 0.5377625823
-2.264383078 1.684133053 0.6415569782
-2.250965357 1.675374031 0.7402745485
-2.281431437 1.702384949 -0.7511449456
-2.27051425 1.695473433 -0.644256413
-2.222116709 1.659937382 -0.530893445
-2.255403757 1.686029911 -0.4393195212
-2.259214163 1.690107346 -0.3412907422
-2.254220247 1.686985731 -0.2426162064
-1.697849393 1.271540523 -0.1089645997
-1.779402256 1.333586216 -0.03811426088
-1.775549531 1.32538259 0.03797464073
-1.793807507 1.339987278 0.1151402444
-1.792559385 1.339541912 0.1920658648
-1.78258884 1.333061576 0.2681691051
-1.833830833 1.372379899 0.3560963869
-2.240808487 1.677558899 0.5358544588
-2.264729023 1.696700931 0.6433566213
-2.25128603 1.687856674 0.7423450947
-2.272386551 1.708016753 -0.7501096129
-2.256795168 1.6975317 -0.6420069337
-2.258665323 1.699554801 -0.5411971211
-2.251082659 1.695080757 -0.4396324158
-2.245373487 1.692010403 -0.340072006
-2.256272554 1.700840831 -0.2434877604
-1.701372623 1.283473492 -0.1094879583
-1.781354785 1.344297767 -0.03825387731
-1.77410841 1.333976269 0.03804444894
-1.789354086 1.34592855 0.1151402444
-1.800606728 1.355376959 0.1934603602
-1.793780565 1.351219177 0.270606488
-2.229981899 1.680411935 0.435565114
-2.234939337 1.685370207 0.5358544588
-2.22768259 1.681118608 0.6343585849
-2.23796773 1.689492702 0.7397568822
-2.247927904 1.701945186 -0.7438979745
-2.246493101 1.701476336 -0.6406571865
-2.235508204 1.694384098 -0.5369993448
-2.240726709 1.698955894 -0.4386937916
-2.235006094 1.695847511 -0.339340806
-2.23921442 1.700271487 -0.2422675639
-1.709830761 1.29877317 -0.1103253365
-1.776651621 1.350507379 -0.03825387731
-1.795184016 1.359164834 0.03860292584
-1.7846452 1.352165937 0.1151402444
-1.789514184 1.356839061 0.1927631199
-1.789289832 1.357160211 0.270606488
-2.228822708 1.691768527 0.4365036786
-2.22777462 1.691585064 0.5354728103
-2.234508038 1.697928786 0.6379577518
-2.225905418 1.692617774 0.737686336
-2.226908445 1.697678089 -0.7387216091
-2.237442017 1.706943274 -0.6397573948
-2.229876995 1.701787949 -0.5369993448
-2.225363731 1.699572921 -0.4368165731
-2.219609737 1.696406126 -0.3378783762
-2.219318867 1.696796775 -0.2406987846
-1.706873059 1.305947542 -0.1104300097
-1.7785151 1.361253142 -0.03839349747
-1.776117802 1.35450983 0.03828878701
-1.780151486 1.358076692 0.1151402444
-1.766001105 1.348257661 0.1906713694
-1.812934875 1.38509059 0.2749937773
-2.215352774 1.693152785 0.4349393547
-2.212499619 1.692194939 0.5331831574
-2.228567839 1.705717802 0.6379577518
-2.208009005 1.690594196 0.7335452437
-2.224033594 1.707793593 -0.7397568822
-2.22249651 1.707230926 -0.63705796
-2.264392376 1.7406708 -0.546921432
-2.211885691 1.700922251 -0.4352522194
-2.218691587 1.707389355 -0.338609606
-2.216539383 1.706964612 -0.2410473973
-1.712026119 1.318913817 -0.111058034
-1.773752689 1.367452979 -0.03839349747
-1.766858816 1.356737614 0.0381840691
-1.791236758 1.376451969 0.1161869615
-1.796031356 1.381133556 0.1945062429
-1.817772388 1.398357153 0.2764562368
-2.1984725 1.692440152 0.4327492714
-2.199098587 1.693533421 0.5312750936
-2.205920219 1.700013757 0.6330088973
-2.195975065 1.693572283 0.731474638
-2.211946011 1.710819721 -0.737686336
-2.202418804 1.705294728 -0.5331831574
-2.196267843 1.701758385 -0.433375001
-2.196731567 1.703345299 -0.3361722231
-2.202696085 1.708585739 -0.2401758432
-1.715069413 1.331302881 -0.1115813926
-1.777689457 1.375441909 0.03853311762
-1.77038765 1.370780468 0.1151402444
-1.822702169 1.411795497 0.1979924589
-1.86911726 1.448791027 0.2852308154
-2.198498249 1.705329537 0.4340007603
-2.185121536 1.695564389 0.5293669701
-2.185821533 1.697331071 0.6289597154
-2.186702728 1.699238181 0.7304394245
-2.204436541 1.717343092 -0.7371687293
-2.194854021 1.711109519 -0.6325589418
-2.19026041 1.708142757 -0.5316566825
-2.188756943 1.708199263 -0.433062166
-2.186079025 1.707337379 -0.3354409933
-2.188868284 1.71013093 -0.2393042892
-1.71198523 1.338511825 -0.1116860732
-1.776031971 1.384097338 0.03860292584
-1.784491062 1.391690969 0.1163963005
-1.802054286 1.40589416 0.1962493509
-2.166035652 1.691075087 0.3322723806
-2.176965952 1.700831771 0.4308720827
-2.179189444 1.703181505 0.5293669701
-2.179883718 1.704950213 0.6289597154
-2.176193953 1.703289032 0.7288864851
-2.18475008 1.714294672 -0.7325099707
-2.191933155 1.721167564 -0.6334587336
-2.176564693 1.709713936 -0.529748559
-2.181227684 1.714608192 -0.4327492714
-2.169184446 1.706366658 -0.3337348402
-2.170359612 1.70790422 -0.2379097939
-1.727701068 1.36054337 -0.11304681
-2.155184031 1.697790265 -0.04718951136
-1.799503803 1.412512779 0.03923121467
-1.792433023 1.407468915 0.1172336787
-1.812801957 1.424485564 0.1979924589
-2.174163342 1.709669113 0.3344660103
-2.16044569 1.699492335 0.4286819696
-2.174773455 1.711992264 0.529748559
-2.167795897 1.707725525 0.6271601319
-2.15536046 1.698538899 0.7237101197
-2.166627884 1.712327242 -0.7283688784
-2.183156013 1.726009846 -0.6325589418
-2.167504787 1.714864731 -0.5289853215
-2.16004014 1.709572911 -0.4296205938
-2.161957979 1.712317586 -0.333491087
-2.153454781 1.706807017 -0.2366896123
-1.731005311 1.372469068 -0.1135701686
-2.160209894 1.714003563 -0.0474338457
-1.791671991 1.415992498 0.03916140646
-1.803174615 1.426106691 0.1182803959
-1.79219532 1.41844058 0.1962493509
-2.163812876 1.713173151 0.3337348402
-2.148306847 1.702116489 0.4274305105
-2.153698444 1.707000136 0.5259323716
-2.162121058 1.714904904 0.6271601319
-2.144878387 1.702449679 0.7221571803
-2.157914162 1.717096925 -0.7273336053
-2.155775309 1.716625214 -0.6262603402
-2.149521112 1.712257266 -0.5259323716
-2.036665678 1.623522282 -0.4058425426
-2.152863741 1.717378497 -0.3330036104
-2.147484064 1.714313269 -0.2366896123
-1.719960809 1.373518229 -0.1131514683
-2.135468483 1.706552625 -0.04701498896
-1.818009257 1.44714582 0.03985949978
-1.813807845 1.44483602 0.119327113
-1.809296489 1.441758513 0.1986896992
-2.142299652 1.708338737 0.3312974572
-2.148528099 1.714533687 0.4286819696
-2.138520956 1.707157969 0.5236426592
-2.15307641 1.720009208 0.6262603402
-2.140432119 1.711132169 0.7226748466
-2.151605844 1.724995017 -0.7273336053
-2.145209789 1.720481515 -0.6249106526
-2.144761562 1.721353412 -0.5263140202
-2.132350683 1.712615728 -0.4264918864
-2.14066577 1.719909549 -0.3320286274
-2.138381481 1.719302177 -0.2363409996
-1.727364182 1.38982892 -0.1139888465
-2.101457834 1.691427946 -0.04638670012
-2.100020409 1.683637857 0.04628198594
-1.82433188 1.463657141 0.1203738302
-1.931396365 1.550663233 0.2129832506
-2.13168025 1.71207726 0.3305662274
-2.14253068 1.722022653 0.4286819696
-2.126129866 1.710063338 0.5221162438
-2.133094788 1.716892004 0.6222112179
-2.126922369 1.71253562 0.7200866342
-2.142565489 1.730067372 -0.7262982726
-2.13282609 1.723433852 -0.6231110096
-2.131106377 1.722658157 -0.5244059563
-2.130966425 1.72377634 -0.4274305105
-2.122004747 1.717751861 -0.3300787508
-2.12772131 1.722995043 -0.2358180583
-1.738019586 1.408424616 -0.1150355637
-2.117288351 1.716382742 -0.04687536508
-2.118725538 1.711427927 0.04684046283
-1.800569654 1.454953432 0.1191177741
-2.118079185 1.712739229 0.2345978767
-2.12230444 1.717381477 0.3300787508
-2.116546869 1.713333607 0.4246146679
-2.118622541 1.71623826 0.5217345953
-2.116492033 1.715737343 0.6190618873
-2.123932838 1.722382545 0.7211219072
-2.120026827 1.724127889 -0.7206043005
-2.128611326 1.731726646 -0.6235609055
-2.118990183 1.72512877 -0.5228794217
-2.123707056 1.729585409 -0.4271176159
-2.116296768 1.724779248 -0.3300787508
-2.110886335 1.72159636 -0.2345978767
-1.736434579 1.416705728 -0.1152449176
-2.100441217 1.714910388 -0.04663103446
-2.11303854 1.718444586 0.04684046283
-1.851247311 1.506614804 0.1228859723
-2.115177393 1.722638607 0.2349465042
-2.113519669 1.721902013 0.3295912445
-2.104428768 1.715718985 0.4233632088
-2.115962505 1.72573638 0.5224978328
-2.11079073 1.722746611 0.6190618873
-2.105937719 1.720009804 0.7169808149
-2.105329275 1.723805666 -0.7174984813
-2.122553349 1.739146233 -0.6235609055
-2.108702421 1.72841239 -0.5217345953
-2.102383614 1.724460363 -0.4239889383
-2.095626593 1.721366525 -0.2335520089
-1.740737438 1.430366278 -0.1158729419
-2.088264465 1.717151046 -0.04649141803
-2.108574152 1.727077127 0.04687536508
-2.022069693 1.657403469 0.1348185539
-2.098668575 1.720800519 0.2337263227
-2.109030724 1.730528474 0.3298349977
-2.103007317 1.726814508 0.4243018329
-2.097789049 1.723142862 0.5194448829
-2.103258848 1.728866577 0.6186119914
-2.086493015 1.716305733 0.7123220563
-2.104958296 1.736427426 -0.7195689678
-2.101439238 1.734141469 -0.6190618873
-2.099326134 1.733628869 -0.5209713578
-2.089958429 1.727121115 -0.4227374792
-2.094210386 1.732481241 -0.2340749502
-1.738560081 1.439284086 -0.1160822809
-2.083797693 1.725705504 -0.04652632028
-2.084022045 1.719156504 0.04645651206
-2.087123394 1.722940207 0.1396334618
-2.096955299 1.732287765 0.2342492491
-2.093796015 1.730292559 0.3283725679
-2.093922138 1.731627107 0.4236761034
-2.083896399 1.724562168 0.517536819
-2.098409414 1.73780632 0.6190618873
-2.080489159 1.723578453 0.7123220563
-2.092940092 1.738826871 -0.7174984813
-2.090574026 1.738094091 -0.6177121997
-2.093261242 1.740946889 -0.5209713578
-2.080880642 1.7318784 -0.4221117496
-2.082560778 1.734508157 -0.3276413381
-1.733525276 1.44534409 -0.1160822809
-2.077760696 1.732969403 -0.04652632028
-2.083858252 1.731896281 0.04659612849
-2.068810463 1.720000029 0.138796106
-2.084769249 1.734499931 0.2335520089
-2.075235605 1.727794051 0.3264226317
-2.081793547 1.733869195 0.4224245846
-2.07786417 1.731825352 0.517536819
-2.081854582 1.736383796 0.6159126163
-2.077427149 1.733305216 0.7133573294
-2.088339329 1.747361898 -0.7180161476
-2.075832605 1.737512231 -0.6150127649
-2.075130939 1.738158107 -0.5179184079
-2.078154087 1.741306543 -0.4227374792
-2.066149473 1.732476473 -0.325935185
-2.069854259 1.736813784 -0.2326804549
-1.724133611 1.447232604 -0.1157682762
-1.531191826 1.28618896 -0.03420491889
-2.071969032 1.733664274 0.04645651206
-2.053605556 1.719518185 0.1381680667
-2.075648069 1.739206672 0.2332033813
-2.067973137 1.733391166 0.3261789382
-2.062107563 1.729699612 0.4196088016
-2.066093922 1.733658433 0.516010344
-2.067131042 1.735758543 0.6132131815
-2.058053017 1.729361057 0.7086986303
-2.06775856 1.741831541 -0.7128397226
-2.06379509 1.739723802 -0.6132131815
-2.061851501 1.73870182 -0.516010344
-2.058475971 1.737084389 -0.4199216366
-1.485704422 1.255962014 -0.09975346923
-1.488525748 1.259238124 -0.03333229944
-2.064375639 1.739597082 0.04642160237
-2.047590733 1.726676226 0.1381680667
-2.065300465 1.742226481 0.2326804549
-2.067977428 1.745721102 0.3271538615
-2.047002792 1.729239106 0.4177315831
-2.058530331 1.73959291 0.5156286955
-2.055107594 1.737930417 0.6114135981
-2.047579765 1.732790709 0.7071456909
-2.055773497 1.744039059 -0.7107691765
-1.473660469 1.251524448 -0.3675609529
-1.469879985 1.249197721 -0.2988413572
-1.46919167 1.24993813 -0.1650476009
-1.487394571 1.266319036 -0.1001721546
-1.481076717 1.261832833 -0.03326249123
-2.041519642 1.732559681 0.04603765532
-2.038506746 1.73122704 0.1379587203
-2.047059059 1.739105225 0.2312859595
-2.055821896 1.747785568 0.3261789382
-2.039449453 1.735093951 0.4174186885
-2.047960043 1.742950678 0.5144838691
-2.04309392 1.740039349 0.609613955
-1.463632703 1.25050211 -0.5042315722
-1.46357429 1.251336098 -0.4346020222
-1.472266912 1.259212971 -0.3683241904
-1.467011213 1.255605459 -0.299154222
-1.467658997 1.256603003 -0.232095778
-1.478436589 1.266725898 -0.1666163951
-1.479932547 1.268903732 -0.09996281564
-1.487509131 1.275850534 -0.03350682184
-2.032419205 1.737076759 0.04596783966
-2.037308693 1.741871238 0.1382727325
-2.040975809 1.746240139 0.2312859595
-2.034629345 1.742040515 0.3237415254
-2.038185358 1.745702505 0.4183573127
-2.031429529 1.741144896 0.5118125677
-1.541648388 1.322752714 0.5327016711
-1.471194625 1.265426874 -0.5083726645
-1.462370515 1.258725166 -0.4355018139
-1.479984879 1.274336457 -0.3713771105
-1.476307631 1.272068381 -0.3019700646
-1.474009037 1.270535469 -0.233801946
-1.487805963 1.283333898 -0.1681852043
-1.48630023 1.282939315 -0.1006955206
-1.510513544 1.304300666 -0.03413511068
-2.020584345 1.73859024 0.04582822323
-2.020925045 1.739497066 0.1375400275
-2.030645132 1.749097824 0.2307630181
-2.016812563 1.738409877 0.3217916191
-1.547024369 1.334884048 0.3889315724
-1.54912293 1.337166548 0.4624959528
-1.535791397 1.326594949 0.5321840048
-1.472831964 1.275357127 -0.5104432106
-1.475861549 1.278881431 -0.4409006536
-1.477234364 1.2805233 -0.371758759
-1.482526422 1.286017776 -0.3041601181
-1.486054897 1.289987087 -0.2364830822
-1.513629198 1.314387202 -0.1716714352
-1.498620868 1.302271724 -0.1018469036
-1.507460833 1.310877323 -0.03417001665
-2.01178503 1.742662787 0.04575841501
-2.004276514 1.737383485 0.1368073374
-2.018812656 1.750601172 0.2300657779
-1.529581547 1.328239799 0.3141719699
-1.518874764 1.319406867 0.3828256726
-1.531209111 1.331059933 0.4584468603
-1.542811751 1.342091084 0.5363250971
-1.472738981 1.284299493 -0.5119960904
-1.48313427 1.294276357 -0.4444998801
-1.481629491 1.293418765 -0.3740484715
-1.51224494 1.321075439 -0.3113561273
-1.508444786 1.318683743 -0.2408703715
-1.507532239 1.318350911 -0.1714971066
-1.512101769 1.323279262 -0.1031029746
-1.507388949 1.320083737 -0.03427473083
-2.014731407 1.757561207 0.04596783966
-1.506952047 1.315987349 0.1713228077
-1.525116801 1.33278954 0.2435515076
-1.527909875 1.336171269 0.3147976995
-1.526080966 1.335042 0.3858786225
-1.525087357 1.33511281 0.4579969347
-1.533757925 1.343649745 0.5347722173
-1.476956606 1.297080874 -0.5151019692
-1.513738394 1.330319762 -0.4552974999
-1.506595254 1.324507713 -0.3816808164
-1.509107471 1.327651024 -0.311668992
-1.50532198 1.325253129 -0.2411140949
-1.501426101 1.322288394 -0.1713228077
-1.520959258 1.340433955 -0.104045026
-1.513502955 1.334332108 -0.03451906517
-1.518834114 1.334327817 0.03458887339
-1.513827682 1.330398321 0.1034169868
-1.521798372 1.338344932 0.1735888571
-1.517474651 1.335482121 0.2430640161
-1.508643985 1.328177691 0.311668992
-1.528777003 1.346850038 0.3877867162
-1.537958741 1.355892897 0.4633957446
-1.536538482 1.355117321 0.5373603702
-1.50425601 1.330384851 -0.5264900327
-1.506399393 1.332749724 -0.4543977082
-1.504902482 1.33236146 -0.3824440241
-1.498781204 1.327409267 -0.3104175031
-1.499433875 1.328920841 -0.2408703715
-1.498291731 1.328843236 -0.1714971066
-1.506047606 1.336191773 -0.1033123136
-1.505845428 1.336951971 -0.03444925696
-1.509907246 1.335382819 0.0344841592
-1.515157223 1.340968847 0.1038356721
-1.520100355 1.346290708 0.1739374846
-1.518981218 1.345772624 0.2440389842
-1.527647853 1.354403257 0.3166748881
-1.521364689 1.349306703 0.3870234787
-1.53928411 1.366159916 0.4651953876
-1.539020896 1.366886854 0.5399485826
-1.507050276 1.341789007 -0.5290782452
-1.498828411 1.335406899 -0.4534979165
-1.51513195 1.350407243 -0.3862602115
-1.502983689 1.340522051 -0.3122947216
-1.508114338 1.346043587 -0.2430640161
-1.504280567 1.343093395 -0.172717303
-1.490948677 1.332125664 -0.1025796086
-1.513095379 1.352862716 -0.03472849354
-1.506729722 1.341975808 0.03451906517
-1.50301218 1.339605212 0.1033123136
-1.518601894 1.35397625 0.1742860973
-1.521680593 1.357674122 0.2452576756
-1.527331471 1.363674521 0.3176134825
-1.528359652 1.365071297 0.3900764287
-1.547582507 1.383212447 0.4692444801
-1.552959204 1.388993382 0.5466778874
-1.512425661 1.356068969 -0.5327016711
-1.497058749 1.343233585 -0.4543977082
-1.489954472 1.337328672 -0.3809175789
-1.499765277 1.347080112 -0.3126076162
-1.490119338 1.339356899 -0.2408703715
-1.50254643 1.351000071 -0.1730659306
-1.510045052 1.35869658 -0.104254365
-1.506877303 1.35679853 -0.03469358757
-1.51096797 1.355238318 0.03472849354
-1.496840715 1.343509436 0.1032076478
-1.528691053 1.372579813 0.1760292053
-1.528744698 1.373592019 0.247207582
-1.525500298 1.371638775 0.3182392418
-1.533802629 1.379588604 0.3927477598
-1.545642018 1.391213298 0.4701443017
-1.552407384 1.398284435 0.5482307673
-1.483307242 1.33933115 -0.5239017606
-1.495252609 1.351064086 -0.4552974999
-1.479450941 1.337255955 -0.3793911338
-1.49651885 1.353632212 -0.3129204512
-1.485435247 1.344549775 -0.2408703715
-1.50077498 1.358911276 -0.1734145433
-1.505293369 1.363958955 -0.104254365
-1.5065763 1.366080046 -0.03479830176
-1.516615987 1.369886637 0.03497282788
-1.509921551 1.364797831 0.1044637039
-1.525368929 1.379243731 0.176203534
-1.528356433 1.382915616 0.2479388118
-1.522167206 1.378281355 0.3185521066
-1.54207325 1.396796227 0.3961822987
-1.550882936 1.405761719 0.4732936025
-1.553241014 1.408886433 0.550301373
-1.465759635 1.332803488 -0.5192430615
-1.481879473 1.348405719 -0.4525981247
-1.48638916 1.35298419 -0.3824440241
-1.487403274 1.354857564 -0.3119818568
-1.499804735 1.367111325 -0.2440389842
-1.501911283 1.369512081 -0.1741117984
-1.475441933 1.34631896 -0.1024749354
-1.519518852 1.387510777 -0.0352171585
-1.517741919 1.380554438 0.03511244431
-1.519918561 1.383504272 0.1055104285
-1.52496469 1.388584137 0.1767264754
-1.532323837 1.396263838 0.2494012117
-1.529023647 1.394234419 0.3210550547
-1.532837033 1.398200989 0.3950374424
-1.554602027 1.419049501 0.4759930074
-1.545460701 1.411693692 0.5492660403
-1.471071601 1.347044349 -0.5228664875
-1.487220883 1.362786651 -0.4557474256
-1.484551787 1.360817671 -0.3832073212
-1.494310617 1.370723248 -0.3144848049
-1.511109591 1.387104511 -0.2467200756
-1.505926847 1.382831335 -0.1751576513
-1.470733047 1.351461411 -0.1024749354
-1.523498297 1.40092802 -0.03542659059
-1.518812299 1.391246676 0.03525206819
-1.519497037 1.39285028 0.1058244407
-1.531855941 1.404671192 0.1781209707
-1.530365825 1.404288292 0.2498886883
-1.535787821 1.410251498 0.3235580027
-1.523609638 1.399558902 0.393892616
-1.56398654 1.43765533 0.4804920554
-1.554741144 1.430158854 0.5544424057
-1.476302028 1.361338496 -0.5264900327
-1.469565272 1.356075764 -0.451698333
-1.498546243 1.383303046 -0.388168335
-1.501125097 1.386654139 -0.3169877529
-1.507716298 1.393718481 -0.2469638288
-1.515718937 1.40160656 -0.1769007742
-1.457211375 1.34844768 -0.1018469036
-1.524467707 1.411672235 -0.03556620702
-1.524235249 1.406031251 0.03549639881
-1.510222793 1.394081593 0.1055104285
-1.543044686 1.42487812 0.1800383776
-1.52545464 1.409621835 0.2498886883
-1.549710274 1.433038831 0.3276253045
-1.518715024 1.404868722 0.393892616
-1.554668427 1.439134359 0.479142338
-1.561077595 1.446079493 0.5585835576
-1.487113118 1.380943179 -0.5321840048
-1.469105124 1.365176797 -0.4530479908
-1.490832806 1.385851622 -0.3874050677
-1.502061009 1.397267461 -0.3182392418
-1.502842188 1.398972869 -0.2469638288
-1.519565701 1.415035605 -0.177946642
-1.437883735 1.339909911 -0.1008001864
-1.519530654 1.416984916 -0.03556620702
-1.523713112 1.415426254 0.03560111299
-1.503884912 1.397984624 0.1054057479
-1.539520502 1.431612492 0.1802126914
-1.535057068 1.428461313 0.2523260713
-1.543252826 1.437093258 0.3273124397
