# .PCD v0.7 - Point Cloud Data file format
VERSION 0.7
FIELDS x y z
SIZE 4 4 4
TYPE F F F
COUNT 1 1 1
WIDTH 1191
HEIGHT 1
VIEWPOINT 0 0 0 1 0 0 0
POINTS 1191
DATA ascii
-2.693576097 -0.4054417014 -0.2345978767
-2.711945772 -0.4072393775 -0.1415175647
-2.699473143 -0.4044023752 -0.04694517702
-2.692760706 -0.4086844027 0.04684046283
-3.288073301 -0.4978610873 0.1720817685
-3.802395344 -0.5750588775 0.3327352405
-3.814483166 -0.5755242705 0.4685223103
-3.778842688 -0.5687978864 0.59856987
-3.82227397 -0.574653089 0.7430730462
-3.607918978 -0.5411385298 0.8323155046
-3.762892246 -0.5630403757 1.007893443
-1.953926802 -0.2899249792 -0.5176901221
-2.666288853 -0.3946739733 -0.6123133898
-2.687513113 -0.3973370194 -0.5198264718
-2.686141491 -0.3961755633 -0.4233632088
-2.712827921 -0.3991447091 -0.3315411508
-2.693003654 -0.3957471251 -0.2344235629
-2.701493979 -0.3960315585 -0.1408895403
-2.718676329 -0.3975818157 -0.04725931957
-2.684280396 -0.3978165686 0.04666594043
-3.315476418 -0.4901786745 0.1734425128
-3.788611412 -0.5594539642 0.3313407302
-3.841999531 -0.5659674406 0.471690923
-3.794485807 -0.5576140881 0.6007599235
-3.832026482 -0.5624485612 0.7445995212
-3.617498875 -0.5296704173 0.8341151476
-3.783950329 -0.5526931286 1.013069749
-1.953015327 -0.2828258276 -0.5171725154
-2.667650223 -0.3853650689 -0.6123133898
-2.690826654 -0.3882337213 -0.5202081203
-2.683597565 -0.3862345219 -0.4227374792
-2.706345081 -0.3885436356 -0.3305662274
-2.70620203 -0.3880417347 -0.2354694307
-2.694951534 -0.3854679167 -0.1404708475
-2.720047474 -0.3880893588 -0.04725931957
-2.689610958 -0.3890173435 0.04673574865
-3.327051163 -0.4800284803 0.1739658713
-3.806317329 -0.5484982133 0.3327352405
-3.818408012 -0.5488809943 0.4685223103
-3.788587332 -0.5432447195 0.5995084643
-3.837853193 -0.5496254563 0.7453627586
-3.607750416 -0.5153869987 0.8314157128
-3.787769318 -0.5397537947 1.013587475
-1.953990579 -0.276006788 -0.5171725154
-2.676697731 -0.3771383166 -0.6141129732
-2.688277483 -0.3782914281 -0.5194448829
-2.694710493 -0.3782375157 -0.4243018329
-2.703752756 -0.37854442 -0.3300787508
-2.705566645 -0.3783169389 -0.2352951169
-2.700236559 -0.3766107857 -0.140680179
-2.707521439 -0.3766627908 -0.04701498896
-2.696892738 -0.3804638088 0.04684046283
-3.3247509 -0.4678552747 0.1737565249
-3.80623579 -0.5349318981 0.3325609267
-3.855686426 -0.5405093431 0.4729096293
-3.790460587 -0.5300166607 0.5995084643
-3.837804079 -0.5359528661 0.7449811101
-3.601807117 -0.5017149448 0.8296161294
-3.793457031 -0.5270611644 1.014622688
-1.945373178 -0.2678667307 -0.5145843625
-2.670275688 -0.3667319715 -0.6123133898
-2.683746338 -0.3681048453 -0.5183000565
-2.696014404 -0.3688288331 -0.4243018329
-2.710958004 -0.3699093163 -0.3308099508
-2.706870794 -0.3688703775 -0.2352951169
-2.707472086 -0.3679898083 -0.1409942061
-2.70287466 -0.366404146 -0.04691027477
-2.710090637 -0.3726820052 0.0470498912
-3.330321312 -0.456789583 0.1739658713
-3.821897507 -0.5235350728 0.3337811232
-3.788373232 -0.5162487626 0.5988827348
-3.851323605 -0.5241425037 0.7472708225
-3.611260653 -0.4901876152 0.8314157128
-3.783787489 -0.5122612119 1.011516929
-1.934808016 -0.2595334053 -0.5114784837
-2.679265261 -0.3584429026 -0.6141129732
-2.686961174 -0.3589944839 -0.5186816454
-2.69336915 -0.3588938117 -0.4236761034
-2.714200974 -0.3607055247 -0.331053704
-2.696291447 -0.3578465879 -0.2342492491
-2.714680195 -0.3593228757 -0.1413082182
-2.708102465 -0.3574904799 -0.04698008299
-2.697500944 -0.3613611162 0.04680555686
-3.302200794 -0.4411942661 0.1723957807
-3.827651501 -0.5107178092 0.3341297209
-4.08959198 -0.5442153811 0.5014270544
-3.776444674 -0.5012024045 0.5966926217
-3.823935986 -0.5068262219 0.7415465713
-3.616813421 -0.4780896008 0.8323155046
-3.760654211 -0.495767653 1.004787683
-1.941449046 -0.2535284758 -0.5130314231
-2.670838118 -0.3478293121 -0.6118634343
-2.688197851 -0.3496129811 -0.5186816454
-2.686769724 -0.3484736383 -0.4224245846
-2.715443373 -0.3512295485 -0.331053704
-2.695548534 -0.3481773138 -0.2340749502
-2.707994461 -0.3488239646 -0.1408895403
-2.715223074 -0.3492733836 -0.04708479717
-2.692797184 -0.3511676788 0.04670084268
-3.333353519 -0.4341101646 0.1739658713
-3.797798157 -0.4932487905 0.3313407302
-3.890665054 -0.5039282441 0.4765656888
-3.791799307 -0.4904510081 0.5988827348
-3.817893505 -0.4924703836 0.7400200963
-3.618460417 -0.4654615521 0.8323155046
-3.775690079 -0.4850170314 1.00841105
-1.942322135 -0.2467504293 -0.5130314231
-2.671976805 -0.3389711082 -0.6118634343
-2.703035831 -0.3419526517 -0.5213530064
-2.69574976 -0.3405523002 -0.4236761034
-2.712654114 -0.3417265713 -0.3305662274
-2.702677965 -0.3395108879 -0.2345978767
-2.697245598 -0.3383509815 -0.1402615011
-2.706504345 -0.3385522366 -0.04691027477
-2.701882124 -0.3432440758 0.04684046283
-3.350699902 -0.4244799614 0.1748032421
-3.8429842 -0.4854816794 0.3351756036
-3.82141304 -0.4820790887 0.4677911103
-3.797407866 -0.4777042568 0.5995084643
-3.833141327 -0.4815198779 0.7426914573
-3.616116762 -0.4529751539 0.8314157128
-3.78886199 -0.4732719362 1.011516929
-1.946964145 -0.2407822311 -0.5140666962
-2.667341709 -0.3289258778 -0.6105137467
-2.727537394 -0.3358663619 -0.5259323716
-2.73025322 -0.3352327645 -0.4289948642
-2.763089657 -0.3382863104 -0.3366596699
-2.885734081 -0.352789849 -0.250634551
-3.576694965 -0.4359949231 -0.1866311729
-3.579122782 -0.4350239336 -0.06223348528
-3.395771265 -0.4181520641 0.1771060228
-3.834685326 -0.4715201557 0.3343040347
-3.817161322 -0.4680129588 0.4670598805
-3.806895733 -0.4654046595 0.6007599235
-3.838696241 -0.4686133862 0.7434546947
-3.606069088 -0.438936919 0.8287162781
-3.790490866 -0.4600424469 1.011516929
-1.9382025 -0.2328324616 -0.5114784837
-3.553273678 -0.4249607027 -0.6873568296
-3.556680441 -0.4228490889 -0.4346426427
-3.567550898 -0.4235109091 -0.310597688
-3.588112354 -0.4246809185 -0.1871545315
-3.564732075 -0.420652926 -0.06195424497
-3.597670794 -0.4315433502 0.06254762411
-3.349615335 -0.400603801 0.1745938957
-3.832350969 -0.4576581717 0.3339554071
-3.864108801 -0.4600836933 0.4726658762
-3.792804241 -0.4502511919 0.5982570052
-3.832510233 -0.4542864859 0.7419282198
-3.611449957 -0.4268049002 0.8296161294
-3.803585052 -0.4481645823 1.014622688
-1.92365253 -0.2242756635 -0.5073373914
-2.203067303 -0.2560728192 -0.5020873547
-3.543034315 -0.4111967981 -0.6850671172
-3.558649063 -0.4117501974 -0.5607126951
-3.579826832 -0.4129343629 -0.4373237491
-3.565048933 -0.4105992615 -0.3102490604
-3.579651594 -0.4110150933 -0.1866311729
-3.574125767 -0.4091158509 -0.06209386885
-3.682579279 -0.4286947846 0.06401363015
-3.479949474 -0.4038752913 0.1813975722
-3.796321392 -0.4399212897 0.3306435049
-3.840055943 -0.4436300099 0.4694972932
-3.802202225 -0.4379130304 0.5995084643
-3.849675655 -0.4426990151 0.7449811101
-3.620661736 -0.4150837064 0.8314157128
-3.793610334 -0.4335686266 1.011516929
-2.180709839 -0.2457621992 -0.4966884851
-3.645896912 -0.4102418423 -0.704911232
-3.558101654 -0.39910537 -0.5603998303
-3.585192204 -0.4008769691 -0.4378112257
-3.568440437 -0.3983733356 -0.3104233742
-3.57312417 -0.3976335526 -0.1862124801
-3.593419552 -0.3986214995 -0.06240800768
-3.692001104 -0.416734606 0.06415324658
-3.815653086 -0.4286687374 0.3322122991
-3.83368969 -0.4293400943 0.4685223103
-3.809597492 -0.4252956212 0.6004470587
-3.827783823 -0.4266486168 0.7404017448
-3.622088671 -0.40244174 0.8314157128
-3.795100451 -0.4203245938 1.011516929
-3.582622528 -0.38793239 -0.4373237491
-3.579713821 -0.3869844973 -0.3112949133
-3.582433701 -0.3860144019 -0.1866311729
-3.612683296 -0.3879982829 -0.06272215396
-3.699397087 -0.4044965506 0.06425796449
-3.810292244 -0.4152761698 0.1986684501
-3.819107056 -0.4155624211 0.3323866129
-3.815429688 -0.4138148427 0.4660849273
-3.801239014 -0.4109324515 0.5988827348
-3.817538023 -0.4120213687 0.7381119728
-3.619596481 -0.3893788755 0.8305159211
-3.809990406 -0.408516258 1.015140414
-1.341883659 -0.1422217041 -0.3499754071
-1.430444956 -0.151103124 -0.322126478
-1.501001477 -0.1582913846 -0.2851314545
-3.601723433 -0.3772863746 -0.4395174384
-3.590950489 -0.3755234778 -0.3121664822
-3.589718819 -0.3741271794 -0.1869451702
-3.586169958 -0.3724928498 -0.06223348528
-3.702775002 -0.3917919993 0.06429287046
-3.817677259 -0.4026014805 0.1989824474
-3.836385965 -0.4038984179 0.3337811232
-3.838567972 -0.4027726054 0.4687660635
-3.812473536 -0.3986892402 0.6004470587
-3.834574223 -0.4003238678 0.7411649227
-3.613180399 -0.3759358227 0.8287162781
-3.815236092 -0.395611912 1.016175628
-1.305857897 -0.1337959021 -0.3401402831
-1.357294679 -0.1385869831 -0.3050302267
-1.380450487 -0.140708223 -0.2614711523
-1.421913385 -0.1444327086 -0.2196855247
-3.582328081 -0.3619847894 -0.3112949133
-3.589015722 -0.3613950908 -0.1868405193
-3.583405972 -0.3601985276 -0.06216367334
-3.694173813 -0.3778461814 0.06411834806
-3.824952126 -0.3905478716 0.1992964596
-3.837772369 -0.3905034363 0.3337811232
-3.816250801 -0.3869686723 0.4658411741
-3.809844017 -0.3856464028 0.5998213291
-3.843761683 -0.387725234 0.7426914573
-3.622226715 -0.3641007245 0.8305159211
-3.801149368 -0.381415695 1.012034535
-1.281324863 -0.126764223 -0.3334109783
-1.33447504 -0.1317870021 -0.299631387
-1.361395121 -0.1339660287 -0.2576549649
-1.40272522 -0.1377855539 -0.2165568471
-3.592182159 -0.3496848643 -0.1869451702
-3.596583605 -0.3488461077 -0.06237310171
-3.643666744 -0.3604758084 0.06321082264
-3.846168041 -0.3791541159 0.2003431916
-3.851009369 -0.3782732487 0.3348269761
-3.841220856 -0.3766358197 0.4687660635
-3.815099239 -0.3727292717 0.6004470587
-3.864566088 -0.3768812418 0.7465076447
-3.631172419 -0.3528406918 0.8323155046
-3.790920734 -0.3670277894 1.008928776
-1.274045825 -0.1217791885 -0.3313404322
-1.309707403 -0.1247265637 -0.2937826514
-1.33251524 -0.126663968 -0.2519307137
-1.344200373 -0.1273012906 -0.2071707696
-1.44530499 -0.1363669932 -0.1731110066
-3.595369339 -0.3373301327 -0.1870498508
-3.597720861 -0.3369173408 -0.06237310171
-3.599117756 -0.3433855772 0.06240800768
-3.855357647 -0.3671549261 0.2007618845
-3.848275423 -0.3651242256 0.3344783485
-3.850416899 -0.3639722764 0.4697410166
-3.832046986 -0.3615601659 0.6029500365
-3.858039141 -0.3626549244 0.7449811101
-3.632382154 -0.3401632905 0.8323155046
-3.817121744 -0.3567917049 1.015658021
-1.259073496 -0.1159143299 -0.3271993399
-1.281005263 -0.1177079901 -0.2870341241
-1.301667929 -0.119148463 -0.2458247989
-1.322976112 -0.1208660901 -0.2037292123
-1.390395522 -0.1265357882 -0.1662863195
-3.586522818 -0.3245056272 -0.1865264922
-3.604849577 -0.3248961568 -0.06247781962
-3.588289022 -0.3303493559 0.06219857931
-3.842693329 -0.3524180353 0.2000291646
-3.85746336 -0.352414906 0.3351756036
-3.841718435 -0.3503004014 0.4685223103
-3.827383995 -0.3476454616 0.6020113826
-3.859220505 -0.3498590887 0.7449811101
-3.631549358 -0.327940613 0.8318656087
-3.81449604 -0.343119055 1.014622688
-1.24020803 -0.1100311801 -0.3220229447
-1.261996627 -0.1115203127 -0.2825351059
-1.280543685 -0.1129340604 -0.2416269928
-1.301743984 -0.1143458858 -0.2002876401
-1.335457683 -0.1168372706 -0.1594616324
-3.585643768 -0.3118112087 -0.1864218116
-3.599985123 -0.3117923141 -0.06237310171
-3.595396042 -0.3183508813 0.06230329722
-3.841910601 -0.3388268054 0.1999244988
-3.864564896 -0.3401441574 0.335698545
-3.829075336 -0.3356745541 0.4668161571
-3.828574181 -0.334284097 0.6020113826
-3.86041832 -0.3363856375 0.7449811101
-3.62878871 -0.314925909 0.8309657574
-3.771402836 -0.3259755671 1.002717018
-1.219411016 -0.1038975865 -0.316328913
-1.244902372 -0.1056315601 -0.2784859836
-1.257454991 -0.1064753383 -0.237047568
-1.278514743 -0.1078094319 -0.1965332329
-1.296294808 -0.1088530496 -0.1545868665
-1.703821182 -0.1427745968 -0.1458733231
-3.592681646 -0.2997920811 -0.1867358387
-3.587101698 -0.2980648875 -0.06212876737
-3.586522818 -0.304951489 0.06212876737
-3.839089632 -0.3250759542 0.1997151673
-3.863743067 -0.3264852762 0.3355242312
-3.869785547 -0.3256345987 0.471690923
-3.810033083 -0.3192681968 0.5988827348
-3.86548233 -0.3232344091 0.7457444072
-3.6337502 -0.3025805056 0.8318656087
-3.795620918 -0.314725399 1.008928776
-1.210139036 -0.09885366261 -0.3137407303
-1.23749423 -0.1006537303 -0.2766863704
-1.242164493 -0.1008150727 -0.2339946181
-1.251317739 -0.1011186391 -0.1921530664
-1.282815814 -0.1032130122 -0.1528806984
-3.650588751 -0.2930775881 -0.316698581
-3.59768796 -0.2875676453 -0.1869451702
-3.594100475 -0.2860184014 -0.06223348528
-3.573613882 -0.291293025 0.06188444048
-3.85413599 -0.3128048182 0.2004478574
-3.846986294 -0.3115487397 0.3339554071
-3.884749413 -0.313242197 0.4733970761
-3.820969582 -0.3067561388 0.6004470587
-3.850930929 -0.3084860444 0.7426914573
-3.630898952 -0.2895836532 0.8309657574
-3.812102318 -0.3026974797 1.013069749
-1.202772737 -0.09402659535 -0.3116701841
-1.216466427 -0.09466990829 -0.2717374265
-1.238594055 -0.09617450088 -0.2332313955
-1.222120523 -0.09446622431 -0.1874600202
-1.269313693 -0.0976684317 -0.1511745304
-3.651589632 -0.2803336382 -0.316698581
-3.586721182 -0.2740944028 -0.1863171607
-3.603052616 -0.2740775049 -0.06237310171
-3.570621729 -0.2785067558 0.06181462854
-3.86117816 -0.299813211 0.2007618845
-3.854009628 -0.2985808551 0.3344783485
-3.885819197 -0.2996798754 0.4733970761
-3.820047617 -0.293266207 0.6001341939
-3.869601965 -0.2963912189 0.7461259961
-3.639660358 -0.2775010467 0.8327654004
-3.822767258 -0.2901188731 1.015658021
-1.193461299 -0.08910862356 -0.3090820014
-1.207072616 -0.08970094472 -0.2694879174
-1.221301317 -0.09054400027 -0.2297968417
-1.216532826 -0.0897635445 -0.1865214258
-1.245889664 -0.09149244428 -0.148249656
-3.592934132 -0.2632182539 -0.3114692271
-3.575704098 -0.2607012391 -0.1856891215
-3.601993084 -0.2613540292 -0.06233820319
-3.565589428 -0.2655955255 0.06170991436
-3.858217478 -0.2860378921 0.2005525231
-3.872910976 -0.2864485681 0.3360471725
-3.95811224 -0.2913601696 0.4821716845
-3.823018074 -0.2800741792 0.6004470587
-3.860822916 -0.2821663916 0.7442178726
-3.640606642 -0.2647944987 0.8327654004
-3.83531785 -0.277610749 1.018763781
-1.195691943 -0.08507919312 -0.3095996082
-1.197659016 -0.08479873836 -0.2672384083
-1.21769321 -0.08600394428 -0.2290336043
-1.206986189 -0.08482404798 -0.1849570721
-1.214517474 -0.08492732793 -0.1443498433
-3.593831062 -0.2506748736 -0.3114692271
-3.580577374 -0.2484945804 -0.185898453
-3.588918924 -0.2478147745 -0.06209386885
-3.570484161 -0.2534298897 0.06177972257
-3.857200146 -0.2724285722 0.2004478574
-3.889787436 -0.2740469873 0.337441653
-4.133365631 -0.2897589207 0.5036206841
-3.837766647 -0.2676897347 0.6026371717
-3.881369352 -0.2700513303 0.74803406
-3.633732319 -0.2515463531 0.8309657574
-3.838190794 -0.2643539608 1.019281507
-1.182489634 -0.0799922049 -0.3059761822
-1.197947621 -0.08061785996 -0.2672384083
-1.194479823 -0.08017479628 -0.2244541794
-1.201361895 -0.08021580428 -0.1840184629
-1.193018556 -0.07924016565 -0.141668722
-3.584785223 -0.2368443012 -0.310597688
-3.585408926 -0.2362570614 -0.1861078143
-3.585771084 -0.2350239158 -0.06202405691
-3.579327583 -0.2415034026 0.061919339
-3.876062632 -0.2601655722 0.2013899088
-3.888732195 -0.2603342533 0.3372673392
-4.102660179 -0.2732174397 0.4997208714
-3.828822136 -0.2536397278 0.6010728478
-3.878370762 -0.2562412918 0.7472708225
-3.642366648 -0.2393726856 0.8327654004
-3.814029455 -0.24931629 1.012552142
-1.171207309 -0.07491767406 -0.3028703332
-1.194332242 -0.07618759573 -0.2663386166
-1.198684216 -0.07604512572 -0.225217402
-1.19770503 -0.0755629912 -0.1833927333
-1.193287849 -0.07507552952 -0.141668722
-3.581613302 -0.2240807265 -0.3102490604
-3.588243961 -0.2232382298 -0.1862124801
-3.588565588 -0.2226295322 -0.06205896288
-3.560192823 -0.2277319878 0.0615702942
-3.874954224 -0.2465071082 0.201285243
-3.88966012 -0.2460804433 0.3372673392
-3.939153194 -0.2485204637 0.4794905484
-3.833627462 -0.2405194789 0.6016985774
-3.88124299 -0.2421477288 0.7476524711
-3.643219471 -0.2260201871 0.8327654004
-3.834158421 -0.2371949703 1.017728567
-1.161819935 -0.07024595141 -0.3002821207
-1.180986762 -0.07099109888 -0.263189286
-1.191103458 -0.07139060646 -0.2236909568
-1.184158206 -0.07055953145 -0.1812026501
-1.203463197 -0.07128801197 -0.1428874135
-3.578395844 -0.2113430202 -0.3099004328
-3.590995312 -0.2108285278 -0.1863171607
-3.601298332 -0.210803628 -0.06226839125
-3.549027443 -0.21395877 0.06136086583
-3.881771803 -0.2333398312 0.2015992552
-3.910383701 -0.2336890101 0.3390104473
-3.902387381 -0.2318451107 0.4748595357
-3.842331171 -0.2276032567 0.6029500365
-3.866385937 -0.2276748121 0.7445995212
-3.647876978 -0.2135301232 0.8336651921
-3.834962845 -0.2238087803 1.017728567
-1.162057996 -0.066189982 -0.3002821207
-1.171487689 -0.06652197242 -0.2609397769
-1.197225809 -0.06756426394 -0.2248357981
-1.174524426 -0.06607750803 -0.1796382964
-1.20171082 -0.06718593091 -0.1426436603
-3.583090305 -0.19907175 -0.3102490604
-3.57970953 -0.1982563883 -0.1856891215
-3.586039066 -0.1973522902 -0.06198915094
-3.561695814 -0.2028715909 0.0615702942
-3.870598078 -0.2191110849 0.200971216
-3.907197237 -0.2198147923 0.3386618197
-3.893224955 -0.2183471173 0.4736408293
-3.847046614 -0.2144102752 0.6035757661
-3.878880978 -0.2155054808 0.7468892336
-3.652456522 -0.2016468495 0.8345649838
-3.847294569 -0.2110557258 1.020834446
-2.431605339 -0.1304142028 -0.6408880353
-2.607846022 -0.138953656 -0.5929675698
-2.599195004 -0.1380378008 -0.4976926744
-3.56755209 -0.1882164925 -0.5591483712
-3.566907644 -0.1869340539 -0.4334239662
-3.587742805 -0.1867702603 -0.310597688
-3.582374334 -0.1858638972 -0.1857938021
-3.586706161 -0.1848325282 -0.06198915094
-3.568372965 -0.1907578558 0.06167500839
-3.865356207 -0.2052809745 0.2006572038
-3.911883831 -0.2070673257 0.3390104473
-3.895945787 -0.2048600316 0.4738845825
-3.833962917 -0.2002588958 0.601385653
-3.883530855 -0.2021683604 0.7476524711
-3.645353556 -0.1884935498 0.8327654004
-3.848007917 -0.1976256818 1.020834446
-2.428208113 -0.121308215 -0.6398527622
-2.60247612 -0.1295589656 -0.5916178823
-2.617331266 -0.1293826848 -0.501127243
-3.568217993 -0.1751394421 -0.5591483712
-3.577451944 -0.1749668419 -0.4346426427
-3.564492226 -0.1730858684 -0.3085059524
-3.583031416 -0.172732532 -0.1857938021
-3.56136322 -0.171064958 -0.06153539196
-3.569016933 -0.1783006638 0.06167500839
-3.876023054 -0.1922817826 0.2011805624
-3.920576572 -0.1931201965 0.3397077024
-3.926377773 -0.1927190572 0.4775406718
-3.826746702 -0.1864899397 0.6001341939
-3.890128374 -0.1882177144 0.7487972975
-3.649913073 -0.1753183156 0.8336651921
-3.829377413 -0.1832688004 1.015658021
-2.415108204 -0.1122037843 -0.6362292767
-2.595146656 -0.119660452 -0.5898182392
-2.613844395 -0.1200654581 -0.500363946
-3.553020954 -0.1619632393 -0.5566453934
-3.568154335 -0.1614050567 -0.4334239662
-3.559103727 -0.1603732556 -0.307983011
-3.57164073 -0.1596881449 -0.1851657629
-3.575922728 -0.1592551172 -0.06177972257
-3.563653708 -0.1649417728 0.0615702942
-3.884651423 -0.1791186333 0.2015992552
-3.907294512 -0.1787969321 0.3384875059
-3.881447792 -0.1762556434 0.4719346762
-3.839214325 -0.1736664325 0.6020113826
-3.888800621 -0.1745493412 0.7484157085
-3.658290148 -0.1629233956 0.8354648352
-3.835783958 -0.1701574028 1.01721096
-2.421275377 -0.1040220782 -0.6377821565
-2.58968854 -0.1108039841 -0.5884685516
-2.608363152 -0.1106915399 -0.499219209
-3.547617435 -0.1499297321 -0.555706799
-3.568669558 -0.1495724618 -0.4334239662
-3.561632395 -0.1480313241 -0.3081573248
-3.56815958 -0.1476796716 -0.1849564165
-3.568464756 -0.1464437842 -0.06164010614
-3.550196171 -0.1525224149 0.06132595986
-3.889243841 -0.1657275409 0.2018086016
-3.911876202 -0.1653240621 0.3388361633
-3.931594133 -0.1654700041 0.4780281484
-3.843744755 -0.1604286879 0.6026371717
-3.877588749 -0.161163345 0.7461259961
-3.654916048 -0.1506305337 0.8345649838
-3.847936153 -0.1572410464 1.02031672
-2.42546773 -0.0961452052 -0.6388174891
-2.588112116 -0.1016870216 -0.5880186558
-2.616563082 -0.102348119 -0.5007455945
-3.550093412 -0.1376217455 -0.5560196638
-3.569170237 -0.1371136159 -0.4334239662
-3.55812192 -0.136067301 -0.3078086972
-3.566657782 -0.1351469904 -0.1848517358
-3.584916592 -0.135212332 -0.061919339
-3.558699846 -0.1404443234 0.06146558002
-3.889771938 -0.1528292745 0.2018086016
-3.926339149 -0.1528943777 0.34005633
-3.886524677 -0.1499853581 0.4724221528
-3.818594456 -0.1466955245 0.59856987
-3.893822193 -0.1482253075 0.749178946
-3.65541935 -0.137871474 0.8345649838
-3.854227543 -0.1446972489 1.021869659
-2.423858166 -0.08760831505 -0.6382998228
-2.586487532 -0.09303382039 -0.5875687599
-2.605132103 -0.0927945897 -0.4984559119
-3.550530195 -0.1258483231 -0.5560196638
-3.553734064 -0.1247207746 -0.4314740598
-3.570522547 -0.1240621805 -0.3088545799
-3.56109786 -0.1231124699 -0.1845377237
-3.587365389 -0.1227669641 -0.06195424497
-3.559145927 -0.1286423504 0.06146558002
-3.876309872 -0.1387512088 0.2010758966
-3.932822227 -0.1393986493 0.3405792713
-3.851290941 -0.1358367205 0.4680348635
-3.805263996 -0.1328825653 0.5963797569
-3.843278646 -0.1335394233 0.7392568588
-3.648066282 -0.1254808158 0.8327654004
-3.854709148 -0.1312415749 1.021869659
-2.420273781 -0.07944318652 -0.6372645497
-2.600430727 -0.08444803953 -0.5907180905
-2.601501226 -0.08402830362 -0.4976926744
-3.558845282 -0.1137069687 -0.5572711229
-3.577956915 -0.1130666137 -0.4343989193
-3.57091403 -0.1122210771 -0.3088545799
-3.581468821 -0.11130061 -0.1855844408
-3.567784786 -0.1096297055 -0.06160520017
-3.571564913 -0.1166092381 0.06167500839
-3.878766775 -0.1252838969 0.2011805624
-3.947202444 -0.126804769 0.341799438
-3.899359941 -0.1239053831 0.4738845825
-3.821499825 -0.1200960875 0.5988827348
-3.84764576 -0.1202456132 0.7400200963
-3.660169125 -0.113106966 0.8354648352
-3.839696407 -0.1173132509 1.017728567
-2.40895009 -0.07065448165 -0.6341587305
-2.602657557 -0.07542669773 -0.5911679268
-2.605703354 -0.07505983114 -0.4984559119
-3.569093466 -0.1015644372 -0.5588355064
-3.584282875 -0.1007446051 -0.4351301193
-3.589208364 -0.1002561599 -0.3104233742
-3.57983923 -0.0987431109 -0.1854797751
-3.600129128 -0.09804521501 -0.06216367334
-3.56395483 -0.1039082408 0.06153539196
-3.893155575 -0.112146154 0.2019132674
-3.91973877 -0.1122272685 0.3393590748
-3.879925728 -0.1097320095 0.4714471698
-3.843616486 -0.1073624566 0.602324307
-3.871592045 -0.1074676812 0.7445995212
-3.660541534 -0.1003306732 0.8354648352
-3.84394455 -0.1040138975 1.018763781
-2.418837786 -0.0624952279 -0.6367468834
-2.593164444 -0.06609293818 -0.5889184475
-2.607912064 -0.06601338834 -0.4988375604
-3.55757761 -0.0888094753 -0.5569583178
-3.594535351 -0.08847664297 -0.4363488257
-3.571610689 -0.08728867024 -0.3088545799
-3.576168776 -0.08615109324 -0.1852704287
-3.606446743 -0.08562009782 -0.06226839125
-3.552301645 -0.09115917981 0.06132595986
-3.90151 -0.09875787795 0.2023319602
-3.940024376 -0.0990447253 0.3411021829
-3.892192125 -0.09648291767 0.4729096293
-3.859766245 -0.09433107078 0.6048272252
-3.895495892 -0.0945231095 0.749178946
-3.668662071 -0.08773865551 0.8372644186
-3.836559057 -0.0904141441 1.016693354
-2.426767111 -0.05422350392 -0.6388174891
-2.589482784 -0.05695554242 -0.5880186558
-2.623828888 -0.05725222453 -0.5018904805
-3.561815977 -0.07647623122 -0.5575840473
-3.588868141 -0.07580296695 -0.4356175959
-3.577869654 -0.07494511455 -0.3093775213
-3.562469721 -0.07337938249 -0.1845377237
-3.610722303 -0.07311246544 -0.06233820319
-3.556596518 -0.07884731889 0.06139576808
-3.891846657 -0.0849205032 0.2018086016
-3.9503057 -0.08550634235 0.3419737518
-3.87265873 -0.08247327805 0.4704722464
-3.860072136 -0.08085636795 0.6048272252
-3.899727821 -0.08100707084 0.7499421835
-3.665049314 -0.07485153526 0.8363646269
-3.832988262 -0.07694385201 1.015658021
-2.425017834 -0.04529305547 -0.6382998228
-2.589674234 -0.04746356979 -0.5880186558
-2.620095491 -0.04756434262 -0.501127243
-3.560097218 -0.06338492781 -0.5572711229
-3.567289114 -0.06226744503 -0.4329364598
-3.572144032 -0.06172857806 -0.3088545799
-3.566968203 -0.05977105349 -0.0615702942
-3.564859152 -0.06595912576 0.06153539196
-3.886128902 -0.07122500241 0.2014945745
-3.948600531 -0.0709912926 0.341799438
-3.876904488 -0.06834956259 0.4709596932
-3.854405642 -0.06727909297 0.6038886309
-3.899998426 -0.06671324372 0.7499421835
-3.657505035 -0.06128816679 0.8345649838
-3.83709693 -0.06362678856 1.016693354
-2.423229456 -0.03679848835 -0.6377821565
-2.597611189 -0.03899253532 -0.5898182392
-2.606503963 -0.03821665794 -0.4984559119
-3.56423831 -0.05163596943 -0.5578969121
-3.587324858 -0.05071803927 -0.4353738427
-3.574329615 -0.04928646609 -0.3090288639
-3.584862947 -0.0488059558 -0.1856891215
-3.567155123 -0.04731954634 -0.0615702942
-3.565058231 -0.0541379787 0.06153539196
-3.886353731 -0.05766026676 0.2014945745
-3.944839954 -0.05714983866 0.3414508104
-3.944596291 -0.05645868555 0.479246825
-3.85461688 -0.0538241975 0.6038886309
-3.908050537 -0.05388814583 0.7514686584
-3.661585569 -0.04921134561 0.8354648352
-3.829568863 -0.05013209581 1.014622688
-2.398225784 -0.02846441604 -0.6310528517
-2.603577614 -0.02999283373 -0.5911679268
-2.622321367 -0.02975104749 -0.501508832
-3.568347216 -0.0392383337 -0.5585226417
-3.591450214 -0.03823779896 -0.4358613491
-3.57048893 -0.0373914279 -0.3086802363
-3.567224979 -0.0417157039 0.0615702942
-3.898514032 -0.04422985017 0.2021226138
-3.941022873 -0.04402330145 0.3411021829
-4.180981636 -0.0452452302 0.5082517266
-3.854781151 -0.04036863893 0.6038886309
-3.89250946 -0.04008526728 0.7484157085
-3.673426867 -0.03654594347 0.8381642103
-3.825857162 -0.0367269069 1.013587475
-2.415696621 -0.02023846284 -0.6357116699
-2.595871687 -0.02084181644 -0.5893683434
-2.630262375 -0.02065823413 -0.5030353069
-3.552659988 -0.02666353621 -0.5560196638
-3.591561794 -0.02570096403 -0.4358613491
-3.572590113 -0.02494252659 -0.3088545799
-3.579124689 -0.02373796329 -0.1853750944
-3.573397398 -0.02245265059 -0.06167500839
-3.557350636 -0.02918224409 0.06139576808
-3.906633615 -0.03068292886 0.2025412917
-3.933183432 -0.03020498529 0.3404049575
-4.30617094 -0.03156622127 0.523607254
-3.862799644 -0.02696866542 0.60514009
-3.8808465 -0.02641640976 0.7461259961
-3.673532009 -0.02372384071 0.8381642103
-3.791189194 -0.02315942571 1.004269958
-2.415752649 -0.01180591714 -0.6357116699
-2.595928669 -0.01178033184 -0.5893683434
-2.630318403 -0.01147670764 -0.5030353069
-3.56458354 -0.01430975646 -0.5578969121
-3.553913116 -0.01302642841 -0.4312303066
-3.568670511 -0.01245684829 -0.3085059524
-3.567455053 -0.009962177835 -0.0615702942
-3.80286026 -0.01659278758 0.1970983595
-3.825676918 -0.01602557488 0.3309921324
-3.881448507 -0.01490345318 0.4714471698
-3.839166164 -0.0134010436 0.601385653
-3.884841681 -0.01288247854 0.7468892336
-3.673592329 -0.01089969743 0.8381642103
-3.795110464 -0.009936477989 1.00530529
-2.423506498 -0.003384017386 -0.6377821565
-2.601800203 -0.002724207938 -0.5907180905
-2.624452591 -0.002290525706 -0.5018904805
-3.558685541 -0.001862900099 -0.5569583178
-3.561877251 -0.0006221651565 -0.43220523
-3.588616133 3.137267868e-07 -0.3102490604
-3.561228037 0.001242490485 -0.1844330579
-3.605462313 0.00251639192 -0.06223348528
-3.569465876 -0.004361203406 0.06160520017
-3.890774488 -0.003395724809 0.201703921
-3.953222513 -0.002760300878 0.3421480656
-3.907283068 -0.001364406897 0.4746157825
-3.853017092 3.368414525e-07 0.6035757661
-3.865230322 0.0006739856326 0.7430730462
-3.658018112 0.001915538334 0.8345649838
-3.775803566 0.003295142436 1.000128865
-2.415776253 0.005059503485 -0.6357116699
-2.611537457 0.006381046027 -0.5929675698
-2.624444723 0.006870610639 -0.5018904805
-3.631758928 0.01077534538 -0.5685344338
-3.665081978 0.01215437707 -0.4448796809
-3.668289185 0.01280434523 -0.3172215223
-3.667055607 0.0140808979 -0.1899806708
-3.671423674 0.0147375511 -0.06338534504
-3.894758701 0.009516476654 0.2019132674
-3.712129831 0.01036506332 0.321056366
-3.65515852 0.01148268394 0.4436609745
-3.653484106 0.01211591624 0.571976006
-3.617835999 0.01325963717 0.6949892044
-3.656040668 0.01467580162 0.8341151476
-3.536224604 0.01481200475 0.9359417558
-2.400289297 0.01340528484 -0.631570518
-2.615399361 0.01506372914 -0.5938673615
-2.626367569 0.01604365557 -0.5022720695
-3.645530462 0.02290565148 -0.5707244873
-3.672961712 0.02436008863 -0.445854634
-3.638337135 0.02540045232 -0.3146068454
-3.66698885 0.02624048293 -0.1899806708
-3.639355659 0.02731310762 -0.06282686442
-3.690984964 0.02190288343 0.1912367195
-3.520805597 0.02212197706 0.3043224812
-3.506221294 0.02264228091 0.4253805578
-3.501318693 0.02383279428 0.5478850603
-3.472494841 0.02424265072 0.6667494774
-3.626741409 0.02658545785 0.8273665905
-3.406720877 0.02616259828 0.9012600183
-2.407958508 0.02143372968 -0.6336410642
-2.619228125 0.02422920987 -0.5947671533
-2.638079166 0.02486403473 -0.5045617819
-3.560491323 0.03480070457 -0.5572711229
-3.583529711 0.03627682105 -0.4348863661
-3.578458071 0.03747465461 -0.3093775213
-3.598971844 0.03831765428 -0.1864218116
-3.563254118 0.03918125108 -0.06150048226
-3.53532815 0.03208572045 0.06101181731
-3.836679459 0.03616090864 0.1988777816
-3.439028263 0.03301326558 0.2971757054
-3.39694643 0.03379509598 0.4119749367
-3.374797106 0.03475281224 0.5278614759
-3.366379261 0.03525370359 0.6461420655
-3.605191708 0.03901313245 0.8224176764
-3.319680929 0.03708237037 0.8779662848
-2.405932188 0.0302355364 -0.6331234574
-2.607435942 0.03322297707 -0.5920677185
-2.639933586 0.03455865383 -0.5049434304
-3.479356527 0.04676115513 -0.5444434881
-3.525818825 0.04800187796 -0.4278179705
-3.522524118 0.0491867736 -0.3044967949
-3.486972332 0.04990769923 -0.1805601865
-3.467120409 0.050228782 -0.0598250553
-3.471209288 0.04362295568 0.05989486352
-3.83053875 0.04947500676 0.1985637695
-3.347242594 0.04440211877 0.2891573608
-3.309471607 0.04447797313 0.401250422
-3.307498455 0.04560691863 0.5172238946
-3.279852629 0.04637074843 0.6293509007
-3.61671567 0.05239599571 0.8251171112
-3.249992132 0.04765052348 0.8593313098
-2.405812025 0.03863368556 -0.6331234574
-2.611193895 0.04284347594 -0.5929675698
-2.631944656 0.0436434038 -0.5034168959
-3.502873421 0.05930831283 -0.5481979847
-3.539512873 0.06116362661 -0.4295241237
-3.506394148 0.06120429561 -0.3031022847
-3.392920732 0.06040745229 -0.1756406128
-3.336964607 0.05999457091 -0.05755623803
-3.339063883 0.0542023927 0.057591144
-3.862294436 0.06337105483 0.2002385259
-3.261406422 0.05464982241 0.2816619873
-3.214015961 0.05497864634 0.3895509839
-3.196714878 0.05523999408 0.4997031987
-3.224708319 0.05685041472 0.618665576
-3.634046555 0.06533574313 0.8291661739
-3.172544479 0.05759235844 0.8386257291
-2.417251348 0.04725736007 -0.6362292767
-2.634417772 0.05196291581 -0.5983663797
-2.639627934 0.05298739299 -0.5049434304
-3.506607294 0.07100320607 -0.5488237143
-3.543259859 0.07298263162 -0.4300116003
-3.366722345 0.07052283734 -0.2909004688
-3.420656919 0.07224903256 -0.1771060228
-3.180794477 0.06829430908 -0.05483366549
-3.23090291 0.06316427886 0.05570628494
-3.298934221 0.06564700603 0.1707210392
-3.153628826 0.06385595351 0.2722491622
-3.136413574 0.06405572593 0.3800451756
-3.121454477 0.06484019756 0.4878142178
-3.130286694 0.0655702129 0.6003479362
-3.664982796 0.07805031538 0.8363646269
-3.10665679 0.0672442019 0.8210260868
-2.519442797 0.05761386454 -0.6636641026
-2.634220362 0.06115913391 -0.5983663797
-2.653176546 0.06206189841 -0.5076147318
-3.555708647 0.0844161585 -0.5566453934
-3.527107477 0.08496811986 -0.4280616939
-3.254928827 0.07898049802 -0.281139046
-3.244678497 0.07986421138 -0.1678948998
-3.106571198 0.07754985243 -0.05354218557
-3.126706123 0.07204654068 0.05389123783
-3.12696743 0.0731445998 0.1617192477
-3.071734428 0.07238899916 0.2651023865
-3.058774233 0.07315183431 0.3705393672
-3.030368328 0.0735315606 0.4734222293
-3.051531792 0.07457724214 0.5850831866
-3.005978584 0.07556439936 0.7941089272
-2.617716551 0.06900432706 -0.6900636554
-2.633990765 0.07035335153 -0.5983663797
-2.658831358 0.07148120552 -0.5087596178
-3.5514431 0.09671908617 -0.5560196638
-3.372010946 0.09301115572 -0.4090500772
-3.302432537 0.09166795015 -0.2853225172
-3.048725843 0.08569133282 -0.1576370448
-3.034321785 0.08634571731 -0.05228561535
-3.038479805 0.08062651008 0.05235542357
-3.038845301 0.08169766515 0.1571136862
-3.003746271 0.08127935976 0.2591757774
-2.971189022 0.08143552393 0.3598148823
-2.962956429 0.08224487305 0.4627847075
-2.96882844 0.08292640001 0.5690552592
-2.932316065 0.08395587653 0.7744386792
-2.623252869 0.07831446081 -0.6916165948
-2.62983346 0.07942967862 -0.597466588
-2.660527945 0.08082149923 -0.5091412067
-3.511595011 0.1079020649 -0.5497623086
-3.351824522 0.1041637883 -0.4066126943
-2.963551283 0.09261523187 -0.2556895614
-3.000497818 0.09481819719 -0.1551249176
-2.934067965 0.09374482185 -0.05054037273
-2.954230547 0.08871149272 0.05088942125
-2.962681055 0.0900003016 0.153136149
-2.935734749 0.08969455957 0.2532491982
-2.881599903 0.08904734999 0.3488466144
-2.895521164 0.09048918635 0.452147156
-2.901803017 0.09119312465 0.5560802221
-3.671755552 0.1166719422 0.8381642103
-2.8702178 0.09220552444 0.7578741908
-2.636478901 0.08792100102 -0.6952400208
-2.63733077 0.0888716206 -0.5992661715
-2.656305552 0.08997513354 -0.5083779693
-3.469738007 0.1187404692 -0.543192029
-2.903077364 0.1003628448 -0.3515277505
-2.883562565 0.1001920402 -0.2487170994
-2.876394749 0.1009482145 -0.1486352682
-2.861778975 0.101436086 -0.04928379878
-2.917928457 0.0978172645 0.05026113242
-2.874519825 0.09736655653 0.1485305876
-2.873675585 0.09784006327 0.2478455603
-2.815802097 0.09685363621 0.3408032358
-2.812271833 0.09771498293 0.4390066564
-2.834757328 0.09899159521 0.5431052446
-2.784930944 0.09919817001 0.7350981832
-2.597545147 0.09570165724 -0.68488729
-2.637004375 0.09807652235 -0.5992661715
-2.650089502 0.09902697802 -0.5072330832
-2.849475384 0.1074728146 -0.4449511766
-2.84319973 0.1082306206 -0.3442156017
-2.831430912 0.1082774922 -0.2441850007
-2.820142984 0.1088316441 -0.1457044482
-2.793469429 0.1087787971 -0.04809703678
-2.849626303 0.1054871082 0.04907437414
-2.816282034 0.1052371562 0.1454951018
-2.805622816 0.1053291783 0.2419189513
-2.767839193 0.1048781648 0.3349535167
-2.725060701 0.1042097583 0.4252404273
-2.744151354 0.1054194346 0.5255507827
-2.722527266 0.1055410728 0.6190618873
-2.709282875 0.1059740931 0.7149102688
-2.429260492 0.09799395502 -0.6398527622
-2.640540123 0.1074399427 -0.6001659632
-2.655612469 0.1085174531 -0.5083779693
-2.750397205 0.1133523062 -0.4293076992
-2.773386478 0.1152687967 -0.3356847465
-2.751409531 0.1148370579 -0.2372125536
-2.78582263 0.1172467843 -0.1439250112
-2.749118805 0.1166639775 -0.04732913151
-2.765322208 0.1120330915 0.0476083681
-2.769999027 0.1131916717 0.1430876404
-2.749498129 0.1128339395 0.2370382249
-2.719854593 0.1125690416 0.3291037679
-2.697048903 0.1125681847 0.4208602607
-2.722189665 0.114093408 0.5213530064
-2.702672243 0.1142204106 0.6145628691
-2.687665462 0.1145266369 0.7092162371
-2.662433386 0.1167094782 -0.7024869323
-2.702447891 0.1194092855 -0.6145628691
-2.735631943 0.1213532463 -0.5240243077
-2.736171007 0.122334756 -0.4271176159
-2.759085417 0.1243242398 -0.3339785635
-2.747011185 0.1242605746 -0.2368639261
-2.745492697 0.1251521707 -0.1418315768
-2.746697187 0.1261671484 -0.04729422554
-2.730952501 0.1201905757 0.04701498896
-2.751629353 0.1220628992 0.1421456039
-2.749087572 0.1224315241 0.2370382249
-2.709529638 0.1216167882 0.3278850913
-2.710453033 0.1226068661 0.4230503142
-2.721774817 0.1235943437 0.5213530064
-2.706150293 0.1238320321 0.6154626608
-2.685319662 0.123818092 0.7086986303
-2.714111805 0.1284686327 -0.7164632082
-2.721479893 0.1297694594 -0.6190618873
-2.741075039 0.1311832815 -0.5251691937
-2.735727549 0.1318844557 -0.4271176159
-2.748720884 0.1334731728 -0.3327598572
-2.746560812 0.1338481009 -0.2368639261
-2.751023531 0.1350287646 -0.1421456039
-2.754229069 0.1361497939 -0.0474338457
-2.732513428 0.1298182607 0.0470498912
-2.745201826 0.1313807815 0.1418315768
-2.734712839 0.1313578337 0.2358180583
-2.687278032 0.1300188899 0.3252039552
-2.708035469 0.131970644 0.4227374792
-2.721326828 0.1330950856 0.5213530064
-2.701808929 0.133085832 0.6145628691
-2.692588806 0.1335738003 0.7107691765
-2.675059319 0.1359804422 -0.7061104178
-2.691817522 0.1377743185 -0.6123133898
-2.689622641 0.1381332576 -0.5152471066
-2.695795536 0.1393930912 -0.4208602607
-2.702642918 0.1406930238 -0.3271538615
-2.704293489 0.1412521899 -0.2332033813
-2.712640047 0.1426382363 -0.1401568204
-2.709830284 0.1429640949 -0.04666594043
-2.720061302 0.1387439519 0.04684046283
-2.704858065 0.1384417564 0.1397381425
-2.712350368 0.1397744715 0.2339006215
-2.668966055 0.1384734809 0.3230103254
-2.695746899 0.1403340399 0.4208602607
-2.728687763 0.1430045515 0.5228794217
-2.689651728 0.1418995112 0.6118634343
-2.707564116 0.1433190405 0.7149102688
-2.66106534 0.1445837319 -0.7024869323
-2.594053268 0.1413968056 -0.5898182392
-2.681283236 0.1470902413 -0.5137206316
-2.699263096 0.1485490948 -0.4214859903
-2.710089922 0.1500937492 -0.3281288445
-2.689858913 0.1499157101 -0.2319832146
-2.710157871 0.1515215039 -0.1400521696
-2.695338726 0.1516367346 -0.04642160237
-2.699618816 0.1466784626 0.04649141803
-2.688404083 0.1470102817 0.1389007717
-2.703888416 0.1488036364 0.2332033813
-2.68236661 0.148088783 0.3247164786
-2.689323425 0.149414435 0.4199216366
-2.726238728 0.1519432813 0.5224978328
-2.700840712 0.1514727771 0.6145628691
-2.69161725 0.1518986076 0.7107691765
-2.654785395 0.1530738473 -0.7009340525
-2.681090117 0.155529514 -0.6100638509
-2.682740211 0.156095013 -0.5141022205
-2.698728085 0.1579704583 -0.4214859903
-2.711530685 0.1596695632 -0.3283725679
-2.695313692 0.1591866314 -0.2325061262
-2.715593815 0.1613355875 -0.1403661817
-2.698813677 0.1608113497 -0.04649141803
-2.709072113 0.1566783488 0.04666594043
-2.703852892 0.1568499804 0.1397381425
-2.693435192 0.157188952 0.2323318273
-2.683815241 0.1575681567 0.3249602318
-2.696701288 0.1587963253 0.4211731255
-2.719812155 0.1611104906 0.5213530064
-2.704185724 0.1611314416 0.6154626608
-2.683385134 0.1603626162 0.7086986303
-2.650378466 0.1621040255 -0.6998987198
-2.666944027 0.163584426 -0.6069145799
-2.684138775 0.1655795276 -0.5144838691
-2.690303087 0.1664311141 -0.4202345312
-2.720892668 0.1692768633 -0.3295912445
-2.706672668 0.1693412513 -0.2335520089
-2.707070589 0.1698397845 -0.1399474889
-2.714201689 0.1712389737 -0.04677065089
-2.68857789 0.1644404233 0.04631689191
-2.707276106 0.1665319055 0.1399474889
-2.700824261 0.1670819968 0.2330290675
-2.675352812 0.1659755707 0.3239852488
-2.700073481 0.168454662 0.4217988551
-2.715343952 0.1698837578 0.5205897689
-2.711416245 0.1705875099 0.6172622442
-2.684736967 0.1698498279 0.7092162371
-2.653652191 0.1716040075 -0.7009340525
-2.658547878 0.1728524566 -0.6051149368
-2.697257996 0.175842002 -0.5171551704
-2.697559595 0.1768072695 -0.4214859903
-2.704407692 0.1782035232 -0.3276413381
-2.714017153 0.1793130934 -0.2342492491
-2.69447279 0.1789670587 -0.1393194646
-2.717546463 0.181451723 -0.04684046283
-2.691948414 0.174551636 0.04638670012
-2.702661514 0.1761942804 0.1397381425
-2.702212811 0.1766379923 0.2332033813
-2.666803122 0.1752588153 0.3230103254
-2.709293365 0.1790009886 0.4233632088
-2.726456881 0.180612877 0.5228794217
-2.710772753 0.1805242449 0.6172622442
-2.689878941 0.1800765246 0.7107691765
-2.654964209 0.1809967756 -0.7014516592
-2.665705204 0.182664454 -0.6069145799
-2.688793421 0.1847173572 -0.5156286955
-2.702838182 0.1866307557 -0.4224245846
-2.703768969 0.1876432896 -0.3276413381
-2.709399462 0.188509196 -0.2339006215
-2.701801062 0.1889281422 -0.1397381425
-2.710912228 0.1905161291 -0.04673574865
-2.699302673 0.1844927222 0.04652632028
-2.698044777 0.1853529215 0.139528811
-2.713505745 0.186891526 0.2342492491
-2.674096584 0.1851144284 0.3239852488
-2.702740192 0.1880458593 0.4224245846
-2.729726553 0.1904021651 0.5236426592
-2.694574594 0.1888953894 0.6136630774
-2.700796604 0.1902789325 0.7138749957
-2.652389526 0.1901251823 -0.7009340525
-2.672826052 0.1925278455 -0.6087141633
-2.684215784 0.1938191503 -0.5148655176
-2.702170372 0.1960643679 -0.4224245846
-2.714976788 0.1979462355 -0.3291037679
-2.708724976 0.1979656816 -0.2339006215
-2.717060328 0.1995283216 -0.1405755281
-2.710230827 0.1999778897 -0.04673574865
-2.710609674 0.194774583 0.04673574865
-2.701365471 0.1950574815 0.1397381425
-2.704888344 0.1957870275 0.2335520089
-2.677393913 0.1947357208 0.3244727552
-2.692216635 0.1967591643 0.4208602607
-2.73687768 0.200503394 0.5251691937
-2.70944643 0.1994446069 0.6172622442
-2.700115919 0.1997053772 0.7138749957
-2.661341667 0.2001075447 -0.703522265
-2.67602396 0.2021502256 -0.609613955
-2.691353559 0.2037812471 -0.516391933
-2.699500084 0.2053451091 -0.4221117496
-2.710310698 0.2071196437 -0.3286163211
-2.700071335 0.2068104595 -0.2332033813
-2.718338251 0.2091647089 -0.140680179
-2.713503361 0.2097454369 -0.04680555686
-2.705924988 0.2039340585 0.04666594043
-2.708634138 0.2050897032 0.1401568204
-2.696241617 0.2046246231 0.2328547686
-2.678677082 0.2042319924 0.3247164786
-2.693483353 0.2063058615 0.4211731255
-2.730288506 0.2096049041 0.5240243077
-2.708733797 0.208900556 0.6172622442
-2.689771891 0.2083833069 0.7112868428
-2.650997639 0.2086377293 -0.7009340525
-2.671416759 0.2111829966 -0.6087141633
-2.694539785 0.2134847641 -0.5171551704
-2.690889835 0.214140743 -0.4208602607
-2.721443892 0.2175275385 -0.3300787508
-2.70727706 0.2168713361 -0.2339006215
-2.715601206 0.2184914649 -0.1405755281
-2.724752426 0.219707042 -0.04701498896
-2.69722271 0.2127493471 0.04652632028
-2.711921453 0.2143850029 0.1403661817
-2.703455687 0.2146652937 0.2335520089
-2.67794776 0.2135811746 0.3247164786
-2.704598665 0.2161810696 0.4230503142
-2.719755411 0.2183486521 0.5221162438
-2.719642639 0.21929501 0.619961679
-2.694843054 0.2177686989 0.7128397226
-2.661805153 0.2188399732 -0.7040398717
-2.659048796 0.2190805674 -0.6060147285
-2.701604843 0.2235361785 -0.5186816454
-2.698039532 0.2237153202 -0.4221117496
-2.712794542 0.2258921713 -0.3291037679
-2.714445353 0.226984337 -0.2345978767
-2.706900358 0.2268285155 -0.1401568204
-2.717990875 0.22871387 -0.04691027477
-2.700488091 0.2220202833 0.04659612849
-2.699213743 0.2228647023 0.1397381425
-2.708646536 0.2245948166 0.2340749502
-2.671290159 0.2219673395 0.3239852488
-2.71170187 0.2262777239 0.4243018329
-2.726841927 0.2280209363 0.5236426592
-2.715016842 0.2279864401 0.6190618873
-2.701766253 0.2278228402 0.7149102688
-2.664914131 0.2279950678 -0.7050751448
-2.673800707 0.2296948284 -0.609613955
-2.696936369 0.2321571261 -0.5179184079
-2.701178312 0.2334727794 -0.4227374792
-2.700123549 0.2343304902 -0.3276413381
-2.717647552 0.2363298386 -0.2349465042
-2.714051008 0.2369709462 -0.1405755281
-2.713233471 0.2373773456 -0.04684046283
-2.719620466 0.2331535518 0.04694517702
-2.709871769 0.23374708 0.2342492491
-2.676431894 0.2318038046 0.3247164786
-2.708968401 0.2350981086 0.4239889383
-2.737764597 0.2385600209 0.5259323716
-2.702556372 0.2364432216 0.6163624525
-2.708693743 0.2374559045 0.7169808149
-2.671799183 0.2379816324 -0.7071456909
-2.680788517 0.2392532676 -0.6114135981
-2.688288212 0.2408690602 -0.516391933
-2.712193966 0.2434881628 -0.4246146679
-2.715148211 0.2447087616 -0.3295912445
-2.708868742 0.2450960428 -0.2342492491
-2.717228413 0.2463305146 -0.1407848597
-2.716371059 0.2472087443 -0.04691027477
-2.70887351 0.2412838936 0.04677065089
-2.70559144 0.2419434488 0.1401568204
-2.720945597 0.2442738414 0.2352951169
-2.677625895 0.2408558875 0.3249602318
-2.698294401 0.2436645329 0.4224245846
-2.736958504 0.2476375699 0.5259323716
-2.709520578 0.2461091578 0.6181620955
-2.704000711 0.2465588003 0.7159455419
-2.667147875 0.2464848906 -0.7061104178
-2.683817625 0.2489702106 -0.6123133898
-2.699159622 0.2513436973 -0.5186816454
-2.703460217 0.2522200942 -0.4233632088
-2.730089188 0.2556656897 -0.3315411508
-2.70402956 0.2541774213 -0.2339006215
-2.722272635 0.2568508685 -0.1410988867
-2.727436781 0.2578183711 -0.04711970314
-2.747838497 0.2544249296 0.04746875167
-2.756436348 0.2561920285 0.142878294
-2.686650991 0.2511248589 0.3261789382
-2.709228039 0.254189074 0.4243018329
-2.732123137 0.2572992444 0.5251691937
-2.716405392 0.2562972903 0.619961679
-2.695430756 0.2552675307 0.7138749957
-2.654689074 0.2551493049 -0.7030045986
-2.675127983 0.2580567896 -0.6105137467
-2.702128649 0.2616133988 -0.5194448829
-2.694653034 0.261364311 -0.4221117496
-2.733084917 0.2660549581 -0.3320286274
-2.711011648 0.2648614645 -0.2345978767
-2.719325066 0.2666319311 -0.1409942061
-2.716522455 0.2668358088 -0.04694517702
-2.75883007 0.2656451762 0.04767817631
-2.795238733 0.2701350152 0.1449717432
-2.703309298 0.2617276907 0.2339006215
-2.689664125 0.2613542676 0.3266663849
-2.714176178 0.2646924257 0.4252404273
-2.727254152 0.2669288218 0.5244059563
-2.723205566 0.2670124173 0.621761322
-2.698322058 0.2655234635 0.7149102688
-2.68064785 0.2675643563 -0.7102515101
-2.676103592 0.2680541873 -0.6109636426
-2.70901227 0.2718280852 -0.5209713578
-2.701538801 0.2720306218 -0.4233632088
-2.720289469 0.2743982971 -0.3305662274
-2.717999458 0.2751257122 -0.2352951169
-2.710429907 0.2753152549 -0.1405755281
-2.729500771 0.2777337134 -0.04718951136
-2.775746107 0.2775450349 0.04799232259
-2.792291403 0.2796922326 0.1448670775
-2.722155571 0.2736260891 0.2356437296
-2.678812981 0.2702145278 0.3254477084
-2.715201139 0.2743630707 0.425553292
-2.734118462 0.2772394121 0.5259323716
-2.714501858 0.2757288814 0.619961679
-2.701222658 0.2753326297 0.7159455419
-2.664372683 0.2748664021 -0.7061104178
-2.673261404 0.2767257988 -0.6105137467
-2.704190493 0.2804051042 -0.5202081203
-2.70455122 0.281396687 -0.4239889383
-2.707518101 0.2821830511 -0.3291037679
-2.724998713 0.284966439 -0.235992372
-2.721420288 0.285551846 -0.1412035525
-2.712654829 0.2851114273 -0.04691027477
-2.764864922 0.285720557 0.04781780019
-2.771482229 0.2868932188 0.1438203603
-2.725197077 0.2830634117 0.235992372
-2.677902222 0.2790963948 0.3254477084
-2.712311745 0.2831605077 0.4252404273
-2.733184099 0.2863046527 0.5259323716
-2.705820322 0.2839150131 0.6181620955
-2.707979679 0.2850978673 0.7180161476
-2.678814411 0.2853372991 -0.7102515101
-2.683955431 0.2868317068 -0.6132131815
-2.699341774 0.2889531851 -0.5194448829
-2.715387583 0.2916288674 -0.4258661568
-2.722306252 0.2933331132 -0.331053704
-2.716063738 0.293620199 -0.2352951169
-2.720458269 0.2945749462 -0.1412035525
-2.749414682 0.298682034 -0.04757346213
-2.783786297 0.2970091999 0.04816684499
-2.77443552 0.2969916463 0.1440296918
-2.748015642 0.2946479619 0.2380841076
-2.686830521 0.2890368104 0.3266663849
-2.699522972 0.2913548052 0.4233632088
-2.740027189 0.2962107658 0.5274589062
-2.708687305 0.2937793136 0.6190618873
-2.703126907 0.2941302359 0.7169808149
-2.650867701 0.2921899855 -0.7030045986
-2.690685511 0.2970547974 -0.6150127649
-2.698264599 0.2988442481 -0.5194448829
-2.706447601 0.3007068038 -0.4246146679
-2.733103037 0.3041513264 -0.3325161338
-2.70710206 0.3022145033 -0.2345978767
-2.731269121 0.3058783412 -0.1418315768
-2.716560125 0.3047104776 -0.04701498896
-2.782732725 0.3067246675 0.04816684499
-2.787278175 0.3082104623 0.1447623968
-2.742956638 0.3042792976 0.237735495
-2.695669889 0.2995093167 0.3278850913
-2.716158152 0.3027462065 0.4261790216
-2.735020876 0.3058145344 0.5266956091
-2.723085165 0.3054423928 0.6226611137
-2.698244333 0.3031328321 0.7159455419
-2.661348343 0.3027516305 -0.7061104178
-2.685706377 0.3064721823 -0.6141129732
-2.705007076 0.3091528714 -0.5209713578
-2.705381393 0.3101523221 -0.4246146679
-2.728025436 0.3137130439 -0.3320286274
-2.713947773 0.3125740886 -0.2352951169
-2.722248793 0.3144930005 -0.1414128989
-2.739317179 0.3169492781 -0.0474338457
-2.801458359 0.3191856444 0.04851589352
