# .PCD v0.7 - Point Cloud Data file format
VERSION 0.7
FIELDS x y z
SIZE 4 4 4
TYPE F F F
COUNT 1 1 1
WIDTH 1248
HEIGHT 1
VIEWPOINT 0 0 0 1 0 0 0
POINTS 1248
DATA ascii
5.649770737 -6.399394512 1.043014407
5.646306992 -6.399972439 1.34507525
5.649847507 -6.406240463 1.652087331
5.580517292 -6.332082272 1.938624978
4.798844814 -5.448969364 1.93394804
0.7162669301 -0.8158837557 -0.2406942248
2.401910305 -2.736925602 -0.6995685697
2.403712749 -2.7409091 -0.5707244873
5.649828434 -6.446932316 -1.047401786
5.658764839 -6.459404469 -0.7475966215
5.657042027 -6.461987495 -0.4478922784
5.666882992 -6.477789402 -0.1495304257
5.680628777 -6.468400478 0.1495653391
5.685609818 -6.480913162 0.7505598664
5.641792774 -6.435496807 1.045695662
5.622630596 -6.418157101 1.344762325
5.631331444 -6.430352688 1.653232098
5.550681114 -6.342724323 1.935925484
4.787424564 -5.474412441 1.937053919
0.7262200713 -0.8330684304 -0.245193243
2.382023335 -2.733452559 -0.6965156198
2.396724939 -2.752262354 -0.5713502765
5.619470596 -6.457628727 -1.045939326
5.629644394 -6.471601486 -0.7467250824
5.638381958 -6.486216068 -0.4482062757
5.636368275 -6.488472939 -0.1493210047
5.658015251 -6.488190174 0.1495653391
5.652482986 -6.488701344 0.7491654158
5.617991447 -6.453654289 1.04545188
5.592413902 -6.42880249 1.342885137
5.610139847 -6.451452255 1.653613687
5.531062603 -6.365002632 1.936825275
4.763219833 -5.485255241 1.934983253
2.368613243 -2.737296581 -0.6953707933
2.379351139 -2.751646042 -0.5694730282
5.602086067 -6.483213425 -1.04691422
5.601810455 -6.485181808 -0.7460277677
5.618317127 -6.508882999 -0.448415637
5.609595776 -6.501072884 -0.149181366
5.631405354 -6.50336504 0.1494606137
3.473199368 -4.01240015 0.2759163082
5.605814934 -6.485239983 1.047401786
5.572355747 -6.448806763 1.343197942
5.58373642 -6.466538429 1.65246892
5.513903618 -6.390172958 1.938624978
4.741219044 -5.496632099 1.933430433
0.6569642425 -0.7637913227 -0.2583534718
0.7078276277 -0.8232160807 -0.2406942248
2.359916449 -2.747533321 -0.5669701099
5.583142757 -6.504768848 -1.047401786
5.579139233 -6.504695892 -0.7460277677
5.591501236 -6.521412373 -0.4479969442
5.590772152 -6.525169849 -0.1492860913
5.6045928 -6.515939713 0.1493210047
3.468285322 -4.035102367 0.2766489983
5.57522583 -6.493250847 1.045695662
5.54852581 -6.466719627 1.342885137
5.550757885 -6.471606731 1.649034142
5.495219231 -6.411382198 1.939524651
4.722002983 -5.513148785 1.933430433
0.6092515588 -0.7130898237 -0.2397184968
0.6720507145 -0.7871483564 -0.2289967537
1.692278743 -1.982805014 -0.4984559119
2.345184088 -2.74974227 -0.5657186508
5.555252552 -6.518173218 -1.046426773
5.56156683 -6.530199051 -0.7467250824
5.56093502 -6.531766891 -0.44736889
5.577031136 -6.555306435 -0.1495304257
5.579216003 -6.532422543 0.1492511779
2.772744417 -3.249910593 0.3700378835
5.543510437 -6.502098083 1.04398942
5.531043053 -6.492063046 1.344136715
5.526861668 -6.489449024 1.648652554
5.470279694 -6.427556038 1.938624978
4.706483841 -5.534012318 1.934983253
0.5891408324 -0.6946910024 -0.2324715555
1.688807368 -1.993488193 -0.4996007979
2.335089684 -2.758319378 -0.5657186508
5.519641876 -6.522371769 -1.04398942
5.538738728 -6.549572945 -0.7467250824
5.539535999 -6.555155754 -0.4475782812
5.559276581 -6.580843925 -0.1496700346
5.558966637 -6.554908752 0.1493210047
3.491682529 -4.120164871 0.2808358967
5.522062778 -6.522924423 1.044233203
5.505795002 -6.508313656 1.343510866
5.509376526 -6.517158508 1.650560737
5.440396786 -6.440119267 1.93637538
4.69212389 -5.556311607 1.937053919
0.6165767312 -0.7322083712 -0.2448948622
1.686893702 -2.005380869 -0.501127243
2.32671833 -2.767965555 -0.566031456
5.500806332 -6.548638344 -1.044964314
5.510717869 -6.562763214 -0.7460277677
5.525607586 -6.58516264 -0.4483109713
5.524840355 -6.588918209 -0.1493908018
5.542631149 -6.58441782 0.1495304257
5.536219597 -6.581463337 0.4485203028
2.75198245 -3.27271843 0.3703865409
5.50322628 -6.549198151 1.045208097
5.47174263 -6.516347885 1.341007948
5.49290514 -6.543869019 1.65246892
5.416631222 -6.457578182 1.935925484
4.67048645 -5.571990967 1.936536193
0.6016252637 -0.7195356488 -0.2397184968
1.689951658 -2.023311138 -0.5041801333
2.308181763 -2.765454769 -0.5638414025
5.502586842 -6.604410648 -0.4483109713
5.49157095 -6.595868111 -0.1491115689
5.514483452 -6.597588539 0.1493908018
5.482875347 -6.571417332 1.045695662
5.448962688 -6.53540802 1.341007948
5.461230278 -6.552446365 1.649797559
5.399045467 -6.482435226 1.937724948
4.643593311 -5.579351425 1.933430433
0.5966418982 -0.7186586261 -0.2386832088
0.6907183528 -0.8325653672 -0.2397943884
1.700424552 -2.050354481 -0.5095227957
2.288430452 -2.761327505 -0.5613384247
5.11037302 -6.168606758 -0.9784237146
5.102664948 -6.163680077 -0.6963490248
5.455311298 -6.594337463 -0.4463222027
5.469668388 -6.614042759 -0.1491115689
5.465878963 -6.58602047 0.1486927122
5.477265835 -6.60208559 0.44736889
5.438374043 -6.564528942 1.041552067
5.415921211 -6.539749146 1.338192105
5.430814743 -6.562395096 1.647507787
5.383730412 -6.507811069 1.939974546
4.626296997 -5.596208096 1.93394804
0.6409601569 -0.7772703767 -0.2583534718
0.6978679895 -0.8468825817 -0.2433936298
1.704850078 -2.069620132 -0.5129573345
2.276750326 -2.765850782 -0.5607126951
5.077275753 -6.170190334 -0.9759863019
5.082197189 -6.180567265 -0.6963490248
5.439753532 -6.620108128 -0.4468455613
5.462936401 -6.650687218 -0.1495304257
5.450368404 -6.611824989 0.1488672346
5.442640781 -6.604798794 0.4463222027
5.422883034 -6.590191364 1.042770743
5.405498981 -6.57140255 1.341007948
5.4152565 -6.587951183 1.64941597
5.357171059 -6.519605637 1.938174844
4.611391544 -5.615998268 1.935500979
0.6065519452 -0.7405340672 -0.2448948622
0.6555582881 -0.8009358048 -0.2289967537
1.717869282 -2.099573612 -0.5190632939
2.267565727 -2.773385525 -0.5607126951
5.060414314 -6.195843697 -0.6961747408
5.421558857 -6.642751694 -0.4471595585
5.416833401 -6.639327049 -0.1488672346
5.442348003 -6.646882057 0.1492511779
5.438418388 -6.644449711 0.4477876127
5.403511047 -6.611210823 1.04325819
5.38867712 -6.595411777 1.342259407
5.389655113 -6.601310253 1.648270965
5.329360962 -6.529786587 1.935925484
4.600069046 -5.640241623 1.938606858
0.6357910633 -0.7815042734 -0.2583534718
0.7020702362 -0.8635892272 -0.2469928265
1.717088342 -2.112876415 -0.5209713578
2.258356571 -2.78088975 -0.5607126951
2.6685462 -3.284816742 0.3665516675
5.384059906 -6.632175922 1.043745637
5.355573177 -6.599439144 1.339443564
5.378863811 -6.632870197 1.651705503
5.313813686 -6.554992199 1.938174844
4.57647562 -5.649459839 1.936536193
0.6937050819 -0.8603324294 -0.245193243
1.72091341 -2.135037422 -0.5247875452
2.242218733 -2.783779383 -0.559461236
3.270863295 -4.062322617 -0.6352396011
3.280025721 -4.07661438 -0.4540560246
3.299000502 -4.10312891 -0.2737182081
3.289716005 -4.093043804 -0.090960145
2.685340166 -3.332736492 0.3707351387
5.362373352 -6.659921169 1.04472065
5.330276966 -6.622423172 1.33975637
5.3435812 -6.643699646 1.649034142
5.289899826 -6.579308033 1.939074874
4.548920631 -5.661761761 1.934465647
0.5841359496 -0.7288600206 -0.2386832088
0.6762303114 -0.8443751931 -0.2397943884
1.737136364 -2.169852495 -0.5320382714
2.225570679 -2.781944513 -0.5575840473
2.067155123 -2.584850311 -0.401250422
4.977994442 -6.229133129 -0.6939086914
5.424063683 -6.792175293 -0.4533352256
5.358317375 -6.712247849 -0.1492162794
3.327042341 -4.15282774 0.09218180925
5.373615265 -6.709766388 0.4483109713
5.357059956 -6.693883896 0.7463763952
5.335299492 -6.671464443 1.043745637
5.305819988 -6.636977196 1.33913064
5.320296288 -6.659849644 1.648652554
5.272916317 -6.60290432 1.940874338
4.528915405 -5.675305843 1.93394804
0.5504342318 -0.6914951205 -0.2252246141
0.6443116665 -0.8100106716 -0.2289967537
1.750703454 -2.201724291 -0.5385257602
2.200357676 -2.769203663 -0.5535167456
2.055650711 -2.588941336 -0.4007629752
2.652822733 -3.343431711 -0.3696892858
2.602220774 -3.283185244 -0.07242568582
5.342787266 -6.714398384 0.1490766704
5.335243225 -6.709722996 0.4470548928
5.290859699 -6.668228149 1.646362901
5.247415066 -6.618216515 1.939974546
4.513875961 -5.697136402 1.936018586
0.6245416999 -0.7905231714 -0.2583534718
0.6728827357 -0.8520172834 -0.2406942248
1.763298035 -2.234325647 -0.5450133085
2.041685343 -2.589865446 -0.399788022
2.599344015 -3.301990747 -0.2180327475
2.582087994 -3.281248093 -0.07218135893
2.61262536 -3.311720848 0.3653315008
5.270028114 -6.692202568 1.647507787
5.21830225 -6.631278515 1.938174844
4.499934673 -5.720450401 1.938606858
0.5621640086 -0.7166966796 -0.2324715555
0.6793727279 -0.8667477369 -0.2442934215
1.767596841 -2.255920887 -0.5488294959
1.990510106 -2.542244673 -0.5047091842
2.039518595 -2.606711626 -0.401250422
2.587682962 -3.308510542 -0.3637626767
2.58657217 -3.309469938 -0.2179280818
2.588696241 -3.301486492 0.07253040373
2.585686207 -3.300019026 0.2175093889
2.601049185 -3.320820332 0.3653315008
2.566082716 -3.278534174 0.5060580969
2.556290627 -3.268373728 0.6505061388
5.249053955 -6.713650703 1.648270965
5.19752264 -6.652524948 1.939074874
4.472992897 -5.729291439 1.936018586
0.571528554 -0.7338964939 -0.2376479357
0.676343143 -0.8691139221 -0.2442934215
1.795875072 -2.30856514 -0.5602779984
1.879785657 -2.418172121 -0.4784281552
4.904348373 -6.313541889 -0.9764738679
4.902756214 -6.313766003 -0.6956517696
5.255237103 -6.77256918 -0.4470548928
5.255540371 -6.777844429 -0.1490068436
5.275914192 -6.777209759 0.1492162794
5.265960217 -6.769297123 0.4472642243
5.259407997 -6.763309002 0.7458534837
5.237977028 -6.740604401 1.043014407
5.209042072 -6.708200932 1.33850503
5.225586414 -6.73193264 1.648270965
5.179046631 -6.676786423 1.940874338
4.448233128 -5.738761902 1.93394804
0.5571468472 -0.7206038237 -0.2324715555
0.6756882071 -0.8745536804 -0.245193243
1.849007726 -2.394063234 -0.5797405243
2.031428576 -2.633107185 -0.4032003582
4.87338829 -6.321373463 -0.6946058869
5.2464571 -6.812663555 -0.1493908018
5.244290829 -6.792665958 0.7470736504
5.204862595 -6.748900414 1.343197942
5.193667889 -6.739246845 1.645599723
5.161634445 -6.700099468 1.942674041
4.435070038 -5.761135578 1.936536193
0.5735793114 -0.7469631433 -0.2407537699
0.6300768256 -0.8211321235 -0.2289967537
1.977445245 -2.579852343 -0.5081507564
2.090297461 -2.728069782 -0.4168497026
4.849977016 -6.334336281 -0.6942572594
5.202948093 -6.800252914 -0.4465315342
5.223836422 -6.830024242 -0.1493908018
5.229661465 -6.812963963 0.1492162794
5.225812435 -6.810410976 0.4476829469
5.225373268 -6.814763546 0.7475966215
5.185937405 -6.768223286 1.041795731
5.171290874 -6.75643301 1.645599723
5.134651184 -6.710988045 1.940874338
4.414767742 -5.774276257 1.936018586
0.5523554087 -0.7242830396 -0.2324715555
0.6273504496 -0.8232170343 -0.2289967537
1.966336727 -2.581185818 -0.6224817634
1.973665237 -2.5926826 -0.5094022155
2.118018866 -2.784327507 -0.4244056046
4.84953928 -6.379777431 -0.6973949075
5.182785511 -6.820649147 -0.4467408657
5.190289497 -6.835475445 -0.1491115689
5.203402519 -6.825499058 0.1491115689
5.193535805 -6.817489624 0.446950227
5.202746391 -6.832054138 0.7475966215
5.164666176 -6.786962509 1.042039514
5.157608986 -6.782599926 1.342885137
5.15717411 -6.784484386 1.648270965
5.106479168 -6.722663403 1.939074874
4.398088932 -5.794268131 1.937571526
0.5496971011 -0.7263026834 -0.2324715555
0.6620975733 -0.8751323819 -0.2433936298
1.94502306 -2.572714806 -0.618665576
1.964149117 -2.599899054 -0.5094022155
2.115464926 -2.801208258 -0.4258680642
4.942455292 -6.549340725 -0.7141287923
5.160157204 -6.842788696 -0.446950227
5.161582947 -6.847164631 -0.148971945
5.181960106 -6.846809387 0.149181366
5.174525738 -6.841948509 0.44736889
5.180073261 -6.854255199 0.7479452491
5.142141342 -6.80653429 1.042283297
5.130331516 -6.795832634 1.341946602
5.13227272 -6.803341389 1.648270965
5.084151745 -6.744446754 1.939974546
4.381324291 -5.814213753 1.939124465
0.5471584797 -0.7282170653 -0.2324715555
0.6635658741 -0.8837867379 -0.245193243
1.939566255 -2.584198952 -0.619810462
1.952691674 -2.603578806 -0.5087764859
2.111136198 -2.816885471 -0.4270867407
4.92792511 -6.577715397 -0.715348959
5.136239529 -6.860759258 -0.446950227
5.141243458 -6.872441292 -0.1491115689
5.159231186 -6.868953705 0.1492511779
5.1518116 -6.864063263 0.4475782812
5.144157887 -6.856358528 0.7462020516
5.123113155 -6.833276272 1.043501854
5.09354496 -6.798781872 1.338817835
5.112024307 -6.825929165 1.64941597
5.067583084 -6.771513939 1.942674041
4.350728989 -5.817855835 1.934983253
0.5630942583 -0.7548987269 -0.2407537699
0.6185505986 -0.8298493028 -0.2289967537
1.935226083 -2.5972507 -0.6213368773
1.936513186 -2.600872517 -0.5068992376
2.106030464 -2.830608368 -0.4280616939
4.718257904 -6.343882084 -0.6879820824
5.11464262 -6.881851673 -0.4471595585
5.121991634 -6.896767139 -0.1492511779
5.123270035 -6.870889664 0.1489021331
5.130207062 -6.885207653 0.4477876127
5.1249547 -6.880664825 0.7468993664
5.096858978 -6.847933292 1.043014407
5.078033447 -6.827614784 1.341007948
5.076452732 -6.82797718 1.645599723
5.043915272 -6.789161682 1.942674041
4.335000515 -5.839211941 1.937053919
0.5558570623 -0.7506495714 -0.2386832088
0.6388332248 -0.8633335233 -0.2379947752
1.92498076 -2.602411747 -0.6209552884
1.927422643 -2.607616425 -0.5068992376
2.091419458 -2.831555367 -0.4270867407
4.212058067 -5.704753399 -0.6166886687
5.089403629 -6.898056507 -0.4470548928
5.095532417 -6.908886909 -0.1491464674
5.10401392 -6.895161629 0.149041757
5.104969978 -6.898971558 0.4475782812
5.102089405 -6.900114536 0.7470736504
5.065846443 -6.85610342 1.041552067
5.055365086 -6.844416618 1.341007948
5.051421165 -6.844075203 1.645218134
5.022499561 -6.809863567 1.943573713
4.321345329 -5.861330032 1.939642072
0.5395026803 -0.7339068651 -0.2324715555
0.6405826211 -0.8717285991 -0.2397943884
1.911236882 -2.602785587 -0.6194288135
1.921102762 -2.617178679 -0.5075250268
2.077321768 -2.832072258 -0.4261117876
4.268677711 -5.823873043 -0.6280189157
5.083488941 -6.915270805 0.1491115689
5.073763371 -6.907090664 0.446950227
5.085046768 -6.927518845 0.7481195331
5.04543066 -6.876064777 1.042039514
5.033778191 -6.865207195 1.341633558
5.035661221 -6.870289803 1.647507787
4.99067831 -6.813904285 1.939974546
4.303141117 -5.879496098 1.940677285
0.5370660424 -0.7356918454 -0.2324715555
0.6329419613 -0.8676618934 -0.2379947752
1.911955237 -2.623868465 -0.5075250268
2.082613707 -2.86016798 -0.4292804003
5.062855244 -6.937819004 0.1492162794
5.05197525 -6.927986622 0.4471595585
5.062045574 -6.94434309 0.7481195331
5.028411388 -6.903262615 1.043501854
4.999321938 -6.86836338 1.338817835
4.964290619 -6.822738647 1.631861567
4.966862679 -6.831283569 1.939974546
4.282591343 -5.894481659 1.940677285
0.5479660034 -0.7564291358 -0.2386832088
0.6344812512 -0.8761794567 -0.2397943884
5.03391552 -6.948972702 0.1490766704
5.034788132 -6.955286503 0.4477876127
5.02955389 -6.953163624 0.7470736504
5.007773876 -6.925599098 1.044233203
4.982257366 -6.895379066 1.340695024
4.992116451 -6.914106369 1.64941597
4.946352005 -6.855763912 1.941774249
4.257470131 -5.903127193 1.938606858
0.5453221798 -0.7583373189 -0.2386832088
0.6449117064 -0.8974896073 -0.245193243
1.023709655 -1.425167441 -0.3328337371
1.014250994 -1.41304028 -0.2688059509
1.031227946 -1.437751412 -0.2121092081
1.040395856 -1.451068282 -0.1524971575
1.047668934 -1.463368416 -0.03071443737
5.003743172 -6.960880756 0.1489370465
5.013923168 -6.980181694 0.4482062757
5.007575989 -6.973914623 0.7474222779
4.981198311 -6.942294121 1.04398942
4.955800533 -6.911989212 1.340382218
4.958801746 -6.91872406 1.646362901
4.924660206 -6.876155853 1.942674041
4.238053799 -5.921833992 1.939642072
0.5516507626 -0.7728150487 -0.242824316
0.6146156192 -0.8616592884 -0.2343955785
1.016448975 -1.425535202 -0.3320704699
1.004727244 -1.410136819 -0.267554462
1.019294858 -1.431639671 -0.2106467783
1.015684605 -1.427096009 -0.1495338827
1.015231848 -1.427514195 -0.08960029483
1.014753103 -1.42789638 -0.02987672389
4.981737137 -6.981559753 0.1490068436
4.984888554 -6.991136551 0.4477876127
4.987827301 -6.997841835 0.7481195331
4.947722435 -6.946703434 1.042039514
4.938515663 -6.938901901 1.342259407
4.884543419 -6.865605354 1.629571795
4.872398853 -6.853598118 1.931426406
4.219594002 -5.939741611 1.940677285
0.526612103 -0.7432107329 -0.2324715555
0.6273694634 -0.8860656023 -0.2406942248
1.040861964 -1.471695423 -0.2788177431
5.237291813 -7.410596848 -1.109067678
5.242426872 -7.420608997 -0.791174531
1.013698339 -1.435944438 -0.08991431445
5.236816406 -7.420909882 -0.1578377783
4.961960316 -7.005434513 0.1491464674
4.959370136 -7.004368782 0.4475782812
4.963369846 -7.015210152 0.7481195331
4.923443317 -6.963931561 1.042039514
4.914337158 -6.95362711 1.341946602
4.876403809 -6.90506506 1.634914398
4.843951702 -6.864195347 1.929626942
4.206555843 -5.963172436 1.943783164
0.5306828618 -0.7545253038 -0.2355773747
0.6177027822 -0.8785760999 -0.2379947752
5.218648911 -7.444702625 -0.4742695689
5.209733963 -7.437507153 -0.1578028649
4.943304539 -7.028393745 0.1492860913
4.934889793 -7.02163744 0.4475782812
4.943432808 -7.039014816 0.7488167882
4.903745651 -6.985095501 1.042770743
4.878691196 -6.954566956 1.338817835
4.891804218 -6.975849628 1.647889376
4.843528271 -6.912139416 1.938624978
4.187931061 -5.980985165 1.944818377
0.5104798079 -0.7309396267 -0.2272951603
0.6146321893 -0.8807269931 -0.2379947752
5.192629814 -7.462873936 -0.4742695689
5.188306332 -7.462213993 -0.1579424739
4.9164505 -7.042325497 0.1492162794
4.914919853 -7.045372009 0.4479969442
4.90752697 -7.037391663 0.7468993664
4.890681267 -7.018455982 1.045208097
4.860029221 -6.979660511 1.340382218
4.861815453 -6.984825611 1.645981312
4.824934483 -6.937002182 1.940874338
4.162617683 -5.989221573 1.942747831
0.5343394279 -0.7708215117 -0.2397184968
0.6182122231 -0.8924787641 -0.2406942248
5.166547775 -7.480953693 -0.4742695689
5.174720287 -7.498383999 -0.1583264321
4.887282848 -7.052871227 0.1490766704
4.890296936 -7.062485695 0.4479969442
4.884066105 -7.056118011 0.7470736504
4.862765789 -7.030587196 1.044476867
4.840127945 -7.003081322 1.341633558
4.828477383 -6.988832951 1.642928362
4.81176281 -6.96984005 1.945373416
4.141685963 -6.003715038 1.942747831
0.5163149238 -0.7504007816 -0.2324715555
0.5863875151 -0.8528801203 -0.2289967537
5.152770042 -7.497326851 -1.760085106
2.416106462 -3.518087626 -0.669278264
4.99758625 -7.282418728 -1.079331517
5.146049976 -7.507180214 -0.4747929573
5.155294895 -7.526299953 -0.1585358679
4.864899635 -7.073182583 0.1491464674
4.867877483 -7.082805157 0.4482062757
4.866175175 -7.082976341 0.7481195331
4.83370018 -7.040972233 1.043501854
4.812301159 -7.015048504 1.340695024
4.817376137 -7.025073528 1.647507787
4.780794144 -6.976948261 1.942674041
4.129435539 -6.030887604 1.946888924
0.513692379 -0.7521985173 -0.2324715555
0.583406806 -0.8549218178 -0.2289967537
5.104441166 -7.482830048 -1.75245285
4.955371857 -7.275208473 -1.075675368
4.976629257 -7.309159279 -0.7699084878
5.127676964 -7.53665638 -0.4755256474
5.124495029 -7.537633896 -0.158396244
4.845817566 -7.098378658 0.1493210047
4.834120274 -7.086554527 0.44736889
4.848156452 -7.10979557 0.7491654158
4.807975292 -7.05616188 1.04325819
4.79223156 -7.038334846 1.341946602
4.796138763 -7.046715736 1.648652554
4.749835491 -6.983925819 1.939974546
4.1105299 -6.04846096 1.947924256
0.5263738036 -0.7762829065 -0.2397184968
0.6089892983 -0.8987973928 -0.2406942248
5.074093819 -7.491588593 -1.750544667
4.940115929 -7.304756641 -1.077625394
4.962241173 -7.342993736 -0.7716516256
5.116072655 -7.573479652 -0.4767817259
5.146460533 -7.624198914 -0.1598622501
4.822252274 -7.11440897 0.1493210047
4.812833786 -7.105854034 0.4475782812
4.822318554 -7.122533798 0.7488167882
4.79122448 -7.081932068 1.04472065
4.766652584 -7.050914288 1.341320753
4.7804389 -7.073967457 1.651323915
4.725559711 -6.99802351 1.939524651
4.090450287 -6.062058926 1.947924256
0.5084285736 -0.7557663918 -0.2324715555
0.5775740743 -0.8588730693 -0.2289967537
5.058647156 -7.528060436 -1.754742503
4.936715126 -7.354920864 -1.082500219
4.989849567 -7.439695358 -0.780018568
4.799621105 -7.134517193 0.1493908018
4.792456627 -7.129240036 0.4479969442
4.789514542 -7.130237579 0.7477709055
4.770901203 -7.105206013 1.045695662
4.73760891 -7.060949326 1.340069413
4.74901247 -7.08328867 1.64941597
4.699879169 -7.015296459 1.939524651
4.066040039 -6.071485043 1.946371317
0.5186599493 -0.7768163681 -0.2386832088
5.056302547 -7.581605911 -1.763138056
4.920725822 -7.389487743 -1.084937453
4.766778946 -7.142080784 0.149181366
4.769759655 -7.1492486 0.4482062757
4.760175705 -7.140281677 0.7470736504
4.731620789 -7.102819443 1.042770743
4.717311859 -7.084019661 1.341320753
4.719908714 -7.093284607 1.647889376
4.683994293 -7.044641495 1.943123817
4.048029423 -6.09046793 1.947924256
0.496737361 -0.7496350408 -0.2293657213
0.6103053093 -0.9213718176 -0.245193243
4.894005775 -7.402453899 -1.084450006
4.635924816 -6.996155262 0.1457955986
4.584889889 -6.924386501 0.433028847
4.570315361 -6.90761137 0.7209269404
4.542685032 -6.868456841 1.005966187
4.528096676 -6.851595402 1.294077516
4.524296284 -6.848443508 1.587212205
4.66490221 -7.066641331 1.94492352
4.031000137 -6.111011505 1.949994802
0.5006192923 -0.7609617114 -0.2324715555
0.5963807702 -0.9072126746 -0.2406942248
4.887737751 -7.449367046 -1.088837385
4.544239044 -6.915311813 0.4314587712
4.549571514 -6.9260602 0.721275568
4.514325619 -6.877633572 1.004991174
4.50740242 -6.872314453 1.29501617
4.507898331 -6.875687122 1.589883447
4.584674358 -6.998117924 1.921528578
4.013876915 -6.131510735 1.952065468
0.5190822482 -0.7950567603 -0.242824316
0.5655260086 -0.8668535948 -0.2289967537
4.503707886 -6.906038284 0.4298886955
4.236243248 -6.515769958 1.784308434
3.992449522 -6.145484447 1.952065468
0.5015974045 -0.7741658688 -0.2355773747
0.6006234884 -0.9277122021 -0.245193243
3.873210192 -5.980203152 0.1236659586
3.863206625 -5.969323158 0.3704350591
3.868011713 -5.979035854 0.6193033457
3.850851059 -5.95706749 0.8658164144
3.8333745 -5.934575081 1.112300754
3.832531452 -5.935542583 1.365110517
3.799301147 -5.893101692 1.867172718
0.49262321 -0.7661623955 -0.2324715555
0.5763142705 -0.8970127702 -0.2361951619
3.860961676 -6.007144451 0.1239451915
3.855297804 -6.002938271 0.3716911077
3.857881069 -6.009267807 0.6210464239
3.830033541 -5.970473289 0.8658164144
3.809437513 -5.942930698 1.1113621
3.817084789 -5.957149029 1.36701858
3.807115793 -5.946158409 1.62009418
3.798487425 -5.937246323 1.877007723
0.5024152398 -0.7874202728 -0.2386832088
0.5773701668 -0.9055917263 -0.2379947752
0.7573695183 -1.188374043 -0.2656689286
0.7560423613 -1.187206149 -0.2162439674
0.7420696616 -1.166163087 -0.1645801514
3.822764158 -5.993609428 0.1233867183
3.825732708 -6.002884388 0.3708537221
3.799413443 -5.96388483 0.6149455905
3.779320955 -5.936917782 0.8589916825
3.764284611 -5.917856216 1.10416615
3.743489027 -5.891973495 1.601648092
3.707331419 -5.839565754 1.841808438
0.4872624278 -0.7695828676 -0.2324715555
0.553367734 -0.8746650219 -0.2289967537
0.7290813923 -1.152847171 -0.2568917274
0.7265675664 -1.149760365 -0.2087351084
0.7295155525 -1.155318379 -0.1626302451
0.7318341732 -1.159438252 -0.1162403747
0.7373677492 -1.169109344 -0.07023598999
0.707950592 -1.123336673 -0.02247690409
3.774014235 -5.962985039 0.1224792004
3.774864435 -5.968937874 0.3679229319
3.649751902 -5.773335457 0.5938538909
3.69602561 -5.851054192 0.8446111083
3.544327259 -5.615245342 1.045033813
3.491498232 -5.533689499 1.263600111
3.455799341 -5.481348991 1.486023307
3.456266642 -5.486334801 1.725857496
0.4845730662 -0.771279037 -0.2324715555
0.5772506595 -0.9195032716 -0.2406942248
0.7177478671 -1.143744588 -0.2542203963
0.7256980538 -1.157310247 -0.2096737176
0.7140833139 -1.139229417 -0.1599491239
0.7224945426 -1.153543115 -0.1153688207
0.7195079327 -1.149666667 -0.0688752532
0.7127062678 -1.139240384 -0.02275614254
3.457517147 -5.505348682 0.1127756536
3.440718174 -5.480723858 0.3369400501
3.392416 -5.407974243 0.5548081398
3.360346556 -5.361006737 0.7717332244
3.331651211 -5.317290306 0.9871531129
3.330473661 -5.319535255 1.211699963
3.305273056 -5.281335354 1.428435802
3.288506985 -5.258625507 1.650282264
0.4861020148 -0.7794384956 -0.2345421165
0.5638917089 -0.9048736095 -0.2361951619
0.7129130363 -1.144452095 -0.2538387775
0.71559304 -1.149648309 -0.207796514
0.7218372226 -1.160131216 -0.1626302451
0.7113015056 -1.144088387 -0.1141486466
0.7220153809 -1.162225604 -0.06950328499
0.7205286622 -1.160284162 -0.02314009517
3.329220533 -5.340301514 0.1091455519
3.289428473 -5.278525829 0.3237513602
3.231235266 -5.189177513 0.5311017036
3.216705799 -5.169864655 0.7424846292
3.192980289 -5.133730412 0.9508603215
3.184314251 -5.123784065 1.164379358
3.164340734 -5.09362793 1.374447584
3.140636683 -5.059410572 1.584024668
0.4855482876 -0.7843313217 -0.2355773747
0.5444853902 -0.8802217841 -0.2289967537
0.7266665697 -1.175196767 -0.2603262961
0.7065853477 -1.143612385 -0.2062321603
0.7219545841 -1.169400334 -0.1636051983
0.707303524 -1.146564364 -0.1141486466
0.7150123119 -1.159513474 -0.06918927282
0.7101801038 -1.152577519 -0.0229306668
4.586841583 -7.412252903 0.151450187
4.565066338 -7.382824421 0.4527071714
3.096685648 -5.010048389 0.5115788579
3.086888313 -4.998098373 0.7161608338
3.056774855 -4.953206539 0.9151932597
3.03742981 -4.923782825 1.116295457
3.027924061 -4.912209511 1.322258949
2.995303154 -4.863088131 1.518802285
0.5028868318 -0.8190315366 -0.2459301353
2.354302168 -3.838862658 -0.8670989275
0.7560597062 -1.233777523 -0.2225013524
2.980411053 -4.865494251 -0.6954430342
0.7386613488 -1.206803679 -0.1200752333
0.748272419 -1.223465085 -0.07295746356
2.964360237 -4.848786831 -0.09849958867
3.047952652 -4.96407795 0.1009778306
3.024806499 -4.930238724 0.3009328842
2.967922926 -4.841312408 0.4931018054
2.953255177 -4.819275379 0.6888620853
2.940438271 -4.802121162 0.8851578236
2.914851189 -4.764066219 1.077370524
2.906219006 -4.753685474 1.276368856
2.889660358 -4.72845459 1.473250031
0.4939943552 -0.8108830452 -0.242824316
0.5381727219 -0.8840955496 -0.2289967537
2.333743334 -3.835316896 -0.8644275665
2.655435085 -4.367423058 -0.8028733134
2.838874578 -4.672801018 -0.6661944389
2.85247159 -4.697029591 -0.477065146
2.853546381 -4.70249939 -0.2860694826
2.839559078 -4.681291103 -0.09486948699
2.915330172 -4.787343979 0.09713830054
2.897496223 -4.75992775 0.2898376882
2.864032984 -4.708654881 0.4784596264
2.826286793 -4.650252819 0.6630257964
2.810836077 -4.626649857 0.8507422805
2.800400972 -4.613101959 1.040735126
2.790562868 -4.600515842 1.232278585
2.784994841 -4.593143463 1.427697897
0.4791691601 -0.7927626967 -0.2366126478
0.5352380872 -0.8858752847 -0.2289967537
2.317297697 -3.838397264 -0.8632826805
2.631751299 -4.360982895 -0.8000574708
2.753658295 -4.56659317 -0.6496201754
2.749686241 -4.563607216 -0.462422967
2.747257233 -4.561376572 -0.2768583596
2.740712404 -4.554105759 -0.09207710624
2.80841136 -4.646383762 0.09406667948
2.794129372 -4.626402855 0.2810452282
2.740518093 -4.541216373 0.4603312612
2.724719286 -4.516819 0.6425517201
2.698811293 -4.477403641 0.8213325739
2.697952271 -4.477745056 1.007915974
2.680809498 -4.452809334 1.189987659
2.65741086 -4.417432308 1.369722486
0.4685871005 -0.7810944915 -0.2324715555
2.30758357 -3.851113081 -0.8644275665
2.602306128 -4.34641552 -0.7956773043
2.641902924 -4.416046143 -0.626708746
2.643778801 -4.422685623 -0.4470835924
2.675996304 -4.478356361 -0.2712060809
2.632537127 -4.409120083 -0.08893566579
2.697560549 -4.498381615 0.09085543454
2.689678431 -4.488789082 0.2720434368
2.635352373 -4.399866104 0.444991827
2.629420757 -4.393442154 0.623540163
2.591919661 -4.334214687 0.793174386
2.592653036 -4.337159157 0.9739519954
2.585306168 -4.328298569 1.153995633
2.564750433 -4.297290802 1.329346776
0.457819134 -0.7695247531 -0.2283304334
2.294456005 -3.861232996 -0.8648092151
2.552069664 -4.298174381 -0.7850397825
2.543391705 -4.285262585 -0.6067221761
2.524661541 -4.257090569 -0.4293038249
2.549600124 -4.302564144 -0.2599014938
2.521332026 -4.25655508 -0.08565461636
2.585733175 -4.346226692 0.08757437766
2.58826375 -4.353937626 0.2632509768
2.545948267 -4.286160946 0.4324414134
2.516775608 -4.238732338 0.6001412272
2.504204035 -4.220916271 0.7706478238
2.491641521 -4.203084469 0.9415144324
2.484012604 -4.19355154 1.115303874
2.46902442 -4.16990757 1.286900401
0.4629857838 -0.7844275236 -0.2324715555
2.27498126 -3.859071016 -0.8625195026
2.453835964 -4.165786743 -0.7590715885
2.445100784 -4.15427351 -0.5867356062
2.449167728 -4.162843227 -0.4188450873
2.433346987 -4.139259815 -0.2494343072
2.45377636 -4.175679207 -0.08383956552
2.504754066 -4.245448112 0.08534047008
2.495941162 -4.232198238 0.2552959323
2.458142042 -4.171432018 0.41989097
2.432732344 -4.131608486 0.5835670233
2.421319962 -4.11386919 0.7493727207
2.407288074 -4.093295574 0.9148011804
2.404197454 -4.091308594 1.08561039
2.387918472 -4.06523037 1.251700997
0.4700060785 -0.8027099371 -0.2376479357
2.266452312 -3.875462055 -0.8644275665
2.373214006 -4.059642315 -0.7381094098
2.35121274 -4.025230885 -0.5672364831
2.376371384 -4.071564198 -0.4087350667
2.3813622 -4.081751347 -0.2454567999
2.392859459 -4.10474968 -0.08223394305
2.419933796 -4.132935524 0.08289714158
2.402484179 -4.106421947 0.2471315414
2.36714673 -4.049263477 0.4066433012
2.346907616 -4.016251087 0.5660178065
2.335231066 -3.999472618 0.7268461585
2.330364466 -3.992738247 0.8903775811
2.317969322 -3.974687815 1.052317619
2.315355778 -3.973392963 1.220642686
0.465400368 -0.8009234667 -0.2366126478
2.292263031 -3.959137678 -0.396533221
2.349246979 -4.04452467 0.08094246686
2.311941862 -3.983499527 0.2391764522
2.287719011 -3.943348646 0.3951387405
2.263185501 -3.904199839 0.5489560962
2.24799037 -3.881108284 0.7036938667
2.253456116 -3.892111063 0.8659541011
2.233820677 -3.861304522 1.01992476
2.226061583 -3.850993633 1.180266976
0.4547459781 -0.7892328501 -0.2324715555
2.011176109 -3.494718313 -0.7755106091
2.180643082 -3.792253971 -0.686173141
1.638497829 -2.850585699 -0.3985693157
2.191013336 -3.81953907 -0.07616050541
2.209667206 -3.841178179 0.3839828372
2.19610858 -3.819149256 0.5357941985
2.17735076 -3.789589882 0.685547471
2.175639868 -3.789673805 0.8411489129
2.169230938 -3.78156662 0.9965298176
2.156869888 -3.761538744 1.150243878
0.4596571624 -0.804233253 -0.2366126478
2.001884699 -3.506832123 -0.776655376
2.112584114 -3.703753948 -0.6686524749
2.119503021 -3.718900442 -0.5204386711
2.192817688 -3.855355501 -0.07671898603
1.597193003 -2.797907591 0.1666388214
2.136998653 -3.745038271 0.3735240996
2.125068426 -3.727152586 0.5216573477
2.110644579 -3.704859495 0.6686524749
2.107021332 -3.700001717 0.8193966746
2.103975773 -3.697653055 0.9722350836
2.085780144 -3.66865468 1.119185686
0.4490867257 -0.7924667597 -0.2324715555
1.992886305 -3.520980597 -0.7781819105
2.044539213 -3.615182638 -0.6511318088
2.06547904 -3.653696537 -0.510201633
2.06576395 -3.657179832 -0.3637626767
1.591769457 -2.821480513 -0.0558459051
1.598169327 -2.820159197 0.05588080734
1.602178335 -2.829535723 0.1682088971
2.074203253 -3.666141748 0.3648085594
2.039732218 -3.606683016 0.5036206841
2.06465745 -3.653731585 0.6580149531
2.016225338 -3.570933342 0.7888671756
2.031041622 -3.600109339 0.9443411827
2.019820452 -3.581680298 1.090197921
0.4637880027 -0.8240996599 -0.2417890429
1.968351722 -3.503261566 -0.7728391886
1.989307165 -3.542006254 -0.63673985
1.985987902 -3.538988113 -0.4931399524
2.007491589 -3.58023572 -0.3553957343
1.714276433 -3.059807777 -0.1816069037
1.700149059 -3.035834551 -0.06003448367
2.042265892 -3.630361557 0.07200683653
2.019967794 -3.593659639 0.2138458639
2.012567043 -3.58195591 0.3557443321
1.688271403 -3.007234335 0.4183121622
1.968124151 -3.508590698 0.6304824948
1.973320723 -3.520734072 0.776273787
1.740318179 -3.106289625 0.8120698929
1.678281426 -2.998013973 0.9090245366
0.4438210726 -0.7954277396 -0.2324715555
1.923970103 -3.453853846 -0.7602458
1.930183887 -3.466432333 -0.6217221618
1.93053782 -3.469917059 -0.4824154079
1.934336424 -3.479602814 -0.3445884287
1.937745333 -3.488601685 -0.2069375217
1.916152835 -3.451146603 -0.068202205
1.945178151 -3.487629414 0.06900501996
1.960114956 -3.517296076 0.2088216096
1.683343053 -3.021887302 0.2989188135
1.92052424 -3.450500488 0.4797343016
1.90724659 -3.429462433 0.6148390174
1.90795517 -3.43355751 0.7552847862
1.901139736 -3.422699213 0.8939521313
1.899773121 -3.423053026 1.037398815
0.44090271 -0.7970491052 -0.2324715555
1.871077895 -3.386656761 -0.7438362837
1.864004731 -3.376638412 -0.6042014956
1.866034627 -3.383105993 -0.46925354
1.876003981 -3.402584314 -0.3362214565
1.888934731 -3.428868294 -0.2029599845
1.867812395 -3.39332819 -0.06691072881
1.909158707 -3.452735424 0.06816729903
1.750176668 -3.167825222 0.1874685436
1.568231344 -2.839674234 0.2800931633
1.875256538 -3.398422718 0.4714471698
1.854606628 -3.363775015 0.6016985774
1.859001637 -3.37313962 0.7404017448
1.849101782 -3.357948542 0.8750562072
1.837856889 -3.340286732 1.009963989
0.447409749 -0.8155203462 -0.2376479357
1.79981029 -3.284698009 -0.719794333
1.810467362 -3.306885958 -0.5904352665
1.81991744 -3.326903343 -0.4604789317
1.810586214 -3.311217785 -0.3264600337
1.821413636 -3.333782911 -0.1968890131
1.80421555 -3.305047035 -0.06502587348
1.839403272 -3.354177475 0.06607301533
1.850438476 -3.377095699 0.1996104866
1.541081667 -2.813677073 0.2769555748
1.809062362 -3.305689335 0.4575541019
1.79925859 -3.290501595 0.5873065591
1.794486284 -3.283135891 0.7190310955
1.794403553 -3.285708189 0.8543606997
1.788246512 -3.27715373 0.9887408614
0.4353275895 -0.8001076579 -0.2324715555
1.761210203 -3.243745804 -0.5779204965
1.770429492 -3.263441563 -0.4507293999
1.781920791 -3.28599143 -0.3233224154
1.794541717 -3.312023878 -0.1952142566
1.826577663 -3.372554541 -0.06624753773
1.793289423 -3.297336578 0.06481644511
1.537788272 -2.828719854 0.1665341556
1.512230754 -2.784023762 0.2734693289
1.760583162 -3.243940592 0.4480482638
1.771381497 -3.265196323 0.5816749334
1.3086766 -2.414300203 0.5255507827
1.27248776 -2.349494696 0.6069145799
1.273359656 -2.352085114 0.7050751448
0.4398708344 -0.8152235746 -0.2366126478
1.251548409 -2.322435379 -0.5045617819
1.262368083 -2.343491554 -0.4149157703
1.257208347 -2.335866213 -0.3205729425
1.268418074 -2.358665705 -0.2305887192
1.260604739 -2.345117807 -0.137330696
1.255596995 -2.337758064 -0.04561879486
1.288569927 -2.388138771 0.04666594043
1.440707207 -2.672330379 0.1569043398
1.272899151 -2.363041878 0.2311116606
1.247264147 -2.316420317 0.3178918064
1.248974085 -2.321537495 0.4108484685
1.256030321 -2.335630178 0.5072330832
1.243474841 -2.314218998 0.5965667963
1.239555717 -2.308857918 0.6905812621
0.4444587231 -0.830303371 -0.2407537699
1.216997147 -2.276363373 -0.4934948981
1.230911613 -2.30432415 -0.4070940018
1.223810196 -2.292956114 -0.3139919639
1.226827979 -2.299575567 -0.2243134975
1.23456049 -2.316016436 -0.1353419125
1.221108079 -2.292707443 -0.0446414575
1.250036359 -2.336200953 0.04554898292
1.243039131 -2.325074434 0.1359699517
1.242518783 -2.325076818 0.2269281745
1.216730714 -2.27873373 0.3120420873
1.204600096 -2.257911444 0.3986465633
1.223850727 -2.29496026 0.4973110855
1.210646749 -2.272109747 0.5844194293
1.207884908 -2.268834114 0.6771227121
0.4306886792 -0.8113734126 -0.2345421165
1.185134888 -2.235498905 -0.4835728407
1.191422701 -2.249256372 -0.39645648
1.192584634 -2.253350973 -0.3078985214
1.192706227 -2.254532337 -0.2194327861
1.205001473 -2.279699087 -0.132934466
1.194420218 -2.261590958 -0.04394336417
1.213756204 -2.287556887 0.04450184107
1.210592508 -2.283519268 0.1332484782
1.196145535 -2.25722003 0.2197813988
1.184617877 -2.237353802 0.3057048619
1.17361784 -2.218450308 0.3908248544
1.184628844 -2.240209818 0.4843360782
1.1781286 -2.229800224 0.5722721219
1.166587949 -2.209825516 0.6579700708
0.4278537929 -0.8128718734 -0.2345421165
1.151745915 -2.190964699 -0.4728875458
1.150496483 -2.190443993 -0.3851931989
1.157423019 -2.204566002 -0.3005863428
1.16076529 -2.212808371 -0.2149006724
1.16273129 -2.218438148 -0.1290616095
1.159074187 -2.212399483 -0.0428962186
1.176899791 -2.236918926 0.04341978952
1.176053882 -2.236257553 0.1302130073
1.1604563 -2.208470106 0.2145520598
1.147272587 -2.185232162 0.2979052365
1.148813844 -2.189096212 0.3848803341
1.147627473 -2.188691854 0.4721242785
1.149016023 -2.192270041 0.5614744425
1.13326335 -2.164051533 0.6429585218
0.4323087931 -0.827986002 -0.2386832088
1.109979749 -2.12862134 -0.458386004
1.114018559 -2.138187408 -0.3751813769
1.119847775 -2.150290728 -0.292542994
1.122151852 -2.156552553 -0.2089740783
1.117594838 -2.149626732 -0.1247700602
1.127756119 -2.170096874 -0.04198869318
1.138018489 -2.180534601 0.04223302752
1.135375738 -2.176396847 0.1264448166
1.129182816 -2.166369677 0.210019961
1.103343129 -2.118599176 0.2881556749
1.105063081 -2.122806549 0.3723655641
1.111373663 -2.136749983 0.4599125087
1.111176372 -2.137281179 0.5461777449
1.103817463 -2.124938965 0.6300175786
0.4260069132 -0.8225533366 -0.2366126478
1.086679459 -2.100902319 -0.4515169263
1.088783622 -2.106772184 -0.3689240217
1.085011959 -2.101272106 -0.2852308154
1.094890833 -2.121311903 -0.2051392347
1.093982816 -2.121368885 -0.1228859723
1.092696548 -2.120692253 -0.04094155133
1.105959296 -2.136348724 0.04129059985
1.100243926 -2.127126694 0.1233046502
1.099116564 -2.1258564 0.205662176
1.074445605 -2.079918385 0.2823059559
1.074996471 -2.082767248 0.3645438552
1.081778288 -2.096805096 0.4503720701
1.075136781 -2.085718393 0.5317808986
1.074279666 -2.085843086 0.617076695
0.4231330752 -0.8240353465 -0.2366126478
1.068588734 -2.083719492 -0.4469375014
1.060704708 -2.070125103 -0.3617280126
1.062292099 -2.075007439 -0.2810872495
1.072957277 -2.096742153 -0.2023502439
1.062931418 -2.078938961 -0.1201644912
1.062544584 -2.079973936 -0.04006893188
1.082059264 -2.10817337 0.04066231102
1.073672771 -2.093633413 0.1211065501
1.074420691 -2.095992565 0.2023502439
1.058129549 -2.065987825 0.279868573
1.04612267 -2.044302702 0.3570349813
1.059253812 -2.070854425 0.4438845515
1.052773595 -2.059959412 0.5241325498
1.046785951 -2.050008059 0.6051709652
0.4097368717 -0.8048481345 -0.2304009944
1.051521182 -2.068186522 -0.4427397251
1.048998833 -2.065009356 -0.3601636887
1.06043303 -2.089323997 -0.2825496793
1.053913116 -2.077376127 -0.2000841945
1.05708468 -2.087237835 -0.04013874009
1.064547658 -2.093807697 0.1208971962
1.05987668 -2.085520744 0.2009557486
1.052708864 -2.07320857 0.2803560197
1.044342637 -2.058511734 0.3589122295
1.053794742 -2.078041553 0.4446478188
1.047338367 -2.067098141 0.5250323415
1.035260916 -2.045031786 0.6025828123
0.4104065895 -0.813172102 -0.2324715555
1.039877295 -2.063078403 -0.4408316016
1.045338154 -2.075715542 -0.3614151478
1.045103312 -2.07705307 -0.2803560197
1.04755044 -2.082822323 -0.2002585232
1.044804692 -2.079170465 -0.1197458133
1.0551759 -2.101637602 -0.04034816474
1.04840064 -2.078183413 0.039929308
1.057232618 -2.097510815 0.1208971962
1.050797462 -2.085649252 0.2006071359
1.03832531 -2.062686205 0.2784061432
1.035375357 -2.058614969 0.3582864404
1.03771615 -2.064166307 0.4408316016
1.037492275 -2.065517187 0.5236826539
1.0220505 -2.036546469 0.5989593267
0.4162095785 -0.8318765163 -0.2376479357
1.031791925 -2.064939499 -0.4404500127
1.033674717 -2.070514679 -0.3598507941
1.034302473 -2.073583126 -0.2793810964
1.038132191 -2.083081484 -0.1999098957
1.032197237 -2.072078466 -0.1191177741
1.041596293 -2.092776537 -0.04010383412
1.04113996 -2.081830502 0.039929308
1.038299084 -2.077962399 0.1195364669
1.040839911 -2.083956957 0.2000841945
1.022255301 -2.048535585 0.2759687304
1.02289474 -2.051609755 0.3564092517
1.029628873 -2.066019058 0.4404500127
1.02506423 -2.058659554 0.5209832191
1.018377304 -2.047020197 0.6010298729
0.4097256362 -0.8264729977 -0.2355773747
1.022474408 -2.065188646 -0.4396867752
1.02520299 -2.072519064 -0.3595379591
1.024418354 -2.07184267 -0.2786498666
1.032619596 -2.090265036 -0.2002585232
1.020175815 -2.066892862 -0.1185944155
1.036054492 -2.099986076 -0.04017364234
1.03475523 -2.087243795 0.03996421397
1.024833679 -2.069045782 0.1188037544
1.034962296 -2.091329336 0.2004328221
1.01333797 -2.048532963 0.2754812539
1.016602516 -2.056938648 0.3567221165
1.023788333 -2.073299646 0.4412132204
1.013201118 -2.053664446 0.5187336802
1.012079954 -2.052295446 0.6015475392
0.410246253 -0.8348334432 -0.2376479357
1.012664676 -2.063457727 -0.438541919
1.017962337 -2.076084852 -0.3595379591
1.015071273 -2.072017908 -0.27816239
1.024440646 -2.09206748 -0.2000841945
1.021732211 -2.088381767 -0.1196411327
1.021689892 -2.089218855 -0.03989440575
1.027097821 -2.091022253 0.03996421397
1.023766875 -2.085160494 0.1195364669
1.025900841 -2.091351748 0.2000841945
1.009317398 -2.059363365 0.2764562368
1.003332973 -2.048057079 0.3545320332
1.019997239 -2.083914042 0.4427397251
1.005170226 -2.055438042 0.518283844
1.004910231 -2.055815458 0.6015475392
0.4090215266 -0.8397339582 -0.2386832088
1.004596829 -2.065214634 -0.4381602705
1.01107204 -2.079449177 -0.3595379591
1.015133977 -2.089657068 -0.2801122963
1.010172009 -2.081291437 -0.1986896992
1.018288612 -2.098946333 -0.1200598255
1.018751979 -2.101769686 -0.04006893188
1.020158291 -2.094416618 0.03996421397
1.016482234 -2.088721514 0.1195364669
1.016851902 -2.091336489 0.1997355819
1.00595355 -2.06984067 0.2774311602
0.992726326 -2.044439077 0.3532805741
1.007937551 -2.076687813 0.4404500127
1.001749635 -2.065773964 0.5200834274
0.9943583012 -2.05235672 0.5994769335
0.4062345922 -0.841085732 -0.2386832088
1.002860308 -2.079144478 -0.4404500127
1.002092361 -2.079406977 -0.3589122295
1.011277914 -2.100342274 -0.2810872495
1.006355762 -2.091986656 -0.1993869543
1.005762339 -2.091688156 -0.1194317937
1.010543227 -2.10351038 -0.04003402591
1.00936377 -2.090761423 0.03982459381
1.012655735 -2.099452496 0.1199551523
1.012506962 -2.100081205 0.2002585232
0.9969995618 -2.069762468 0.2769437134
0.9907237887 -2.058571577 0.3551577628
0.9955761433 -2.069578409 0.4381602705
0.9979093075 -2.076283693 0.5218830705
0.9888609648 -2.059298277 0.6005122662
0.3964786232 -0.828627944 -0.2345421165
0.9986189008 -2.089891911 -0.4419764578
0.9961662292 -2.08663106 -0.3595379591
1.003940344 -2.103859425 -0.2810872495
1.002476573 -2.102680445 -0.2000841945
0.9998069406 -2.098966599 -0.1196411327
1.010071516 -2.121469259 -0.04031326249
1.002059102 -2.094272375 0.03982459381
1.003598213 -2.099370718 0.1197458133
1.007379293 -2.109171629 0.2007814497
0.9880581498 -2.069647312 0.2764562368
0.9869336486 -2.069149256 0.3564092517
0.9947407246 -2.087391853 0.4412132204
0.9886171222 -2.076408148 0.5209832191
0.9833270907 -2.066226006 0.6015475392
0.3919283748 -0.8265156746 -0.2335068285
0.9913179278 -2.093364716 -0.4419764578
0.9939453006 -2.100809097 -0.3614151478
0.9911324978 -2.096756935 -0.2796248496
0.9968333244 -2.109769821 -0.2004328221
0.9941794276 -2.106055975 -0.1198504716
1.002660155 -2.124982119 -0.04031326249
0.9995153546 -2.108772993 0.04003402591
0.9945536852 -2.09925127 0.1195364669
1.001715541 -2.116276979 0.2011300772
0.9787687063 -2.069665432 0.2759687304
0.9780166149 -2.069010019 0.3557835221
0.9891247749 -2.094402075 0.4419764578
0.9813632965 -2.079846621 0.5209832191
0.9810526967 -2.080129623 0.6046533585
0.3857542872 -0.8208851218 -0.2314362824
0.9806680679 -2.089703321 -0.4404500127
0.9886512756 -2.107670546 -0.3620409071
0.9824890494 -2.096436977 -0.2791373432
0.9877729416 -2.109627724 -0.2000841945
0.9888832569 -2.112959385 -0.1200598255
0.9918483496 -2.121222973 -0.04017364234
0.994217813 -2.115695715 0.04010383412
0.9889177084 -2.106325865 0.1197458133
0.9926301837 -2.116153002 0.2007814497
0.9769563079 -2.083683968 0.2774311602
0.9691123962 -2.068833351 0.3551577628
0.9855042696 -2.104782343 0.4435029626
0.9728093147 -2.079559088 0.5200834274
0.9705141187 -2.076540947 0.6025828123
0.3977149427 -0.8536803126 -0.2407537699
0.9737331867 -2.092943907 -0.4404500127
0.9779574275 -2.103943348 -0.3607894182
0.9818542004 -2.114257097 -0.2810872495
0.9790939689 -2.109277487 -0.1997355819
0.9865434766 -2.127269268 -0.1206878498
0.9839676619 -2.122686386 -0.04013874009
0.9868267775 -2.119153023 0.04010383412
0.985298574 -2.116836548 0.1201644912
0.9839270115 -2.115819931 0.2004328221
0.9746950865 -2.097883224 0.2788936198
0.9639108777 -2.075619221 0.3557835221
0.9781511426 -2.10820961 0.4435029626
0.9671834111 -2.086478233 0.5209832191
0.9619983435 -2.076242208 0.6015475392
0.3817772567 -0.8269997239 -0.2324715555
0.970531106 -2.105244637 -0.4423580766
0.9693214893 -2.103586912 -0.3601636887
0.9764978886 -2.121107817 -0.2815747261
0.9700603485 -2.109061956 -0.1993869543
0.9744781256 -2.119641304 -0.1200598255
0.9798905849 -2.133376837 -0.04027835652
0.9764413834 -2.115151644 0.03996421397
0.9795762897 -2.123890162 0.1203738302
0.9748673439 -2.11562252 0.2000841945
0.9652417302 -2.09569478 0.27816239
0.9583109021 -2.082560301 0.3564092517
0.9662325382 -2.100739717 0.4412132204
0.9667685628 -2.103839874 0.5245824456
0.9547452331 -2.07958746 0.6015475392
0.3742094636 -0.8177212477 -0.2293657213
0.9659928083 -2.113808393 -0.4435029626
0.9636136889 -2.110551357 -0.3607894182
0.9707355499 -2.128115654 -0.2820622325
0.9680203199 -2.123144388 -0.2004328221
0.9637611508 -2.115759611 -0.1196411327
0.9798927903 -2.153165102 -0.0405925028
0.9673887491 -2.114910126 0.03989440575
0.9738171697 -2.130929708 0.1205831841
0.9744693041 -2.133341789 0.2014786899
0.955448091 -2.093633652 0.2774311602
0.9551331997 -2.094879389 0.3579736054
0.9605219364 -2.10767293 0.4419764578
0.956189096 -2.100107431 0.5227828622
0.9506795406 -2.089941502 0.6036180854
0.3761392832 -0.8295792341 -0.2324715555
0.9569886923 -2.113590479 -0.4427397251
0.9578691721 -2.117501736 -0.3614151478
0.9567608237 -2.117019892 -0.2801122963
0.966344893 -2.139220715 -0.2016530037
0.959656477 -2.126392841 -0.1200598255
0.9682610631 -2.1474576 -0.0404179804
0.9649530649 -2.129202366 0.04010383412
0.9614299536 -2.123399496 0.1199551523
0.9686592221 -2.140360594 0.2018273026
0.9489518404 -2.098764896 0.2776749134
0.9470018148 -2.096400261 0.3576607108
0.9563905597 -2.118170261 0.4435029626
0.9488525391 -2.103432417 0.5227828622
0.9481412768 -2.103814602 0.6067239046
0.3732412159 -0.8308871388 -0.2324715555
0.9463909268 -2.109753132 -0.4412132204
0.9553186893 -2.131648302 -0.3632923663
0.9526101947 -2.127593517 -0.2810872495
0.9560568929 -2.137291908 -0.2011300772
0.9571196437 -2.140669346 -0.1206878498
0.9583123922 -2.14534688 -0.04031326249
0.9607911706 -2.13985467 0.04024345428
0.953194499 -2.12492013 0.1198504716
0.95955199 -2.14009285 0.2014786899
0.9456778169 -2.111122608 0.2788936198
0.9348365068 -2.088875055 0.3557835221
0.9521974921 -2.128664255 0.4450294077
0.9415042996 -2.106731892 0.5227828622
0.939216733 -2.103583336 0.6056886315
0.3701934218 -0.8322495222 -0.2324715555
0.9402457476 -2.116796017 -0.4419764578
0.9442946911 -2.127912998 -0.3620409071
0.9483969808 -2.13816452 -0.2820622325
0.9445546269 -2.13150835 -0.2002585232
0.950884223 -2.147815466 -0.1208971962
0.9491996169 -2.145021439 -0.04024345428
0.951690495 -2.139540911 0.04017364234
0.9530711174 -2.14466095 0.1207925305
0.9525102377 -2.145416498 0.2016530037
0.9391079545 -2.116225243 0.2791373432
0.929140687 -2.095737219 0.3564092517
0.9427989125 -2.128549814 0.4442661703
0.9353538156 -2.113732338 0.5236826539
0.9271792769 -2.096248865 0.6025828123
0.3672859669 -0.8335367441 -0.2324715555
0.9360137582 -2.127253056 -0.4435029626
0.9352710843 -2.127579451 -0.3614151478
0.9437468648 -2.148895979 -0.2830371559
0.9403118491 -2.142090082 -0.2009557486
0.9417765737 -2.14746356 -0.1206878498
0.9465228915 -2.159310579 -0.04045288265
0.9422303438 -2.139354706 0.04010383412
0.9455789328 -2.14797473 0.1207925305
0.9450154901 -2.148728132 0.2016530037
0.9313452244 -2.119652987 0.2791373432
0.9265852571 -2.109819412 0.3582864404
0.9337857366 -2.128232002 0.4435029626
