# .PCD v0.7 - Point Cloud Data file format
VERSION 0.7
FIELDS x y z
SIZE 4 4 4
TYPE F F F
COUNT 1 1 1
WIDTH 1259
HEIGHT 1
VIEWPOINT 0 0 0 1 0 0 0
POINTS 1259
DATA ascii
-6.620779991 1.664253712 0.3555716276
-6.946547985 1.747430325 0.6229639053
-6.764867783 1.704238892 0.8514358401
-7.028448582 1.773248792 1.141397476
-6.966477394 1.758908749 1.388389111
-6.992453575 1.768063903 1.655186534
-7.018101692 1.777155399 1.928254008
-2.955206871 0.7521746159 -0.8054969311
-1.828155398 0.4680303037 -0.1613870561
-2.615805626 0.6706508398 -0.1393194646
-2.837655306 0.7280580401 -0.05043565854
-3.052082539 0.7773982286 0.0542751886
-6.599741459 1.682253361 0.354734242
-6.926892757 1.76821661 0.621743679
-6.7627244 1.728825927 0.8519233465
-7.018702507 1.795567393 1.140771747
-6.94127655 1.778343201 1.384572983
-6.974913597 1.789555669 1.652487159
-7.000942707 1.797536254 1.925148249
-2.973139048 0.7677984834 -0.8111909628
-4.77172327 1.237605333 -0.6001412272
-1.847722888 0.4799185991 -0.1633044779
-2.636763573 0.6853507757 -0.1405755281
-2.864124775 0.7455148101 -0.05095922947
-3.018508673 0.7795149684 0.05371670797
-6.58222723 1.702280402 0.3541062176
-6.909105778 1.789388061 0.6206978559
-6.747345924 1.748752475 0.8507046103
-6.98562336 1.81311059 1.13639164
-6.923940182 1.798390627 1.382283211
-6.967054367 1.812185049 1.652037144
-7.015189648 1.827318192 1.930842161
-2.942543507 0.7703151107 -0.8034263849
-3.485664129 0.9137971401 -0.821967721
-1.902386785 0.4990815818 -0.3740484715
-4.752519608 1.24857378 -0.7715864182
-6.141925335 1.615886688 -0.7746581435
-1.875022292 0.4936523139 -0.1659191549
-2.634355307 0.6945507526 -0.1405755281
-2.865372419 0.7565283775 -0.05102904141
-3.027376175 0.7930874825 0.05392614007
-6.572381973 1.724231243 0.3538968861
-6.918550014 1.816337466 0.6220923066
-6.723921776 1.767750144 0.8485109806
-6.99071312 1.840501666 1.138268828
-6.911925316 1.82104671 1.381138444
-6.9588027 1.835996747 1.651587248
-7.008768082 1.851796508 1.930842161
-2.956640959 0.7850436568 -0.808085084
-1.862688303 0.4956228435 -0.3664160967
-1.904086828 0.5084177256 -0.1687081307
-2.651209354 0.7089020014 -0.1416222453
-2.874303818 0.7696291208 -0.05123846978
-3.009127855 0.7995421886 0.05364689976
-6.55860281 1.745108604 0.3534781933
-6.900616169 1.837401032 0.6210464239
-6.734973431 1.79581356 0.8507046103
-6.984246731 1.864891171 1.138268828
-6.907423496 1.845669866 1.381520033
-6.935408592 1.855741262 1.647538185
-7.02092123 1.881250501 1.936018586
-2.965075254 0.798373282 -0.8111909628
-3.539409637 0.9543430805 -0.8363646269
-1.878005981 0.5067247748 -0.3698506653
-6.501934052 1.756790996 -1.06005156
-6.107499599 1.652504325 -0.7717332244
-1.923455119 0.520788908 -0.1706255525
-3.00668788 0.8163357973 -0.05368180573
-3.046866179 0.8209665418 0.05437990278
-6.548614502 1.766951442 0.3532688618
-6.878772259 1.857322574 0.6196519732
-6.736329079 1.821384788 0.8516795635
-6.996760845 1.894421935 1.141397476
-6.904728413 1.870797038 1.382283211
-6.943934441 1.88402164 1.651137471
-6.977026939 1.895616651 1.925665855
-2.92313385 0.7980332971 -0.8003205657
-3.579291105 0.9785116315 -0.8467124104
-1.878119349 0.5137952566 -0.3702322841
-5.22491312 1.433295488 -0.6601009369
-1.944681525 0.5338289738 -0.172717303
-3.003820181 0.8268262148 -0.05368180573
-3.024692059 0.8263273239 0.05403085425
-6.538553238 1.788745522 0.3530595005
-6.864560127 1.879218578 0.6189547181
-6.791192532 1.861682057 0.8594791889
-6.982486248 1.916742444 1.140146017
-6.900049686 1.895407915 1.382664919
-6.946710587 1.910833359 1.653386831
-6.977817059 1.922010064 1.927736282
-2.925915718 0.8097786903 -0.8018734455
-3.63594842 1.007653475 -0.8611092567
-5.237107754 1.454345942 -0.8541837931
-5.208403111 1.448334217 -0.6586384773
-1.98119545 0.5512968302 -0.176203534
-3.020323753 0.8421536684 -0.05403085425
-3.012153149 0.8342118859 0.05385633186
-6.532586098 1.810417056 0.3530595005
-6.861798286 1.904234529 0.6193033457
-6.807604313 1.891754508 0.862404108
-6.987510681 1.943062186 1.142023325
-6.883934498 1.916849017 1.380756855
-6.923103809 1.930361629 1.649337888
-6.97512722 1.946177483 1.928771615
-2.936091423 0.8236396909 -0.8054969311
-3.649472952 1.024445295 -0.8651583791
-4.369297981 1.228154421 -0.8739680052
-5.994622707 1.688399553 -0.7595463395
-2.009940624 0.5668617487 -0.1789925247
-3.005819798 0.8494279385 -0.05382142588
-3.026698589 0.8490570188 0.05417047068
-6.522380829 1.832130551 0.3528501689
-6.84360218 1.924936771 0.618257463
-6.839510441 1.925075889 0.8672788739
-6.957870483 1.961009502 1.138268828
-6.847307205 1.931140065 1.374650955
-6.907288074 1.950657725 1.647088289
-6.964573383 1.969462037 1.927736282
-2.931485891 0.8328437805 -0.8049793243
-3.106056213 0.8836106658 -0.7355865836
-4.370865822 1.244249463 -0.8751128912
-5.834992886 1.663241267 -0.9543018341
-5.782535553 1.650470972 -0.7332225442
-2.054028273 0.5866559744 -0.183175981
-2.993224382 0.8571624756 -0.05364689976
-3.050645351 0.8672720194 0.05465914309
-6.504419804 1.851605773 0.3522221446
-6.852510452 1.951987505 0.6196519732
-6.836566925 1.950027823 0.8677663207
-6.928188801 1.978776813 1.134514332
-6.861288548 1.960964561 1.378848672
-6.885448456 1.970469236 1.643489122
-6.953941822 1.99269712 1.926701188
-2.922991753 0.8414676189 -0.8034263849
-3.151637316 0.9084820747 -0.7472839952
-4.374042034 1.261674643 -0.8766393661
-5.829151154 1.683600664 -0.9543018341
-2.666509151 0.7711604834 -0.3356847465
-2.053881884 0.594376266 -0.1833503097
-2.029718637 0.5881509781 -0.1085459143
-2.982532263 0.8653767109 -0.05350728333
-3.030305147 0.8729336262 0.05434499681
-6.503674984 1.875958562 0.3525361419
-6.830340862 1.971475244 0.618257463
-6.873579979 1.98655498 0.8733723164
-6.940214634 2.008440018 1.137643099
-6.863831043 1.987631917 1.380756855
-6.856068134 1.98797965 1.638090253
-6.92839098 2.011572361 1.921524763
-2.903345346 0.8467975259 -0.7987676859
-3.157800198 0.9222086072 -0.7495334744
-4.352651119 1.271979094 -0.8732047677
-5.792905331 1.69506073 -0.949295938
-6.073768616 1.779547453 -0.7719770074
-2.09576869 0.6144343019 -0.1873594671
-2.019987583 0.5929826498 -0.1081272215
-2.964144945 0.8712703586 -0.05322804302
-3.048355579 0.8896687627 0.05472895131
-6.50475502 1.90089035 0.3529548347
-6.82341671 1.995307446 0.618257463
-6.838027477 2.002169371 0.8697162271
-6.910414696 2.025985003 1.133888721
-6.839896679 2.006605387 1.377322197
-6.875263691 2.019588947 1.644388795
-6.917620659 2.034654617 1.92048943
-2.904077053 0.8580216765 -0.799802959
-3.10410738 0.9182997346 -0.737386167
-4.335007191 1.28326416 -0.8705334663
-5.771801949 1.71078074 -0.9467930198
-6.025652409 1.788312674 -0.7666147351
-2.126080275 0.6313881278 -0.1903227568
-1.964301586 0.5840909481 -0.1051964089
-2.968751669 0.8838951588 -0.05336765945
-2.974278688 0.8793275356 0.05343747512
-6.480844021 1.918482423 0.3520127833
-6.803038597 2.015151024 0.6170372963
-6.832900047 2.026590824 0.8699599504
-6.842704296 2.032097578 1.12387681
-6.823440552 2.027674437 1.375414133
-6.875643253 2.045797586 1.646188378
-6.904922009 2.057134628 1.918936491
-2.902915239 0.8687068224 -0.8003205657
-3.136351109 0.9397570491 -0.7459343076
-4.33614254 1.300079942 -0.8716782928
-5.754443169 1.727509856 -0.9449158311
-6.042187214 1.816191196 -0.7695396543
-2.150574684 0.6468399167 -0.1927631199
-2.011973858 0.6059180498 -0.1079178825
-2.954160929 0.8907889724 -0.0531582348
-2.978853464 0.8919988871 0.05357709154
-6.466454983 1.938798904 0.3515940905
-6.805504799 2.041748524 0.6179088354
-6.844795227 2.056142569 0.8723973632
-6.896102905 2.07417798 1.133888721
-6.83136034 2.05600667 1.378467083
-6.842338562 2.061913967 1.639889836
-6.919893742 2.08791995 1.925148249
-2.768599272 0.8390538692 -0.7635682225
-3.140511036 0.9529619813 -0.747733891
-4.310913563 1.308933735 -0.8674805164
-5.748378277 1.74758482 -0.9449158311
-6.03011322 1.835537195 -0.7688084245
-6.467164516 1.969808459 -0.5877529383
-2.12829113 0.6490591764 -0.1144075394
-2.939558268 0.897590816 -0.05294880643
-2.996771812 0.9087751508 0.05396104604
-6.452003479 1.959038377 0.3511754274
-6.804055214 2.067229509 0.6184318066
-6.822383881 2.075399876 0.8704474568
-6.866143703 2.091332197 1.130134225
-6.822264671 2.079266548 1.378085494
-6.838826656 2.08692503 1.640789628
-6.903325081 2.109239817 1.922559977
-2.887545347 0.8861187696 -0.7977323532
-3.139028072 0.964491725 -0.7481838465
-4.313824654 1.326281548 -0.8690069914
-5.753570557 1.771128416 -0.9467930198
-6.035051823 1.86008203 -0.770270884
-6.424075127 1.981213331 -0.5844410062
-2.087845564 0.6446990371 -0.112314105
-2.928765774 0.9054839611 -0.05280918628
-2.961084127 0.9092507958 0.05336765945
-6.448944569 1.982722163 0.3513847589
-6.789180756 2.088622808 0.6177345514
-6.84734869 2.109135866 0.8745909929
-6.82482481 2.104806423 1.124502659
-6.801833153 2.099015713 1.375414133
-6.794262886 2.099277258 1.631791592
-6.648614883 2.056819677 1.853196383
-1.832866311 0.5694705248 -0.5026786327
-3.133781433 0.9748643041 -0.747733891
-4.312918663 1.342497706 -0.8697702289
-5.724721432 1.784148335 -0.9430385828
-6.022836685 1.87936461 -0.7695396543
-6.394298553 1.996500134 -0.5823493004
-2.085582256 0.6519830823 -0.112314105
-2.979022264 0.9324268103 -0.05378652364
-2.959801912 0.9201751947 0.05340256914
-6.445798397 2.006407022 0.3515940905
-6.770435333 2.108755827 0.6166886687
-6.826679707 2.12888813 0.8728848696
-6.745782852 2.106244564 1.112613559
-6.614568233 2.066542149 1.338778853
-6.615785599 2.069457293 1.590400696
-6.615585804 2.07193017 1.845949531
-2.879446268 0.9056757689 -0.7972147465
-3.124783039 0.9840406179 -0.7463842034
-4.283864021 1.34987402 -0.8648092151
-5.729762077 1.807686687 -0.9449158311
-6.021918774 1.902170777 -0.770270884
-6.394889355 2.021210194 -0.5830465555
-2.11376071 0.6689004302 -0.1139888465
-2.987351894 0.9459223747 -0.05399594828
-3.002350569 0.9449096918 0.05424028635
-6.427678585 2.024171591 0.3509660661
-6.759232044 2.131177902 0.6163400412
-6.760523319 2.134177923 0.865328908
-6.574885368 2.076838732 1.085394025
-6.573620319 2.078962803 1.331909657
-6.59923172 2.089596748 1.588151097
-6.606837273 2.093273878 1.845431924
-2.876267195 0.9157214761 -0.7972147465
-3.115932226 0.9926237464 -0.7450344563
-4.286606789 1.367206693 -0.86633569
-5.716208458 1.824275136 -0.943664372
-6.006122589 1.919108629 -0.7690521479
-6.397283554 2.046554089 -0.5839180946
-2.145770073 0.686866343 -0.1158729419
-3.067820787 0.983197093 -0.05553176254
-3.003011703 0.9560733438 0.05431009457
-6.431992054 2.050235748 0.3515940905
-6.747955322 2.153547525 0.6159914136
-6.613474369 2.111899376 0.847292304
-6.571357727 2.100979805 1.086019635
-6.562950611 2.099552393 1.331146479
-6.566283703 2.103147745 1.581852436
-6.592131615 2.113963842 1.843361378
-2.871375561 0.9246623516 -0.7966970801
-3.112448215 1.003493667 -0.7450344563
-4.263365269 1.375385523 -0.8625195026
-5.698527813 1.84057343 -0.9417871237
-5.993721008 1.938230157 -0.7683209181
-6.388566017 2.067143917 -0.5837438107
-2.173760176 0.7042008638 -0.1175476983
-3.087370634 1.00076437 -0.05595061556
-3.030109167 0.9763634801 0.05486857146
-6.402347088 2.064199448 0.3503380418
-6.532211304 2.108588457 0.5968171954
-6.538061619 2.112995386 0.8385176659
-6.538041115 2.114250898 1.081639528
-6.542506218 2.118217468 1.328475118
-6.560756683 2.126654863 1.582302332
-6.585085392 2.135812521 1.843361378
-2.860783339 0.9322862625 -0.794626534
-3.116514444 1.016226053 -0.7468340993
-4.243607521 1.38538599 -0.8594664931
-5.692392826 1.859460473 -0.9417871237
-5.949524879 1.945754647 -0.7634461522
-6.356696129 2.081372023 -0.5814777613
-2.266312361 0.7424968481 -0.1227812916
-3.114259958 1.021507263 -0.05650909618
-3.095300674 1.008711934 0.05612514168
-6.402697563 2.089013577 0.3507567346
-6.513448238 2.127664089 0.5957713127
-6.510262489 2.12788105 0.8358365297
-6.523112297 2.134601116 1.080388069
-6.531715393 2.138678551 1.32771194
-6.548112869 2.14657855 1.580952644
-6.566576958 2.155171394 1.840255499
-2.848502636 0.9387432337 -0.7920383811
-3.109246969 1.025877357 -0.7459343076
-4.24644804 1.401910901 -0.8609930277
-5.691493988 1.881179094 -0.942725718
-5.978504658 1.978358269 -0.7680771947
-6.064156532 2.007875919 -0.5551567078
-2.275081873 0.7541734576 -0.1234093308
-3.171407938 1.052528739 -0.05762604997
-3.141138077 1.035791755 0.0570326671
-6.391573429 2.110096693 0.3505473733
-6.491222382 2.144252539 0.5943768024
-6.510334492 2.153088093 0.8368115425
-6.517496109 2.157979012 1.080700994
-6.516754627 2.158997297 1.326185346
-6.540580273 2.169422865 1.580952644
-6.56451416 2.179904938 1.841808438
-2.848873377 0.9499034882 -0.7930736542
-3.09825325 1.034256339 -0.7441346645
-4.230355263 1.412994385 -0.8587033153
-5.671778679 1.896649599 -0.9405356646
-5.980974197 2.002366066 -0.7692958713
-2.298945904 0.771001339 -0.1248747408
-3.171506166 1.064864993 -0.05769586191
-3.148884535 1.050547361 0.0572420992
-6.387957096 2.133661985 0.3507567346
-6.48558712 2.167529821 0.5945510864
-6.491484165 2.17201972 0.8353490829
-6.508050919 2.180088997 1.080388069
-6.516625404 2.184226513 1.32771194
-6.549594879 2.197822094 1.585001826
-6.555033207 2.202191114 1.841290712
-2.849201202 0.9610770941 -0.7941089272
-3.087239027 1.042570353 -0.7423350811
-4.236557484 1.431523442 -0.8609930277
-2.749485254 0.9322541356 -0.2502858937
-2.337850809 0.7931381464 -0.1271775216
-3.586224079 1.218056798 -0.06540982425
-3.171723843 1.070485234 0.05773076415
-6.372901917 2.153389692 0.3503380418
-6.479868889 2.190793753 0.59472543
-6.487623215 2.195938826 0.8358365297
-6.517239094 2.208499193 1.083203912
-6.507101536 2.206330061 1.327330232
-6.534502506 2.218163967 1.583202243
-6.549135685 2.225680828 1.841808438
-2.851144552 0.973385334 -0.7956618071
-3.083580732 1.053341269 -0.7423350811
-4.272149563 1.461016774 -0.8693885803
-2.694025755 0.9223710895 -0.4443254471
-2.729256392 0.9349647164 -0.3490903676
-2.749983788 0.9431387782 -0.250634551
-2.414266586 0.8289425969 -0.1315737367
-3.799439192 1.305285215 -0.0694238767
-3.179322958 1.085425973 0.05794019252
-6.344556808 2.168516636 0.3491866291
-6.486876488 2.219689369 0.5961199403
-6.489309311 2.221786737 0.8370552659
-6.498278618 2.227392197 1.081326723
-6.502685547 2.23143959 1.328093529
-6.531857014 2.243998766 1.58455193
-6.725846767 2.311955452 1.894089818
-2.825816393 0.9757660627 -0.7894501686
-3.063123226 1.058905005 -0.7382859588
-2.704777479 0.9355560541 -0.5480661988
-2.743055344 0.9498674273 -0.4530857801
-2.727851629 0.9451365471 -0.3493341208
-2.74102807 0.9507728815 -0.2501116097
-2.441546202 0.8478479385 -0.1332484782
-3.726858377 1.294911504 -0.06816729903
-5.284637451 1.8258394 0.0968939662
-5.304404736 1.833703756 0.2919311225
-6.494151115 2.247532129 0.5975143909
-6.490463734 2.250062227 1.081326723
-6.732401848 2.337884426 1.635390759
-6.74510622 2.344934702 1.901854515
-2.756903172 0.9622134566 -0.7708151937
-2.721095324 0.950781405 -0.6555039883
-2.70536685 0.9458155632 -0.5488294959
-2.726839066 0.9543905854 -0.4508956671
-2.732196331 0.9568017125 -0.3503090441
-2.724698782 0.9552431703 -0.2488914132
-2.483950615 0.8718144298 -0.1357606202
-3.445193529 1.209864974 -0.06303629279
-5.293656826 1.848628163 0.09717320651
-6.627710819 2.318394899 0.6105877757
-6.713451862 2.351017714 0.8682538271
-6.637699127 2.325790167 1.107294798
-6.676309109 2.341935158 1.36701858
-6.74116087 2.366005659 1.63943994
-6.784680843 2.383940458 1.915313005
-2.702685833 0.953356564 -0.7563213706
-2.710577488 0.9572042227 -0.6537043452
-2.711471319 0.9580520988 -0.5507375598
-2.721797228 0.9627693295 -0.4505828023
-2.726968527 0.9656704068 -0.3500652909
-2.717591763 0.9634168744 -0.2485427856
-2.503633976 0.88805902 -0.1370166689
-4.092956543 1.45341289 -0.07511336356
-5.316281796 1.878417492 0.293291837
-6.621864796 2.341024637 0.6107620597
-6.703747749 2.372603655 0.8680101037
-6.629540443 2.348944426 1.107294798
-6.664805412 2.362748623 1.366255283
-6.732861042 2.389520884 1.63943994
-6.743551254 2.395967007 1.905995488
-2.710090399 0.9671519399 -0.7594271302
-2.698043346 0.963383615 -0.6514548659
-2.715336084 0.9706270099 -0.5522640347
-2.705230713 0.9680805802 -0.4483927488
-2.759090424 0.9878969193 -0.3546963632
-6.240229607 2.236783981 -0.5762484074
-2.560519218 0.9188153148 -0.1403661817
-4.050216198 1.454176545 -0.07441526651
-6.626372814 2.369974613 0.6119822264
-6.676734447 2.389303207 0.865572691
-6.617580891 2.370739222 1.106669068
-6.652405262 2.385835171 1.365492105
-6.720389366 2.412866592 1.638540149
-6.74969244 2.424715519 1.9101367
-2.710332155 0.9779174924 -0.7604624629
-2.694494247 0.9732660055 -0.6514548659
-2.743319511 0.9914432764 -0.5587515235
-5.608886242 2.029280663 -0.9380326867
-5.838811874 2.114772081 -0.7573527098
-5.848381519 2.11939311 -0.5405145884
-2.662437201 0.9658918977 -0.1462278068
-4.095608234 1.48744154 -0.0753576979
-5.332757473 1.927273273 0.2949666083
-6.614311695 2.391735792 0.6116336584
-6.662333488 2.411730051 0.8648414612
-6.59584713 2.390266895 1.104478955
-6.651419163 2.411718607 1.36701858
-6.689945221 2.428330183 1.633141398
-6.729865074 2.445481062 1.907030821
-2.728680611 0.9953163862 -0.7666741014
-2.93270874 1.070897818 -0.7108419538
-4.148684025 1.515739799 -0.850307703
-5.60918951 2.051561356 -0.9392842054
-5.781063557 2.116712332 -0.7507717013
-5.788565636 2.120604992 -0.5356338024
-2.692802191 0.9875574708 -0.1481119096
-5.325997353 1.945876598 0.2949666083
-6.590952396 2.409337282 0.6102391481
-6.637095928 2.428831577 0.8626478314
-6.589318752 2.413955927 1.10479188
-6.650333405 2.437624693 1.368545055
-6.67593956 2.449653864 1.631791592
-6.686833382 2.456301689 1.897195697
-2.969885826 1.095059037 -0.8365552425
-3.055096626 1.127690434 -0.7418851852
-4.148892879 1.532251835 -0.8514525294
-5.598288059 2.069758654 -0.9386584163
-5.782948494 2.140324593 -0.7519904375
-6.014677525 2.227283478 -0.5574227571
-2.741774559 1.016389489 -0.1510427147
-4.351622105 1.61403203 -0.08031418175
-5.316870689 1.961497068 0.09822034836
-5.319515705 1.963527679 0.2949666083
-6.580633163 2.431638956 0.6100648046
-6.641609669 2.456805706 0.8643539548
-6.568309307 2.430994272 1.102601767
-6.627056122 2.455368996 1.365492105
-6.661866188 2.470909595 1.630441904
-6.662351131 2.472414017 1.892536998
-2.973285913 1.108118653 -0.8386257291
-3.044036627 1.13509202 -0.7400856018
-4.136161804 1.543979645 -0.8499261141
-5.585842133 2.086238623 -0.9377198219
-5.837178707 2.182431459 -0.7600338459
-6.111361027 2.28737402 -0.5671842098
-2.981542349 1.116532564 -0.1646500677
-4.345961094 1.629213333 -0.08031418175
-6.581437588 2.45808053 0.6109364033
-6.611112118 2.470476627 0.8614290953
-6.5690341 2.457367897 1.10416615
-6.611523151 2.474575996 1.363965631
-6.659110546 2.495039225 1.631791592
-6.637401581 2.489547253 1.887878299
-2.955131292 1.112526536 -0.8344846964
-3.01999712 1.138150454 -0.7351366282
-4.131019115 1.55768621 -0.8499261141
-5.572981834 2.103630066 -0.9367812276
-5.820240021 2.199285269 -0.7588151097
-5.479421139 2.071592093 -0.5087898374
-3.067288637 1.160867453 -0.169674322
-4.314353943 1.633700132 -0.07982551306
-5.261172771 1.982785344 0.2924544513
-6.563929081 2.47637558 0.6100648046
-6.60244751 2.493540287 0.8614290953
-6.564545155 2.480534792 1.10479188
-6.602844715 2.497641325 1.363965631
-6.628491402 2.509985924 1.626392722
-6.603817463 2.501962185 1.880631328
-2.972496271 1.131520152 -0.7243390083
-4.12188673 1.570699573 -0.849162817
-5.571512699 2.124210596 -0.9377198219
-5.805496216 2.215742826 -0.7578401566
-5.460989952 2.086440086 -0.5077440143
-3.160433292 1.208116293 -0.1751172543
-4.32916832 1.656612635 -0.08020946383
-5.299014568 2.018199205 0.2949666083
-6.572000504 2.505659342 0.6116336584
-6.6015625 2.518249989 0.862404108
-6.555847168 2.503432751 1.10479188
-6.609197617 2.525127411 1.36701858
-6.62195158 2.532649279 1.626842618
-6.595043182 2.524998903 1.880631328
-3.053884506 1.173499346 -0.8650252819
-3.083114147 1.185966372 -0.7526828647
-4.105662346 1.580128908 -0.8468731046
-5.556690693 2.140805483 -0.9364683628
-5.424299717 2.093061924 -0.5049550533
-4.312168598 1.667387128 -0.08000003546
-4.669997692 1.795449615 0.08663194627
-5.291937351 2.036685467 0.2949666083
-6.552499771 2.523143768 0.6105877757
-6.592731476 2.54128027 0.862404108
-6.53416729 2.521324158 1.102601767
-6.600342274 2.548183918 1.36701858
-6.598528862 2.550128937 1.623243451
-6.580784321 2.545913458 1.879078388
-3.662064552 1.421891809 -1.041022301
-4.41943264 1.717734933 -1.084710598
-4.1037817 1.595872879 -0.8476364017
-3.151922464 1.230150223 -0.1751172543
-4.319360256 1.687523246 -0.08024436235
-5.284796238 2.055144072 0.2949666083
-6.534368038 2.542388916 0.609716177
-6.576421261 2.561394453 0.8614290953
-6.521645069 2.54268384 1.101976037
-6.591407299 2.571208239 1.36701858
-6.627707005 2.588033915 1.632691383
-6.568259239 2.567461014 1.878043056
-3.68585372 1.445954442 -1.049304485
-4.39164257 1.724603534 -1.079311728
-4.105494976 1.613059759 -0.849162817
-4.707019329 1.851298571 -0.7944258451
-3.071970701 1.210081816 -0.2851482034
-4.309723854 1.701121211 -0.08017455786
-5.27534914 2.070573568 0.09822034836
-6.52916193 2.566640615 0.6100648046
-6.600691319 2.597419262 0.8658164144
-6.518243313 2.567605257 1.102914691
-6.564127445 2.587001085 1.363202333
-6.615006924 2.609723091 1.631791592
-6.544881821 2.584697962 1.873902082
-3.687967539 1.461658955 -1.051375031
-4.385596275 1.739922643 -1.079311728
-4.101664066 1.628105521 -0.8495445251
-5.772149086 2.295851231 -0.7575964332
-3.108454704 1.237004042 -0.2889830768
-4.309331894 1.718376637 -0.08027927577
-5.268089771 2.088974237 0.09822034836
-6.520164013 2.589414835 0.6100648046
-6.565758705 2.610177517 0.862404108
-6.516582966 2.593262434 1.10416615
-6.562353134 2.612803459 1.364728808
-6.629390717 2.642175913 1.637640357
-6.548380375 2.612539291 1.877525449
-3.682843447 1.47452271 -1.051375031
-4.397584438 1.762470484 -1.083810806
-4.08137846 1.636566758 -0.8464915156
-4.292479992 1.728176594 -0.0800698474
-6.516631603 2.614385843 0.6105877757
-6.563975811 2.636038065 0.8633790612
-6.496949673 2.610439539 1.102288842
-6.556835651 2.637159824 1.365492105
-6.596627235 2.655839205 1.631791592
-6.541472435 2.63496232 1.878043056
-3.672300816 1.485196352 -1.049822092
-4.366425514 1.766810417 -1.077512145
-4.068361759 1.647856236 -0.8449650407
-4.090878487 1.657807469 -0.6924305558
-4.282716274 1.741643071 -0.08000003546
-5.253748417 2.12478447 0.09822034836
-5.255958557 2.127813101 0.2949666083
-6.50931263 2.637865543 0.6107620597
-6.529443741 2.647348642 0.8599666953
-6.480476856 2.630131006 1.101037383
-6.544415951 2.657411575 1.364728808
-6.591393948 2.679167747 1.632691383
-6.52507782 2.654866695 1.875972629
-3.653047562 1.49152422 -1.045681
-4.058980942 1.658918262 -1.002378464
-4.062875748 1.661337614 -0.8449650407
-4.068613052 1.665342689 -0.6896147728
-3.253706694 1.333115697 -0.4265992641
-4.280310154 1.758101702 -0.0800698474
-5.133376598 2.096983194 0.09609115869
-5.178248882 2.117421389 0.2909890711
-6.476557255 2.649629593 0.6084960103
-6.531184673 2.674638271 0.8614290953
-6.495017529 2.66247654 1.105104685
-6.542365074 2.683219433 1.366255283
-6.585607529 2.703640223 1.633591175
-6.499688625 2.6710186 1.87131381
-3.674607992 1.515313864 -1.053445578
-4.051364422 1.672333479 -1.001928687
-4.067938805 1.680007219 -0.8472548127
-4.090157986 1.690853596 -0.6943077445
-3.212347984 1.329284787 -0.4217244983
-4.268606186 1.770733476 -0.07996512949
-5.153753757 2.126327991 0.09661472589
-6.450695992 2.665373325 0.6069272757
-6.510802269 2.692869663 0.8599666953
-6.482034206 2.683619499 1.104478955
-6.514821053 2.698527336 1.362439156
-6.556328773 2.718400002 1.628642321
-6.497462749 2.696652651 1.873384356
-4.054495335 1.690214157 -1.004178047
-4.17982769 1.743319392 -0.8720598817
-4.334330559 1.815756917 -0.08132641762
-5.879110813 2.449645042 0.1104719415
-6.103450298 2.545622587 0.344371736
-6.426643372 2.6817348 0.6055327058
-6.501362324 2.715580463 0.8599666953
-6.468981266 2.704707384 1.103853226
-6.498117447 2.718221664 1.360912681
-6.543204308 2.739765644 1.627742529
-6.498701096 2.723795891 1.876490235
-4.627856255 1.949174047 -0.9678460956
-4.447675228 1.881515503 -0.08359523118
-5.890799046 2.478683233 0.1108558849
-6.094527245 2.566910744 0.344371736
-6.39153862 2.693320036 0.6030923724
-6.480870247 2.733627796 0.8585042953
-6.457680702 2.726503611 1.103540301
-6.495824337 2.743942261 1.362439156
-6.53360033 2.762589216 1.627742529
-6.499826908 2.750983715 1.879595995
-4.696904182 1.997588038 -0.983874023
-5.532138348 2.357375622 -0.7332225442
-5.787624359 2.471018314 -0.1091455519
-5.847142696 2.484371901 0.1101926938
-6.087820053 2.587888479 0.3444764316
-6.24276495 2.656329393 0.5898447037
-6.482246399 2.760900736 0.8599666953
-6.443151951 2.745580196 1.102601767
-6.497041702 2.771222115 1.364728808
-6.52033329 2.783847094 1.626842618
-6.483562946 2.76948595 1.877525449
-3.21887064 1.382935762 -0.5481979847
-5.485995293 2.359237909 -0.7281040549
-5.826708794 2.511787653 -0.1100530773
-5.905034542 2.532119274 0.1114492714
-6.069572926 2.605184555 0.3439530432
-6.173045635 2.652149439 0.5840924382
-6.462112904 2.777678251 0.8585042953
-6.429900169 2.766491413 1.101976037
-6.484209538 2.791199446 1.363965631
-6.516435146 2.80776763 1.628192306
-6.456116676 2.7844522 1.872349143
-3.145159245 1.364291668 -0.5363089442
-5.441309452 2.362561226 -0.7232292891
-5.818346977 2.53109622 -0.1100530773
-5.842942238 2.529676199 0.1104370356
-6.042572975 2.617359161 0.3429063261
-6.136797428 2.660717487 0.5814777613
-6.445093632 2.79705739 0.8575293422
-6.420691013 2.787798882 1.101976037
-6.474427223 2.813816786 1.363965631
-6.501233578 2.828165293 1.626842618
-6.450390816 2.807386637 1.873384356
-2.912991762 1.272654057 -0.8401786685
-5.475264549 2.39891386 -0.7288352847
-5.783843517 2.540133476 -0.1095644161
-5.84368372 2.55304122 0.110611558
-6.040719509 2.641636848 0.3433250189
-6.107395172 2.67333436 0.5795603395
-6.395777702 2.800895929 0.8521670699
-6.423584461 2.815745592 1.10416615
-6.475847244 2.840002298 1.366255283
-6.475759983 2.842659235 1.622793555
-6.440551758 2.829885721 1.873384356
-2.905220032 1.280748487 -0.8391433954
-5.47411871 2.421224833 -0.7298102379
-5.68353796 2.519782305 -0.1078191772
-5.878646851 2.592792511 0.1114492714
-6.053387642 2.672385216 0.3445810974
-6.096673965 2.692768097 0.5793860555
-6.440429688 2.847282648 0.8594791889
-6.402878284 2.83335495 1.102288842
-6.482052326 2.869741678 1.369689822
-6.464015484 2.86445713 1.622343659
-6.44122982 2.85705018 1.876490235
-2.907791376 1.294023752 -0.8412139416
-5.329138279 2.374913216 -1.125836015
-5.447506905 2.432225227 -0.7273728251
-5.711211681 2.555944681 -0.1085172668
-5.873213768 2.614923954 0.1115190834
-6.049495697 2.695938349 0.3448950946
-6.087237358 2.714032888 0.5793860555
-6.430450916 2.869748116 0.8594791889
-6.376717091 2.848435879 1.099473
-6.466617107 2.889949322 1.368545055
-6.469988346 2.894163609 1.626392722
-6.424164772 2.876359224 1.874419689
-2.889158726 1.29783392 -0.8370729089
-3.375392437 1.517669201 -0.8444628716
-5.322605133 2.394307852 -1.126217604
-2.924313784 1.316692829 -0.501267612
-5.448033333 2.455302954 -0.7285915613
-5.709994793 2.578161716 -0.1086568832
-5.953425407 2.675574541 0.1132294163
-6.045986652 2.718441725 0.3452091217
-6.059558392 2.727087021 0.5776429176
-6.395055771 2.880763054 0.8560668826
-6.361833096 2.867131472 1.098534465
-6.461858749 2.914926529 1.369689822
-6.445636749 2.910316706 1.622793555
-6.407548904 2.894465685 1.872349143
-2.863497496 1.29833734 -0.8308612108
-3.2993536 1.496652842 -0.8264667392
-5.30706501 2.409624815 -1.124691129
-2.919931173 1.326383114 -0.501267612
-5.671845913 2.584809542 -0.1080984101
-5.955447197 2.700257063 0.1134388521
-6.018273354 2.731275797 0.3441624045
-6.055443764 2.750694275 0.5781658292
-6.385467052 2.901954412 0.8560668826
-6.362574577 2.894228458 1.100411654
-6.437861443 2.929833412 1.366636992
-6.425310612 2.926826954 1.62009418
-6.409711361 2.922423363 1.875972629
-2.852149487 1.304611802 -0.8287906647
-3.357896328 1.537364721 -0.8426632285
-5.297260284 2.42639327 -1.12430954
-2.872187853 1.316809535 -0.4937587082
-3.359110355 1.542177439 -0.3196618855
-5.657339096 2.60208416 -0.1079936922
-5.858705044 2.681087494 0.1117634177
-5.839829922 2.674915314 0.3344278932
-6.051722527 2.773249865 0.5786887407
-6.368082047 2.920914173 0.8550919294
-6.330890656 2.90653038 1.096657276
-6.434732437 2.95556426 1.368163466
-6.400889397 2.942727327 1.616494894
-6.420530319 2.954470396 1.882184148
-2.840561867 1.311320901 -0.8267200589
-5.235296726 2.420155287 -1.112860918
-2.820961714 1.305259943 -0.4856241345
-3.297754049 1.529367089 -0.1883059144
-5.65547657 2.625184059 -0.1081333086
-5.747646809 2.654568195 0.109808743
-5.861276627 2.709531069 0.3362073302
-6.042005062 2.794357777 0.5786887407
-6.372258663 2.949796677 0.8570418358
-6.340422153 2.937746763 1.100098848
-6.41190815 2.972228289 1.365492105
-6.364062786 2.952748775 1.609746456
-6.392656803 2.968727589 1.877007723
-2.825460672 1.316333413 -0.8236142993
-3.32942009 1.552534103 -0.8381642103
-5.223258495 2.436755419 -1.11209774
-3.347988844 1.566175103 -0.3196618855
-5.41791296 2.535629511 -0.3112954199
-5.836419106 2.733977556 -0.1117983162
-5.986656666 2.790350199 0.1145907044
-5.804723263 2.708020449 0.3334858716
-6.028604031 2.813744783 0.5783401728
-6.37271452 2.977063417 0.8585042953
-6.333707809 2.961534739 1.100724578
-6.390823841 2.98960042 1.363202333
-6.346657276 2.97164011 1.607946873
-6.378756046 2.98938632 1.875972629
-2.820616961 1.326680541 -0.8236142993
-3.313400984 1.55916822 -0.8354648352
-5.255142689 2.475123644 -1.120875001
-5.41038847 2.55632329 -0.3114000857
-5.774412155 2.729550123 -0.1107860804
-5.967831612 2.806976318 0.114416182
-5.809691429 2.735070467 0.3343232274
-6.018249989 2.835823298 0.5783401728
-6.351510525 2.994210005 0.8570418358
-6.307252407 2.976038933 1.097908735
-6.372722626 3.009650707 1.361675978
-6.33220005 2.993214846 1.607046962
-6.366536617 3.010807037 1.875455022
-2.826440334 1.341488242 -0.8267200589
-3.314704895 1.574645996 -0.8372644186
-5.244698048 2.492609739 -1.120493412
-3.270419359 1.557808518 -0.3132123649
-5.394221783 2.571754456 -0.3109813929
-5.708896637 2.723003626 -0.1097040325
-5.691964149 2.702741861 0.1092851758
-5.776656628 2.7441926 0.332962513
-6.010114193 2.857667923 0.5785144567
-6.326153755 3.01064682 0.8550919294
-6.325363636 3.011622906 1.102914691
-6.362178326 3.031877518 1.361675978
-6.323471546 3.016140699 1.607496858
-6.364705086 3.037171841 1.878043056
-2.785151243 1.333822727 -0.8158497214
-3.295405626 1.578893185 -0.8336651921
-5.258978367 2.521936655 -1.125454307
-5.609262943 2.699555874 -0.1079587936
-5.690184116 2.725057602 0.1094247922
-5.736423969 2.749665499 0.3311830759
-6.001898766 2.879491568 0.5786887407
-6.298238277 3.023018599 0.8526545167
-6.309470654 3.031118155 1.101976037
-6.345010757 3.049556732 1.360149503
-6.318702698 3.039628029 1.608846545
-6.343621254 3.05434227 1.874937296
-2.791150093 1.348092556 -0.8189555407
-3.307418823 1.598868251 -0.8381642103
-5.664432526 2.737073183 0.1091106459
-5.733983517 2.773149967 0.3316017687
-6.003077984 2.9045856 0.5797346234
-6.273355484 3.038062334 0.8507046103
-6.270409584 3.039339781 1.096970081
-6.351993561 3.080251455 1.363965631
-6.292275906 3.054008007 1.604797482
-6.341609955 3.080686331 1.877525449
-2.774271011 1.351903558 -0.8153320551
-2.429092407 1.187897444 -0.2328547686
-5.688995838 2.773478985 0.1097738445
-5.70452404 2.783514023 0.3304503858
-5.976788521 2.91765666 0.5781658292
-6.301951408 3.07911396 0.8560668826
-6.257988453 3.060340166 1.096657276
-6.323566914 3.093777657 1.360149503
-6.286827087 3.07852459 1.60614717
-6.320408344 3.097704411 1.874419689
-2.766067982 1.359874725 -0.814296782
-2.141481876 1.054203749 -0.4557147026
-2.424931049 1.19636941 -0.2328547686
-5.641597271 2.774786472 0.109040834
-5.705524445 2.808702469 0.3310784101
-5.93975687 2.925297737 0.5755511522
-6.259114742 3.0852952 0.8516795635
-6.243724346 3.080417871 1.096031547
-6.31977129 3.119307995 1.361675978
-6.281285286 3.103039265 1.607496858
-6.288775444 3.10947299 1.868207932
-2.759573698 1.368662953 -0.8137791157
-2.955356598 1.467051625 -0.7517830133
-2.139547586 1.0625453 -0.4560963511
-2.420740128 1.204826832 -0.2328547686
-5.587094784 2.772242308 0.108168222
-5.674220562 2.817939758 0.3298223317
-5.940214634 2.951332569 0.5765970349
-6.248306274 3.107126236 0.8516795635
-6.255923271 3.113636255 1.100098848
-6.305328369 3.139600754 1.360912681
-6.270414829 3.124946356 1.607496858
-6.302087307 3.143476725 1.875455022
-2.768600225 1.385203242 -0.8179202676
-2.135825396 1.07000792 -0.4560963511
-2.462814569 1.236512184 -0.2373868525
-5.588112831 2.797098637 0.1083776504
-5.670201778 2.839423656 0.3301363587
-5.953032017 2.983655691 0.5788630843
-6.209033012 3.114675283 0.8477797508
-6.23497057 3.129048824 1.09822154
-6.283804893 3.156302691 1.358622909
-6.247280121 3.140689373 1.604347587
-6.295079708 3.166094065 1.876490235
-2.770646572 1.398340821 -0.8199907541
-2.123316288 1.073029399 -0.4541882575
-2.437153816 1.234299898 -0.2352951169
-2.483686209 1.25841105 -0.1437156796
-5.580591202 2.816515207 0.1084125564
-5.67986536 2.869104862 0.3312877417
-5.949694157 3.008012056 0.5795603395
-6.207527637 3.139728308 0.8489984274
-6.225772858 3.151684284 1.098534465
-6.276807308 3.178897619 1.359386206
-6.236831665 3.161387682 1.604347587
-6.287434578 3.189797163 1.877525449
-2.738446474 1.393502712 -0.8117086291
-3.256135464 1.658367395 -0.8336651921
-5.212460041 2.655881166 -1.128888845
-2.408205509 1.229689598 -0.2328547686
-2.479278326 1.267073035 -0.1437156796
-5.586765289 2.84414196 0.1087267026
-5.648460865 2.87803483 0.330031693
-5.921935558 3.018677235 0.5778172016
-6.205370903 3.165888309 0.850217104
-6.225289345 3.178787231 1.100411654
-6.293645859 3.215078831 1.365492105
-6.244844913 3.192898035 1.60929656
-6.262503624 3.204684496 1.873384356
-2.743877888 1.408345461 -0.8148143888
-3.222592115 1.655476809 -0.8264667392
-5.169981003 2.657008171 -1.121638179
-2.403898001 1.238088965 -0.2328547686
-2.474840641 1.275719166 -0.1437156796
-2.509309769 1.294596672 -0.04858570173
-5.582139969 2.866366386 0.1088314131
-5.661473274 2.909600735 0.3313924074
-5.902502537 3.034775257 0.5769456625
-6.206638336 3.193888187 0.8519233465
-6.205373764 3.195977688 1.098847389
-6.271913052 3.231632471 1.363202333
-6.214608669 3.204852104 1.604347587
-6.254713058 3.228296041 1.874419689
-2.742376328 1.419691205 -0.8158497214
-5.165904045 2.677749157 -1.122782946
-2.441995382 1.26851511 -0.2370382249
-2.470371962 1.284350753 -0.1437156796
-2.504775763 1.303347349 -0.04858570173
-5.648454666 2.925378799 0.1103323177
-5.654829025 2.931183815 0.3316017687
-5.902485371 3.060863733 0.5779915452
-6.186642647 3.210960388 0.8507046103
-6.204698086 3.223082781 1.100724578
-6.264079571 3.255315542 1.363965631
-6.210299492 3.230122566 1.60614717
-6.231410503 3.24386692 1.870796204
-2.73911643 1.430149436 -0.8163673282
-5.166964054 2.701222658 -1.125072718
-2.11698699 1.107674718 -0.3717398345
-2.423433781 1.269634128 -0.2356437296
-2.465873718 1.292966247 -0.1437156796
-2.500210762 1.312083364 -0.04858570173
-5.629345417 2.940449953 0.1101577953
-5.644562721 2.950905323 0.3316017687
-5.893529415 3.082373381 0.5781658292
-6.170120239 3.229774714 0.8499733806
-6.189910412 3.24288702 1.100098848
-6.249199867 3.27533865 1.363202333
-6.19553566 3.249969244 1.605247378
-6.238864422 3.275476933 1.876490235
-2.734107733 1.439701557 -0.8163673282
-5.13492775 2.707338095 -1.120111704
-2.433080196 1.285531998 -0.2370382249
-2.461345673 1.301565289 -0.1437156796
-2.495846272 1.32036674 -0.04858570173
-5.705739498 3.005749702 0.1118681282
-5.733692169 3.021753788 0.3374633789
-5.886259556 3.104784727 0.5785144567
-6.167585373 3.255927801 0.8511921167
-6.189603329 3.268930912 1.101976037
-6.234256268 3.295299053 1.362439156
-6.180708408 3.269753456 1.604347587
-6.226260662 3.295244694 1.875972629
-2.737596273 1.453767419 -0.8189555407
-5.125444889 2.725247145 -1.120111704
-2.109398127 1.122058988 -0.3717398345
-2.435611486 1.297764897 -0.237735495
-2.457015991 1.309720397 -0.1437156796
-2.48945713 1.328130126 -0.04855079576
-5.837029934 3.099684238 0.1146605089
-5.462091446 2.903020859 0.3219719529
-5.871867657 3.123441458 0.5781658292
-6.158507347 3.277293682 0.8514358401
-6.145028114 3.272873402 1.096031547
-6.226760387 3.317799807 1.363202333
-6.180148602 3.295733452 1.607046962
-6.201086044 3.309679508 1.871831417
-2.717432022 1.454631805 -0.814296782
-5.329216957 2.856303453 -1.167050719
-2.147246599 1.151825905 -0.3792486787
-2.424273491 1.302063704 -0.2370382249
-2.452429295 1.318289042 -0.1437156796
-2.484806299 1.336811304 -0.04855079576
-5.447165012 2.91707325 0.1071559787
-5.429039001 2.909805298 0.3206112087
-5.859722137 3.141955137 0.5779915452
-6.148778915 3.299709797 0.8516795635
-6.144007206 3.299911737 1.097908735
-6.22205925 3.343232155 1.364728808
-6.172039032 3.319132328 1.607946873
-6.203104496 3.338630199 1.875972629
-2.759937286 1.489803433 -0.8287906647
-5.018692493 2.712465048 -1.100649238
-2.12583828 1.149915338 -0.3761200011
-2.395186663 1.297234297 -0.2345978767
-2.447812557 1.326841712 -0.1437156796
-2.480124712 1.345476866 -0.04855079576
-5.398239613 2.915165663 0.1063880697
-5.701734543 3.081630468 0.3374633789
-5.84696579 3.161442757 0.5778172016
-6.118019104 3.310760975 0.8489984274
-6.155031681 3.333568335 1.101976037
-6.201720238 3.360254765 1.362820745
-6.163841248 3.342514515 1.608846545
-6.177828789 3.35289073 1.871831417
-2.758113623 1.501275539 -0.8298259377
-4.978163242 2.713056087 -1.093780041
-2.121811152 1.15732944 -0.3761200011
-3.333718061 1.819866061 -0.4612101614
-2.401135206 1.311316848 -0.2356437296
-2.41512537 1.320051074 -0.1420409232
-2.475413084 1.354125977 -0.04855079576
-5.445986271 2.965548515 0.1075399294
-5.796165943 3.158860445 0.3437437117
-5.82365036 3.17515564 0.5765970349
-6.157227516 3.362607718 1.104478955
-6.205458164 3.39035368 1.366255283
-6.152136326 3.364010096 1.608846545
-6.179645061 3.381854534 1.875972629
-2.783340454 1.527624369 -0.8391433954
-5.092545033 2.798491955 -1.12125659
-2.400034189 1.321612716 -0.235992372
-2.417499542 1.332330108 -0.1424596161
-2.470671415 1.36275804 -0.04855079576
-5.444365978 2.98935318 0.1077144593
-5.772852421 3.172339201 0.3430109918
-5.836974621 3.208902597 0.5790373683
-6.103452682 3.358175039 0.850217104
-6.133339405 3.377409935 1.102288842
-6.203904152 3.417677164 1.368545055
-6.133529663 3.381701231 1.607046962
-6.164420128 3.40153861 1.874937296
-2.771229982 1.533589244 -0.8370729089
-5.043248177 2.794366598 -1.112479329
-2.432254553 1.349886179 -0.3364159465
-2.383212805 1.32321167 -0.2347721756
-2.43378377 1.352402091 -0.1437156796
-2.416965961 1.344161034 -0.04757346213
-5.43214798 3.007372379 0.1076795533
-5.777466774 3.201183081 0.3439530432
-5.827479362 3.230225325 0.5792117119
-6.100372791 3.384274721 0.8514358401
-6.105969906 3.390167475 1.099473
-6.191936493 3.439311981 1.368545055
-6.131908417 3.408770561 1.609746456
-6.15926075 3.42679286 1.877007723
-2.732119322 1.524427414 -0.8267200589
-4.925485134 2.751633167 -1.088437438
-2.109575748 1.179484844 -0.3761200011
-2.418866396 1.35352087 -0.3351972401
-2.399441957 1.343201399 -0.2368639261
-2.429048538 1.360888839 -0.1437156796
-2.436678171 1.366281986 -0.04806213081
-5.421617508 3.026314497 0.1076795533
-5.757538319 3.216461658 0.3434296846
-5.800516605 3.241798401 0.5776429176
-6.098917007 3.411364555 0.8528982997
-6.087204456 3.407601357 1.09822154
-6.18674469 3.464743853 1.370071411
-6.119972229 3.430154324 1.609746456
-6.07986784 3.410465717 1.856302261
-2.760455847 1.552898645 -0.8370729089
-4.891902447 2.755320072 -1.083094835
-2.424739361 1.367385268 -0.3366596699
-2.382592201 1.344714403 -0.2356437296
-2.396459103 1.35364306 -0.1420409232
-2.44606185 1.382225156 -0.04834137112
-5.397078991 3.037375212 0.107400313
-5.748581886 3.23651576 0.3435343802
-5.785693645 3.260070086 0.5772942901
-6.076597691 3.426780939 0.8514358401
-6.091354847 3.436504364 1.101037383
-6.097682953 3.442880392 1.352898717
-5.966034889 3.369922876 1.571954608
-5.950803757 3.364059448 1.820067644
-2.805708408 1.590626359 -0.852602005
-4.892982483 2.777341843 -1.085384488
-2.413288116 1.371495366 -0.3356847465
-2.376388311 1.351622462 -0.2354694307
-2.391957045 1.361582637 -0.1420409232
-2.431038857 1.384391189 -0.04813193902
-5.388715744 3.056242228 0.1074352115
-5.729131699 3.250632763 0.3430109918
-5.781781197 3.2831738 0.5779915452
-6.054845333 3.441028118 0.8499733806
-6.006083965 3.414703369 1.087584019
-5.919008255 3.367931843 1.31550014
-5.919262409 3.369443893 1.562506676
-5.936257839 3.381862402 1.819032311
-2.917836189 1.667004347 -0.8888366222
-4.873521328 2.78770256 -1.083094835
-2.401596069 1.375963688 -0.3347097635
-2.39609313 1.373366237 -0.2379097939
-2.41514802 1.385408044 -0.1437156796
-2.426191568 1.392868638 -0.04813193902
-5.383759975 3.077072144 0.1075399294
-5.698680401 3.259701729 0.3418596089
-5.784696102 3.310245275 0.5793860555
-6.039957047 3.459113598 0.8494859338
-5.903295517 3.383585691 1.071002007
-5.909510136 3.388518095 1.315881729
-5.910844803 3.392025232 1.563406467
-5.929442406 3.405449629 1.820585251
-2.905302763 1.673323393 -0.8867661357
-4.887570381 2.818428993 -1.088437438
-2.401935339 1.387316942 -0.3354409933
-2.377484322 1.373746991 -0.2365152985
-2.384362459 1.378832579 -0.1421456039
-2.414391756 1.397322536 -0.04799232259
-5.381649494 3.100838423 0.1077144593
-5.675154686 3.272591591 0.3411269188
-5.75412178 3.319466352 0.577468574
-5.940168381 3.429557562 0.8370552659
-5.886318207 3.401205301 1.070063472
-5.894246578 3.407160997 1.315118551
-5.888848305 3.406781435 1.560707092
-5.900800228 3.416447163 1.815408826
-2.906126738 1.687334657 -0.8888366222
-2.431388378 1.415669084 -0.3403157592
-2.362103939 1.376433611 -0.2354694307
-2.360554934 1.376082063 -0.1409942061
-2.402590513 1.401711106 -0.04785270244
-5.355231285 3.11056447 0.107400313
-5.639522552 3.278328896 0.3396615088
-5.723554611 3.32851243 0.5755511522
-5.868112087 3.415322781 0.8285243511
-5.865873814 3.416761875 1.068499088
-5.863657951 3.416841745 1.310920715
-5.876919746 3.427317858 1.560707092
-5.883833885 3.434101105 1.813855886
-5.660388947 3.322256804 -0.8007382154
-2.36072135 1.386688352 -0.2358180583
-2.379600286 1.39889586 -0.1424596161
-2.408025503 1.416171074 -0.04806213081
-5.339163303 3.126207352 0.1072955951
-5.690080166 3.334345102 0.3434296846
-5.647726059 3.312176943 0.5691016316
-5.837321758 3.424734831 0.8258432746
-5.860725403 3.441217899 1.069750547
-5.837554932 3.430353403 1.307867765
-5.872717857 3.453773022 1.562956572
-5.876804829 3.45755887 1.815408826
-2.14958024 1.27024591 -0.4770853221
-5.655007362 3.347025156 -0.8017131686
-2.362724066 1.398980737 -0.2365152985
-2.362675428 1.400065899 -0.1417269111
-2.41313839 1.431108236 -0.0482715629
-5.331113338 3.147789001 0.107365407
-5.696734428 3.36635685 0.3445810974
-5.557236195 3.285229921 0.5610833168
-5.816186905 3.441054106 0.8246245384
-5.849773884 3.463680506 1.070063472
-5.837368488 3.457713366 1.310539126
-5.860626221 3.474251509 1.562956572
-5.880707264 3.488932371 1.820585251
-2.145122528 1.277227402 -0.5664233565
-2.158627033 1.285778522 -0.480138272
-5.638175011 3.363693476 -0.8009819388
-2.368090868 1.413346767 -0.2375611663
-2.350914955 1.404208064 -0.1413082182
-2.408128023 1.439523101 -0.0482715629
-5.32868433 3.171492577 0.1075399294
-5.681518555 3.384176254 0.344371736
-5.622754574 3.350503206 0.5689272881
-5.625122547 3.354575872 0.7990320325
-5.834254265 3.482055664 1.069437623
-5.838748455 3.486119986 1.313591957
-5.860171795 3.501686811 1.566105843
-5.875125885 3.513403654 1.822655797
-2.133115053 1.279172421 -0.6548642516
-5.636606216 3.389491796 -0.8024443388
-2.351192236 1.414415121 -0.2363409996
-2.369954109 1.426827908 -0.1427736282
-2.379109383 1.433471441 -0.04778289422
-5.314152241 3.188016891 0.107470125
-5.667957783 3.402959585 0.3442670703
-5.571740627 3.346515179 0.5649181604
-5.387094975 3.238172054 0.7666147351
-5.830527782 3.507491589 1.071002007
-5.831591129 3.509515524 1.314736843
-5.844574928 3.520110607 1.56520617
-5.871098042 3.538878441 1.825244069
-4.769855976 2.88645196 -1.075462461
-5.631529808 3.413264036 -0.803419292
-2.351351976 1.425712228 -0.2368639261
-2.366666317 1.436128616 -0.142878294
-2.398020267 1.456299305 -0.0482715629
-5.299569607 3.204476595 0.107400313
-5.668005943 3.429962158 0.3449997604
-5.52764082 3.346341372 0.561606288
-5.689851284 3.447252989 0.8117064238
-5.818249226 3.527821302 1.071002007
-5.822662354 3.531887054 1.31550014
-5.932201385 3.601163864 1.592200279
-6.040322781 3.669687271 1.882184148
-3.926128387 2.391817331 -1.051417828
-4.760764599 2.901422739 -1.075462461
-5.617391109 3.428869486 -0.8029317856
-2.338359594 1.427900076 -0.235992372
-2.358734846 1.441473365 -0.1426689625
-2.396844864 1.465912461 -0.04834137112
-5.3646245 3.266874552 0.1089361235
-5.658907413 3.448791265 0.3451044261
-5.321469784 3.244415283 0.5415604711
-5.882340431 3.58918643 0.8409550786
-6.008977413 3.673657179 1.616044998
-6.028765202 3.688644171 1.882184148
-3.254595995 1.996763945 -1.011516929
-3.884541512 2.385114193 -1.042419791
-4.750607491 2.918023586 -1.075462461
-5.605388165 3.448455811 -0.8029317856
-2.340147734 1.440231323 -0.2366896123
-2.326479435 1.432939291 -0.1409942061
-2.378094912 1.465875626 -0.04806213081
-5.407726288 3.319052458 0.1100530773
-5.645132542 3.467478752 0.3449997604
-5.296532154 3.254624844 0.5401659012
-6.014771938 3.703206539 1.364728808
-5.986164093 3.68847537 1.613345623
-6.015852928 3.709666252 1.882184148
-3.259108067 2.015223742 -1.015140414
-3.852992296 2.384304047 -1.03612113
-4.720362186 2.922186852 -1.070883036
-5.586568356 3.463817358 -0.801956892
-2.350089788 1.458253264 -0.2382584065
-2.335038662 1.449478269 -0.1418315768
-2.38994956 1.484720349 -0.04841117933
-5.408011913 3.345272779 0.1102974117
-4.52967453 2.805233479 0.462422967
-4.682706356 2.904532433 0.8660727739
-6.008481026 3.728320122 1.366255283
-5.966629982 3.705236435 1.61154604
-6.019274712 3.740840197 1.887360573
-3.245141983 2.023067951 -1.013069749
-3.881024122 2.420425415 -1.046019077
-4.694629669 2.930113792 -1.067448378
-5.579492569 3.48645401 -0.8026880622
-2.321335793 1.451657653 -0.2358180583
-2.346640587 1.468622565 -0.142878294
-2.364413977 1.480319381 -0.04799232259
-4.513888836 2.814022779 0.09214691073
-4.54308033 2.834422112 0.2784284353
-4.723130226 2.950191975 0.6786250472
-4.779741287 2.987874031 0.8860964775
-5.983124733 3.743028641 1.363583922
-5.959617615 3.731215477 1.613345623
-6.002905369 3.759777784 1.886325359
-3.244604111 2.038493633 -1.015140414
-3.862228394 2.428410292 -1.043319583
-4.677725792 2.942302465 -1.065921903
-2.302769423 1.451254129 -0.2344235629
-2.338121653 1.474673629 -0.1426689625
-2.37276125 1.497100949 -0.0482715629
-4.628831387 2.909291744 0.09472987056
-4.745569229 2.986130238 0.4868265986
-5.960058212 3.757608891 1.36129427
-5.953147888 3.756156683 1.615145206
-5.976675987 3.772459984 1.882184148
-3.240732908 2.051873922 -1.016175628
-3.831106186 2.426606178 -1.037021041
-4.685667038 2.970173597 -1.070119739
-4.487361431 2.847765207 -0.6474265456
-2.311144352 1.46782887 -0.2358180583
-2.333218575 1.482419133 -0.1426689625
-2.347271204 1.492498755 -0.04785270244
-4.819246292 3.056026936 0.4955421686
-5.952536583 3.780510426 1.362439156
-5.947237968 3.780059338 1.616944909
-5.976511955 3.801593065 1.886325359
-3.220880747 2.054298639 -1.012034535
-3.825897694 2.442060471 -1.037920713
-4.664208889 2.978299618 -1.067448378
-1.95336616 1.248269558 -0.3604765534
-4.614525795 2.951111555 -0.6674131155
-2.301229 1.472263575 -0.2352951169
-2.321301699 1.486246943 -0.1422502697
