# .PCD v0.7 - Point Cloud Data file format
VERSION 0.7
FIELDS x y z
SIZE 4 4 4
TYPE F F F
COUNT 1 1 1
WIDTH 1251
HEIGHT 1
VIEWPOINT 0 0 0 1 0 0 0
POINTS 1251
DATA ascii
5.782462597 -6.397332668 0.7507341504
5.688738823 -6.298061848 1.036920905
5.72648859 -6.344305038 1.346952438
5.733995914 -6.354851723 1.65552175
5.649382114 -6.265472412 1.937724948
4.868109703 -5.402789593 1.937053919
2.44675684 -2.725997686 -0.7037664056
2.440773249 -2.721241713 -0.5722888708
5.794160843 -6.46223402 -1.060563684
5.774438381 -6.44476223 -0.753348887
5.739526749 -6.410299301 -0.4487296343
5.749341011 -6.42351532 -0.14977476
5.761662483 -6.412465572 0.14977476
5.75647831 -6.411195755 0.4493576586
5.756315231 -6.415517807 0.7503855824
5.693760872 -6.352488041 1.34444952
5.706736565 -6.371438503 1.654376984
5.631579399 -6.291944981 1.939524651
4.836339474 -5.405353069 1.931877494
2.429864407 -2.725303888 -0.7014766932
2.444876671 -2.744069576 -0.5754175782
5.706685543 -6.407293797 -1.048376679
5.721243382 -6.428155899 -0.7491654158
5.719565392 -6.430788517 -0.4488343
5.72535038 -6.439556599 -0.1497049481
5.736580849 -6.429553986 0.1497049481
5.732527256 -6.427269459 0.4491483271
5.724404335 -6.422672272 0.7489911318
5.698763847 -6.398399353 1.04691422
5.672663689 -6.371334553 1.34444952
5.682965755 -6.387393951 1.653613687
5.619554996 -6.318341732 1.942224145
4.823521137 -5.427136421 1.93394804
2.416908741 -2.728937387 -0.7003318071
2.418744326 -2.732931614 -0.5713502765
5.695564747 -6.446726799 -0.4486249685
5.705287933 -6.46000576 -0.1497398615
5.70859623 -6.441059589 0.1495304257
5.711182594 -6.446243286 0.4491483271
5.703073978 -6.441620827 0.7489911318
5.664361 -6.402395248 1.044476867
5.644961357 -6.382711887 1.342885137
5.66045332 -6.404732704 1.653232098
5.593410969 -6.331100464 1.940424442
4.805498123 -5.443101883 1.93394804
0.7301377058 -0.829636991 -0.245193243
2.404775143 -2.734409094 -0.6995685697
2.404451132 -2.735003471 -0.5700987577
5.653769016 -6.435550213 -1.046670556
5.664211273 -6.451977253 -0.7474222779
5.663805962 -6.456059456 -0.4478922784
5.685340881 -6.482889175 -0.1498096585
5.684562206 -6.456952095 0.1494606137
5.679411411 -6.455643177 0.448415637
5.686944485 -6.466481209 0.7496883273
5.647029877 -6.425616264 1.045208097
5.634378433 -6.415736198 1.34570086
5.630292416 -6.415598392 1.650942326
5.568706989 -6.347657681 1.939524651
4.791562557 -5.465653896 1.936018586
0.6630750895 -0.7584923506 -0.2583534718
0.7270920277 -0.8323075175 -0.245193243
2.392154694 -2.740246296 -0.6988053918
2.39181304 -2.740820885 -0.5694730282
5.627534866 -6.453237534 -1.046183109
5.643143654 -6.475698948 -0.7477709055
5.640104771 -6.476775169 -0.4478922784
5.660229206 -6.502174854 -0.14977476
5.663490772 -6.480755329 0.1495304257
5.663205624 -6.487280846 0.7496883273
5.624746799 -6.447767258 1.04545188
5.60822916 -6.433365345 1.34507525
5.613188267 -6.443593502 1.652850509
5.535165787 -6.356268883 1.935925484
4.771497726 -5.483178616 1.936018586
0.7419102788 -0.855578959 -0.2514918447
2.369715214 -2.733745098 -0.6949892044
2.381751299 -2.749568939 -0.5694730282
5.60497427 -6.47284174 -1.046183109
5.612682819 -6.486317158 -0.7467250824
5.621382236 -6.500955105 -0.4482062757
5.62572813 -6.508276939 -0.1494606137
5.644940853 -6.507511616 0.1496700346
3.47800827 -4.010876656 0.2760209739
5.601076603 -6.468340397 1.04545188
5.572810173 -6.4379673 1.341946602
5.594513893 -6.467602253 1.653995275
5.515493393 -6.378498077 1.936825275
4.753591537 -5.501263142 1.936536193
0.7390690446 -0.8580344915 -0.2514918447
2.370043755 -2.754457474 -0.5688472986
5.583478928 -6.491392612 -1.046183109
5.585947514 -6.498850346 -0.7460277677
5.602396488 -6.522591591 -0.448415637
5.591088295 -6.511725426 -0.1491115689
5.614192009 -6.515591145 0.1494257003
3.460778236 -4.017848015 0.2757069767
5.5860672 -6.494401932 1.046670556
5.554006577 -6.459407806 1.342572331
5.564080715 -6.475695133 1.651323915
5.496850967 -6.399710178 1.937724948
4.726515293 -5.506735325 1.932912707
0.6099979281 -0.712451458 -0.2397184968
0.7184829712 -0.8397504687 -0.245193243
1.690526247 -1.976556063 -0.4973110855
2.348062277 -2.747285128 -0.5657186508
5.565942287 -6.516880989 -1.047158003
5.56322813 -6.518309593 -0.7460277677
5.572957516 -6.532016754 -0.4477876127
5.582594872 -6.547941208 -0.1494955122
5.589954853 -6.531134605 0.1493559033
2.765788317 -3.234890461 0.3686434031
5.55805397 -6.505345345 1.04545188
5.532707691 -6.480257511 1.342885137
5.541300297 -6.492617607 1.650942326
5.477007866 -6.421823978 1.938624978
4.7072649 -5.523200035 1.932912707
0.6524202824 -0.7676763535 -0.2583534718
0.7332114577 -0.8630452752 -0.2514918447
1.687082052 -1.987228632 -0.4984559119
2.335421324 -2.752860069 -0.5650929213
5.540591717 -6.533242226 -1.046670556
5.545594692 -6.543768883 -0.7467250824
5.543816566 -6.546302795 -0.44736889
5.564871788 -6.573492527 -0.1496351361
5.563238144 -6.54603529 0.1492511779
3.49082303 -4.110416889 0.2804171741
5.526321888 -6.514109612 1.043745637
5.515162945 -6.505558968 1.344136715
5.51112175 -6.505393505 1.649034142
5.448396206 -6.435905933 1.936825275
4.695444107 -5.548445225 1.936018586
0.6173431277 -0.7315623164 -0.2448948622
0.730043292 -0.8657268882 -0.2514918447
1.691523552 -2.006615162 -0.5018904805
2.325797796 -2.760995388 -0.5650929213
5.508939266 -6.544393063 -1.045208097
5.520152092 -6.560037613 -0.7463763952
5.522216797 -6.567142487 -0.4474735558
5.533023357 -6.5846591 -0.1494257003
5.546944618 -6.57555294 0.1494606137
5.54310894 -6.575662136 0.4485203028
2.759259939 -3.274405479 0.3709094524
5.507524967 -6.54039526 1.04472065
5.483651161 -6.51666069 1.342259407
5.493435383 -6.530601501 1.650560737
5.423390388 -6.45190239 1.935925484
4.676318645 -5.56709671 1.936536193
0.6222301722 -0.7425972223 -0.2480006814
1.683248639 -2.011002064 -0.501508832
2.313611031 -2.76606679 -0.5644671321
5.486061096 -6.563583374 -1.045208097
5.484445572 -6.563977718 -0.744633317
5.503099918 -6.590978146 -0.4477876127
5.504881382 -6.597792149 -0.1492860913
5.518821239 -6.588743687 0.1493210047
5.517154217 -6.593763828 0.748468101
5.484661102 -6.559580326 1.04472065
5.453270912 -6.526667118 1.340382218
5.47312355 -6.552750587 1.651323915
5.403333187 -6.473785877 1.936825275
4.65314579 -5.578935623 1.934983253
0.5973941684 -0.718033433 -0.2386832088
0.6940815449 -0.8348385692 -0.2406942248
1.69755125 -2.042533398 -0.5079963803
2.29889369 -2.768047094 -0.563215673
5.114487171 -6.162617207 -0.9781799912
5.107845306 -6.15680027 -0.6961747408
5.462213039 -6.588621616 -0.4463222027
5.471487522 -6.602153301 -0.148971945
5.488117218 -6.598742962 0.1491115689
5.475238323 -6.585595608 0.4466362
5.45031786 -6.564939022 1.04252696
5.421505451 -6.532553673 1.3378793
5.447710037 -6.568793297 1.650560737
5.384432793 -6.497108936 1.938174844
4.625992298 -5.583922386 1.931359768
0.5678160191 -0.6873480082 -0.2272951603
0.6937909722 -0.8401409388 -0.2415940166
1.700407863 -2.060559988 -0.5110492706
2.277131319 -2.760417223 -0.5600869656
5.083920956 -6.16728878 -0.9762300253
5.082521439 -6.169978619 -0.6956517696
5.450491428 -6.61903286 -0.4471595585
5.443326473 -6.615035534 -0.1488323361
5.454741955 -6.603030205 0.1487974077
5.453487873 -6.606207848 0.4467408657
5.420939922 -6.573787689 1.04106462
5.396157265 -6.548389435 1.337253451
5.422152042 -6.582276821 1.64941597
5.367812634 -6.52094698 1.939974546
4.611382008 -5.606003761 1.933430433
0.6071979403 -0.7400044203 -0.2448948622
0.6883829236 -0.8395437002 -0.2406942248
1.712233663 -2.088963747 -0.5167735815
2.264978409 -2.765292883 -0.559461236
5.058589935 -6.180389881 -0.9754988551
5.060953617 -6.187681675 -0.6956517696
5.422296524 -6.631833553 -0.4467408657
5.440445423 -6.658772945 -0.1493908018
5.439269066 -6.631307602 0.1490068436
5.448120594 -6.646829605 0.4482062757
5.408020973 -6.604957581 1.043014407
5.390778065 -6.588589191 1.341633558
5.391685963 -6.592045307 1.647126198
5.340084076 -6.533608437 1.938174844
4.596673489 -5.628051281 1.935500979
0.592282176 -0.727245748 -0.2397184968
0.6977516413 -0.8570538759 -0.245193243
1.719433308 -2.113500118 -0.5213530064
2.257320166 -2.776641369 -0.5600869656
5.421139717 -6.65645647 0.1491464674
5.41353941 -6.651865005 0.4472642243
2.684093714 -3.300421953 0.3684690595
5.384932518 -6.623795033 1.043014407
5.365255833 -6.604300499 1.341007948
5.373674393 -6.619382858 1.649034142
5.312417984 -6.548597336 1.936825275
4.576999664 -5.644062519 1.935500979
0.633469522 -0.7833872437 -0.2583534718
0.675008893 -0.8353536725 -0.2379947752
1.715746403 -2.124071121 -0.5224978328
2.247614145 -2.784503937 -0.5600869656
3.291321039 -4.078978539 -0.6384081841
3.294297695 -4.085585117 -0.455450505
3.290763855 -4.08411932 -0.2726714909
3.286473751 -4.080252171 -0.09075071663
2.680067301 -3.31907177 0.3695149422
5.351892471 -6.632672787 1.041308284
5.338449001 -6.618375778 1.340069413
5.356696606 -6.645742893 1.650942326
5.294341087 -6.570729733 1.938174844
4.554846764 -5.656995296 1.934465647
0.5703822374 -0.7101736069 -0.2324715555
0.6819931269 -0.84974581 -0.2415940166
1.732036114 -2.158843994 -0.529748559
2.23095417 -2.782694817 -0.5582097769
4.987006187 -6.227026463 -0.6942572594
5.344107151 -6.680088997 -0.1486229002
3.295084 -4.104121685 0.09116958082
5.361574173 -6.685161591 0.7460277677
5.347249031 -6.672070503 1.04472065
5.320177555 -6.640667439 1.341007948
5.326039791 -6.652741909 1.648270965
5.274958134 -6.591293335 1.939074874
4.532443523 -5.667541981 1.932912707
0.6282600164 -0.787571311 -0.2583534718
0.6937481761 -0.8702887297 -0.2469928265
1.7456671 -2.190677643 -0.5362361073
2.213100672 -2.779260397 -0.5560196638
2.054652452 -2.582127094 -0.4000317454
4.968809128 -6.246648788 -0.6946058869
2.609388828 -3.285156012 -0.07253040373
5.349815845 -6.708799839 0.1490766704
5.35222435 -6.716628551 0.4478922784
5.344341755 -6.709138393 0.7467250824
5.315203667 -6.677341461 1.042770743
5.294506073 -6.656106472 1.340382218
5.295396328 -6.659610271 1.645599723
5.256766796 -6.615768909 1.940874338
4.518638611 -5.69089365 1.935500979
0.5943216085 -0.7503851056 -0.2448948622
0.6423304677 -0.8115826845 -0.2289967537
1.756281495 -2.219852448 -0.5419603586
2.062855244 -2.611090422 -0.4034441113
2.585522652 -3.27854228 -0.07218135893
2.61172533 -3.302275419 0.3646342456
5.273334026 -6.679594994 1.645981312
5.233641624 -6.634078026 1.940874338
4.499941826 -5.708148956 1.936018586
0.5869219899 -0.746380806 -0.242824316
0.6587584019 -0.8383361697 -0.2361951619
1.767926097 -2.250671625 -0.5480661988
1.998493195 -2.54602623 -0.5059606433
2.03902626 -2.599532127 -0.400519222
2.589916945 -3.304231405 -0.3635883629
2.578295231 -3.290586233 -0.2168813646
2.618679762 -3.331335545 0.07326340675
2.61068964 -3.323558569 0.2192888111
2.606334925 -3.319207191 0.3655057847
2.552930593 -3.253533125 0.5026457906
2.565157175 -3.271466017 0.6517575979
5.25725174 -6.707233429 1.648270965
5.20083952 -6.640033245 1.937275171
4.483561993 -5.728385925 1.937571526
0.5746739507 -0.7363434434 -0.2386832088
0.665417552 -0.8529222608 -0.2397943884
1.781392455 -2.285006285 -0.5549353361
1.876247287 -2.408410549 -0.4768638015
2.044576168 -2.6254282 -0.4034441113
4.922825336 -6.325924873 -0.6975691915
5.263552189 -6.768638611 -0.4471595585
2.558889151 -3.291776657 -0.07207664102
2.582428932 -3.308928013 0.07256531715
2.569593906 -3.294852734 0.216776669
5.287307739 -6.78451395 0.7488167882
5.242549419 -6.729502678 1.042283297
5.211166382 -6.694037914 1.336940646
5.241071701 -6.737303734 1.650942326
5.183643341 -6.668282986 1.939974546
4.461167336 -5.740950108 1.936536193
0.5579012036 -0.7200199366 -0.2324715555
0.6813758016 -0.8800090551 -0.2469928265
1.829883933 -2.36417985 -0.572871387
1.960886478 -2.535261154 -0.5009547472
2.027656078 -2.62348032 -0.4019816518
4.876351357 -6.311537266 -0.6940829754
5.240149021 -6.789751053 -0.1490068436
5.246918678 -6.776490211 0.446950227
5.24652338 -6.7808671 0.7463763952
5.21555233 -6.748136044 1.344136715
5.20672226 -6.741573811 1.647507787
5.167479515 -6.695591927 1.942674041
4.435200691 -5.748840332 1.93394804
0.567163527 -0.737275064 -0.2376479357
1.963972688 -2.555802584 -0.6182839274
2.064876795 -2.690026999 -0.4112437367
4.854290009 -6.328520775 -0.6940829754
5.217357635 -6.804309845 -0.4471595585
5.229795456 -6.825462818 -0.1493908018
5.231916428 -6.801145554 0.1490766704
5.237839699 -6.813765049 0.4482062757
5.225249767 -6.802300453 0.7467250824
5.209947586 -6.784831524 1.045208097
5.185533047 -6.760360718 1.647889376
5.147618771 -6.715785027 1.943573713
4.41980505 -5.770421505 1.936018586
0.5694068074 -0.7452921867 -0.2397184968
0.6280685663 -0.822669208 -0.2289967537
1.96634388 -2.578393459 -0.5068992376
2.127667189 -2.791951418 -0.4258680642
4.847766399 -6.363602161 -0.6961747408
5.186316967 -6.812945366 -0.4465315342
5.201076984 -6.834810734 -0.1492162794
5.206930161 -6.817777157 0.149041757
5.21400404 -6.829509735 0.4481016099
5.206288815 -6.824342251 0.7472479343
5.170587063 -6.78245306 1.042039514
5.162314892 -6.774053574 1.342259407
5.155955791 -6.770610332 1.645981312
5.118244648 -6.725959301 1.941324353
4.402984619 -5.7881217 1.937053919
0.5597969294 -0.7380401492 -0.2366126478
0.6253370643 -0.8247474432 -0.2289967537
1.956015468 -2.58163023 -0.6213368773
1.962553501 -2.591198921 -0.5081507564
2.114803314 -2.794242859 -0.4251368344
4.835137844 -6.39319706 -0.6975691915
5.161285877 -6.826919556 -0.4463222027
5.178392887 -6.854519844 -0.1492511779
5.186709404 -6.83819294 0.1491115689
5.179274082 -6.833342552 0.4471595585
5.180029869 -6.839298248 0.7468993664
5.146869183 -6.797979832 1.041795731
5.141020775 -6.795182228 1.342885137
5.146502495 -6.804894924 1.650179148
5.091212749 -6.736675739 1.939524651
4.389739513 -5.812705517 1.940159798
0.5386241078 -0.7152976394 -0.2283304334
0.6527740359 -0.8675198555 -0.2406942248
1.937550783 -2.575890779 -0.6182839274
1.958977461 -2.606269836 -0.5097150803
2.103355169 -2.800388098 -0.4248930812
4.937204361 -6.57573843 -0.7156976461
5.14342165 -6.85537672 -0.446950227
5.146038532 -6.863854408 -0.149041757
5.1640172 -6.860352516 0.149181366
5.15659523 -6.855472565 0.44736889
5.160915375 -6.863707542 0.7475966215
5.126689434 -6.82314682 1.042770743
5.099476337 -6.791864395 1.33850503
5.113276958 -6.812721252 1.647507787
5.065318108 -6.753731251 1.939074874
4.364929199 -5.824118137 1.938606858
0.5245571136 -0.701700449 -0.223154068
0.6614043713 -0.8854054809 -0.245193243
1.933246136 -2.588930368 -0.619810462
1.942779779 -2.603592873 -0.507837832
2.105433702 -2.823626757 -0.4273304641
4.671316624 -6.267052174 -0.6801380515
5.121846676 -6.876492023 -0.4471595585
5.119659901 -6.878567219 -0.148971945
5.137644291 -6.875132084 0.1491115689
5.132633686 -6.873430252 0.44736889
5.128581524 -6.870503902 0.7463763952
5.107588291 -6.847364902 1.043745637
5.080458164 -6.815957546 1.33975637
5.097676277 -6.841548443 1.650179148
5.044039726 -6.774497986 1.939974546
4.341113091 -5.834669113 1.937053919
0.5428275466 -0.7314510942 -0.2324715555
0.6443801522 -0.8689252734 -0.2397943884
1.926535606 -2.598817348 -0.6205736399
1.926624775 -2.600834608 -0.5059606433
2.095564365 -2.830959082 -0.4273304641
4.214473724 -5.695534229 -0.6161657572
5.09543705 -6.891117573 -0.446950227
5.100371361 -6.90282917 -0.1491115689
5.108848095 -6.886600494 0.148971945
5.118124962 -6.904139996 0.4482062757
5.104567528 -6.888364315 0.7463763952
5.078930378 -6.858771801 1.042770743
5.061335564 -6.840002537 1.341007948
5.060920715 -6.841938019 1.645981312
5.027311325 -6.801465988 1.942674041
4.32301569 -5.852894783 1.938089132
0.5746465325 -0.7800015211 -0.2480006814
0.6274792552 -0.8523373008 -0.2343955785
1.916288614 -2.603945017 -0.6201920509
1.919875145 -2.610726833 -0.5065863729
2.08331871 -2.835057497 -0.4268430173
4.209901333 -5.7310853 -0.6184318066
5.078610897 -6.92381525 -0.149181366
5.084779263 -6.904391766 0.148971945
5.086891651 -6.912312508 0.4475782812
5.087575436 -6.915770054 0.7474222779
5.050253868 -6.870059967 1.041795731
5.038598537 -6.859219551 1.341320753
5.03584528 -6.857980728 1.645599723
5.003539085 -6.818973541 1.942674041
4.308270454 -5.875739098 1.940677285
0.5650779009 -0.7726467252 -0.2448948622
0.6336988807 -0.8671092391 -0.2379947752
1.90139699 -2.602691889 -0.6182839274
1.911914825 -2.619008064 -0.5068992376
2.066390514 -2.832689762 -0.4253805578
5.064188004 -6.926941872 0.1490766704
5.055663109 -6.920350075 0.446950227
5.068104267 -6.93992281 0.7481195331
5.02858305 -6.890854359 1.042283297
5.013460636 -6.875169754 1.341007948
4.999154091 -6.858066082 1.641401887
4.968232632 -6.820645809 1.938174844
4.285460472 -5.887618065 1.939642072
0.5487577915 -0.7558549643 -0.2386832088
0.6306682825 -0.8693159223 -0.2379947752
5.044674873 -6.951049805 0.1492162794
5.036165714 -6.944422722 0.44736889
5.039171219 -6.951118946 0.7474222779
5.009157181 -6.914794922 1.04325819
4.984797478 -6.886227608 1.33975637
4.993599415 -6.900923252 1.647507787
4.946677685 -6.841104507 1.939074874
4.264882088 -5.902541161 1.939642072
0.5325619578 -0.7389588952 -0.2324715555
0.6230746508 -0.8651866913 -0.2361951619
1.020613313 -1.417721391 -0.3313072622
1.026939631 -1.428611279 -0.2108905166
5.015706062 -6.962127686 0.1490766704
5.015444279 -6.964327335 0.4475782812
5.011384964 -6.963815212 0.7468993664
4.987307072 -6.935461521 1.043745637
4.961934566 -6.902719498 1.33975637
4.96489954 -6.911932945 1.645981312
4.927312374 -6.864662647 1.940874338
4.243032455 -5.913513184 1.938606858
0.5524597764 -0.7722369432 -0.242824316
0.6292707324 -0.8799291253 -0.2397943884
1.013375401 -1.418080568 -0.3305439949
1.01219058 -1.416945219 -0.2691188157
1.021043181 -1.430393338 -0.2106467783
1.012550473 -1.419543386 -0.1488366276
1.02161324 -1.432777762 -0.09001898021
1.01765728 -1.428284049 -0.02991162799
4.985609531 -6.968963146 0.1488672346
4.998072147 -6.991539955 0.4482062757
4.987046719 -6.981266499 0.7468993664
4.964281082 -6.951961517 1.043745637
4.940104961 -6.923215389 1.340382218
4.895208359 -6.862828732 1.630334973
4.885293007 -6.853987694 1.933226109
4.226848125 -5.93458128 1.940677285
0.5364701152 -0.7551659942 -0.2366126478
0.5991225243 -0.8439828157 -0.2289967537
1.024377346 -1.444640517 -0.273811847
1.030963659 -1.45500505 -0.2138153762
1.0124439 -1.429396749 -0.1495338827
1.015451789 -1.4347049 -0.08991431445
1.014974833 -1.435093045 -0.02998143993
4.96819973 -6.996106625 0.1490766704
4.966701984 -6.999171734 0.4475782812
4.97193718 -7.009140015 0.7481195331
4.931947708 -6.957911015 1.042039514
4.918191433 -6.943640709 1.341007948
4.872356892 -6.881475925 1.630716562
4.853459358 -6.859862804 1.930076838
4.210567474 -5.955609322 1.942747831
0.5249244571 -0.7444036007 -0.2324715555
0.5961728096 -0.8460689783 -0.2289967537
5.226441383 -7.43923378 -0.4742695689
5.226710796 -7.445140839 -0.1580820978
4.943748474 -7.013406754 0.1490766704
4.935338974 -7.006668091 0.446950227
4.949734688 -7.02971077 0.748468101
4.90991497 -6.978332996 1.04252696
4.893923759 -6.960765839 1.341007948
4.891204357 -6.959478855 1.645218134
4.850764751 -6.907063484 1.938624978
4.194191456 -5.976596355 1.944818377
0.5444785357 -0.777884841 -0.242824316
0.6200218201 -0.886470437 -0.2397943884
5.196117401 -7.456776619 -0.1579424739
4.928408146 -7.043727875 0.1493559033
4.915429115 -7.030400753 0.44736889
4.925165653 -7.046946049 0.748468101
4.891209126 -7.003565788 1.043745637
4.865073681 -6.971326828 1.33975637
4.875867367 -6.989391327 1.648270965
4.828853607 -6.927151203 1.939524651
4.173303604 -5.99119997 1.944818377
0.5108966827 -0.7353578806 -0.2283304334
0.6191464067 -0.8918309212 -0.2406942248
5.174379349 -7.475539684 -0.4742695689
5.174607754 -7.481448174 -0.1580820978
4.900369167 -7.055960178 0.1492511779
4.897690296 -7.057360649 0.4479969442
4.892587185 -7.052636147 0.7472479343
4.868994236 -7.023859978 1.044233203
4.842960835 -6.991514683 1.340382218
4.817911148 -6.957947254 1.636822581
4.80907917 -6.95037508 1.941324353
4.143576145 -5.993018627 1.940677285
0.5258741379 -0.7625826001 -0.2366126478
0.6160295606 -0.8939867616 -0.2406942248
2.435469389 -3.538335562 -0.673658371
2.398858309 -3.489055157 -0.3667259514
5.15503931 -7.503433228 -0.4748976231
5.159778118 -7.51595068 -0.1584311426
4.870035172 -7.064791679 0.1490766704
4.877557755 -7.080993652 0.448415637
4.871330261 -7.074594498 0.7477709055
4.844446659 -7.040812969 1.044233203
4.821883202 -7.013259888 1.341320753
4.824729919 -7.020025253 1.647507787
4.786994457 -6.970332146 1.942224145
4.129189968 -6.017003059 1.943783164
0.5363028049 -0.7835438848 -0.242824316
0.5843017697 -0.8543103933 -0.2289967537
5.111166 -7.475859642 -1.752071023
4.96410799 -7.271656036 -1.075919271
4.982034683 -7.300652027 -0.7695598602
5.132192135 -7.526332378 -0.4752116501
5.144771576 -7.550442219 -0.1587802023
4.846473217 -7.083398342 0.1491115689
4.848301411 -7.091380596 0.4479969442
4.846605301 -7.091555595 0.7477709055
4.815361977 -7.051122665 1.04325819
4.799599648 -7.033312321 1.341946602
4.800196171 -7.03682375 1.647507787
4.758244038 -6.980557442 1.940424442
4.11686182 -6.044153214 1.947924256
0.5400780439 -0.794999063 -0.2459301353
0.6097733974 -0.8982656002 -0.2406942248
5.086141586 -7.495280743 -1.75245285
4.945535183 -7.296292305 -1.077137828
4.964341164 -7.329545498 -0.7707800269
5.120441914 -7.565704346 -0.4765723944
5.140995502 -7.598930359 -0.1594433933
4.826211452 -7.106889725 0.1492511779
4.820272923 -7.100810051 0.4475782812
4.828532219 -7.118323326 0.7488167882
4.792947292 -7.071175098 1.043745637
4.774034023 -7.045918941 1.341320753
4.780006409 -7.060038567 1.649034142
4.732885361 -6.993071079 1.939524651
4.096796036 -6.05777216 1.947924256
0.5201542974 -0.7711604238 -0.2376479357
0.5784732103 -0.8582677841 -0.2289967537
5.067840099 -7.521874905 -1.754742503
4.934612751 -7.332415104 -1.080062747
4.973362923 -7.395566463 -0.7760093212
4.804853439 -7.126171112 0.1493210047
4.796699047 -7.116755486 0.4475782812
4.804900646 -7.13429594 0.7488167882
4.772797108 -7.091970921 1.044476867
4.750641823 -7.061711311 1.341320753
4.758758545 -7.079110622 1.649797559
4.709670067 -7.008727551 1.939524651
4.076685429 -6.071324348 1.947924256
0.5132943392 -0.7664604783 -0.2355773747
5.058151722 -7.561484814 -1.760085106
4.922218323 -7.369404316 -1.082987666
4.784533024 -7.147049904 0.1494257003
4.781821728 -7.148396492 0.4485203028
4.781216145 -7.15019083 0.7488167882
4.750356197 -7.109410286 1.04472065
4.723769665 -7.074965954 1.340695024
4.733077526 -7.091585636 1.649034142
4.687337875 -7.028366566 1.940424442
4.055467606 -6.085517406 1.947924256
0.5127544403 -0.7714653015 -0.2366126478
5.053443432 -7.611806393 -1.767717481
4.905238628 -7.399777412 -1.084937453
4.744063854 -7.140389442 0.1489370465
4.732536793 -7.128437519 0.4462175369
4.58436203 -6.907864094 0.7216241956
4.565335751 -6.884408474 1.009134769
4.535373211 -6.844411373 1.29376471
4.525071144 -6.8314538 1.584540844
4.677834034 -7.067436695 1.946722984
4.036331654 -6.102859497 1.948959589
0.5015485883 -0.7603495717 -0.2324715555
0.5974886417 -0.9064833522 -0.2406942248
4.890289307 -7.433439255 -1.087374926
4.549588203 -6.899812698 0.1435617059
4.555980682 -6.914759159 0.4317728281
4.558030128 -6.920496464 0.721275568
4.521632671 -6.870454788 1.00474751
4.514710426 -6.865152359 1.294703364
4.513059616 -6.865253448 1.588738561
4.598571301 -7.000654697 1.923778176
4.012884617 -6.113681793 1.947924256
0.5221694708 -0.7976546884 -0.2438595891
0.5836530328 -0.8922550678 -0.2361951619
4.532044888 -6.925691128 0.1437711418
4.523071766 -6.917246342 0.4309354126
4.486768246 -6.869576454 1.002310157
4.47560358 -6.857710838 1.290323138
4.359135151 -6.686899185 1.832897902
4.004171848 -6.147076607 1.954135895
0.4899135232 -0.7541124225 -0.2293657213
0.563557744 -0.868134439 -0.2289967537
3.88051343 -5.975467205 0.1236659586
3.861799002 -5.951195717 0.3695976734
3.87531352 -5.97430563 0.6193033457
3.847328901 -5.935700417 0.8633790612
3.824513912 -5.905016899 1.107607603
3.839780331 -5.930855274 1.365110517
3.831668139 -5.927392483 1.879595995
0.5061203241 -0.7850439548 -0.2386832088
0.5774096847 -0.8963080049 -0.2361951619
3.866131783 -5.999061108 0.123875387
3.858303308 -5.991506577 0.3712724149
3.856592894 -5.991147518 0.6196519732
3.843767881 -5.975806713 0.8672788739
3.825239897 -5.951565742 1.113865018
3.824360132 -5.95248127 1.36701858
3.810165882 -5.934943676 1.618294597
3.784876585 -5.900080204 1.866654992
0.5054590702 -0.7900605202 -0.2397184968
0.5742775202 -0.8983180523 -0.2361951619
0.8011075258 -1.253620744 -0.2809336483
0.7574922442 -1.186281562 -0.2162439674
3.847322226 -6.015889168 0.1239451915
3.844894171 -6.016719341 0.3720051348
3.818495274 -5.97770834 0.6168630123
3.803660631 -5.959068298 0.8628915548
3.785321474 -5.934904099 1.108233452
3.777173042 -5.924408436 1.357478023
3.770578623 -5.918623447 1.610196352
0.4882023335 -0.7689869404 -0.2324715555
0.581577301 -0.916772902 -0.2406942248
0.7315406799 -1.153613687 -0.2572733462
0.7216278911 -1.138860345 -0.2068579048
0.7266788483 -1.147717476 -0.1616552919
0.7513638139 -1.187163353 -0.1192036718
0.7473359108 -1.181711793 -0.07107336819
0.7520524263 -1.190088987 -0.02387309633
3.789868832 -5.971876621 0.1227584332
3.799267292 -5.991309166 0.3695976734
3.729337692 -5.883301735 0.6057070494
3.743534803 -5.910261154 0.8538731933
3.657882929 -5.779496193 1.076633692
3.55598712 -5.620669842 1.284589052
3.551005602 -5.617134094 1.524265051
3.493918657 -5.531105995 1.741386652
0.4731583595 -0.7510719895 -0.2262599021
0.5513817668 -0.8759183288 -0.2289967537
0.7222815156 -1.147851825 -0.2553652525
0.7186995745 -1.143044591 -0.2071707696
0.7121076584 -1.133438349 -0.159217909
0.7260225415 -1.156033993 -0.1157174483
0.7209119797 -1.148786783 -0.0688752532
0.7213351727 -1.150352597 -0.02300047502
3.568668842 -5.666949272 0.1161963269
3.58686471 -5.700255394 0.3507567346
3.454183102 -5.491523266 0.5638722777
3.409147501 -5.424126148 0.7814828157
3.379241467 -5.380712032 0.9996678829
3.374548197 -5.375321865 1.225438237
3.343940258 -5.33069706 1.442832708
3.341208696 -5.330474854 1.674093723
0.4930619895 -0.7887577415 -0.2376479357
0.5751629472 -0.9208106399 -0.2406942248
0.7141111493 -1.143704891 -0.2538387775
0.7178422213 -1.150574207 -0.2081093788
0.7112975717 -1.140970826 -0.1599491239
0.720928967 -1.156870365 -0.1155431271
0.7211205363 -1.158077955 -0.06929393858
0.717315197 -1.152863503 -0.02300047502
3.351765633 -5.363945961 0.1097040325
3.349039078 -5.363748074 0.3291943073
3.291523695 -5.273680687 0.5401659012
3.255733252 -5.220393658 0.7502843142
3.228801012 -5.181237221 0.9602463841
3.23016119 -5.185435772 1.179262519
3.203796864 -5.147114754 1.389744282
3.191983938 -5.132128716 1.607836008
0.4801228046 -0.7740571499 -0.2324715555
0.5719451904 -0.9228127599 -0.2406942248
0.7152843475 -1.154535174 -0.2557468712
0.7086227536 -1.144675016 -0.20654504
0.7156647444 -1.156952381 -0.1618990451
0.7085037231 -1.145823121 -0.1141486466
0.7181235552 -1.162287116 -0.06939861178
0.7092850208 -1.148430467 -0.02286085486
4.570126534 -7.370857239 0.1506822854
4.562274456 -7.361063957 0.4516604841
3.143016815 -5.075098515 0.51855129
3.122586489 -5.046043396 0.7234730124
3.091057301 -4.997041702 0.9239535928
3.08301425 -4.987929821 1.131560206
3.067025661 -4.965938091 1.337555647
3.036928892 -4.919126034 1.537437201
0.4591920674 -0.7461141944 -0.223154068
2.365517378 -3.848102808 -0.8697702289
0.7368826866 -1.199192286 -0.2162439674
0.7544101477 -1.228677511 -0.1718923151
0.7117932439 -1.160176873 -0.1153688207
0.7163536549 -1.168067336 -0.0696079582
0.7104961276 -1.159424543 -0.02303537913
3.080400467 -5.005161762 0.101885356
3.06972456 -4.991718292 0.3049104214
3.008455515 -4.895917416 0.4990283549
2.995703936 -4.877073288 0.6976367235
2.972331524 -4.842812061 0.8932924271
2.951469421 -4.810703754 1.088819027
2.936469316 -4.790005207 1.287166595
2.916810751 -4.761667252 1.484638214
0.482899636 -0.7904959321 -0.2366126478
0.5392525196 -0.8834373355 -0.2289967537
2.34354043 -3.840842485 -0.86633569
2.657683849 -4.359115124 -0.8019346595
2.883826017 -4.733749866 -0.6754564643
2.882041931 -4.732680321 -0.4810743034
2.886283398 -4.743371487 -0.288790971
2.8548491 -4.695401192 -0.09521853179
2.950357437 -4.831564426 0.09811563045
2.939929962 -4.818268776 0.293605864
2.89053297 -4.739171505 0.4819458425
2.858825445 -4.690868855 0.6693630219
2.84855628 -4.677692413 0.8607540131
2.83053422 -4.649924755 1.049893975
2.824537277 -4.643721581 1.244875789
2.809870481 -4.623241901 1.438050628
0.4721267223 -0.7789600492 -0.2324715555
0.5361654162 -0.8853143454 -0.2289967537
2.326052427 -3.842281818 -0.8648092151
2.634272575 -4.35484457 -0.7994317412
2.783082962 -4.604479313 -0.6554698944
2.778957129 -4.599466324 -0.4664321244
2.782999992 -4.609791756 -0.2799985111
2.7661376 -4.585478783 -0.09277520329
2.836071968 -4.68106699 0.09483458102
2.834140539 -4.681565285 0.2846040726
2.78319931 -4.599229813 0.466606468
2.749990225 -4.547936916 0.6474265456
2.740273714 -4.535441399 0.8325958848
2.722939014 -4.508528709 1.015548348
2.715677023 -4.500053406 1.203484774
2.697947741 -4.474204063 1.388357401
0.4753780663 -0.7905367613 -0.2355773747
2.308582306 -3.843645573 -0.8632826805
2.618038177 -4.362318993 -0.7991188765
2.650609732 -4.420087337 -0.6276836991
2.680935383 -4.472427368 -0.4524872303
2.688894987 -4.489258289 -0.2720434368
2.670014143 -4.461268902 -0.09005261958
2.735236645 -4.550398827 0.09197238833
2.721114635 -4.530486584 0.2747649252
2.680980444 -4.465430737 0.4519642889
2.652402163 -4.421327114 0.6279274225
2.628956795 -4.385715008 0.8031861186
2.616366148 -4.366438866 0.981202662
2.603851557 -4.348996639 1.160294175
2.579166889 -4.311180592 1.334523082
0.4666770399 -0.7822371721 -0.2324715555
2.296156406 -3.853367329 -0.8636643291
2.570456266 -4.317118168 -0.7891070843
2.566146851 -4.313304901 -0.6111094952
2.567541599 -4.317364216 -0.4357533157
2.585463524 -4.350955963 -0.2630416453
2.560500145 -4.312373161 -0.08684138209
2.631252527 -4.412215233 0.08897057176
2.623493195 -4.40269804 0.2663911581
2.569535732 -4.313858509 0.4355790317
2.553701162 -4.290681362 0.6079408526
2.528817177 -4.252248287 0.776905179
2.520851851 -4.240538597 0.9506732225
2.509038687 -4.224022865 1.12430203
2.493109941 -4.200544834 1.297253132
0.4718155265 -0.7971612215 -0.2366126478
2.283690453 -3.86304903 -0.864045918
2.489063501 -4.213810921 -0.7684577703
2.470355034 -4.185472965 -0.5916103721
2.483611345 -4.209611893 -0.4239001274
2.481002569 -4.208546638 -0.2538305223
2.472356796 -4.197228909 -0.0843282342
2.514012098 -4.249269009 0.08548009396
2.530863047 -4.281161785 0.2584360838
2.479454756 -4.195870399 0.4226799607
2.457964182 -4.162820816 0.5884417892
2.453732491 -4.158968449 0.7581329942
2.432233334 -4.124173164 0.9224335551
2.430960178 -4.125304222 1.095508218
2.41765976 -4.10600996 1.265159607
0.4768553078 -0.81213063 -0.2407537699
0.5237522721 -0.8927140236 -0.2289967537
2.266219854 -3.864222765 -0.8625195026
2.381458998 -4.063971996 -0.7393608689
2.385517836 -4.074157715 -0.5745486617
2.390401125 -4.084133625 -0.4103038311
2.397734404 -4.099944115 -0.2467128336
2.399174213 -4.105694771 -0.08230374753
2.4343822 -4.147644997 0.08324618638
2.431032419 -4.145251274 0.2496436685
2.390229702 -4.077307224 0.4097809196
2.369172096 -4.044622421 0.570405066
2.357378483 -4.027712345 0.7324778438
2.350406647 -4.017408848 0.8964834809
2.351634979 -4.02272892 1.065814734
2.339003325 -4.004328251 1.230995536
0.4662387669 -0.8004356027 -0.2366126478
0.520632863 -0.8945368528 -0.2289967537
2.255679131 -3.877200842 -0.8636643291
2.313453197 -3.982900858 -0.5604118109
2.322108746 -3.999409676 -0.4008910358
2.359354496 -4.06682682 -0.2442007214
2.365555286 -4.062798977 0.0813613236
2.354277372 -4.046678066 0.2431540042
2.311879396 -3.975397348 0.3986249864
2.285225391 -3.932722569 0.5533434153
2.275858164 -3.919751406 0.7112026811
2.275269508 -3.920312643 0.8728231788
2.259370089 -3.89605093 1.029822588
2.261086464 -3.902148724 1.196831346
0.4557097852 -0.7886767387 -0.2324715555
2.027219772 -3.512663603 -0.7800899744
1.689904571 -2.930543184 -0.5291129947
1.625625134 -2.821348429 -0.394669503
2.210961342 -3.844979048 -0.07671898603
2.2562778 -3.909563541 0.2343615443
2.240243912 -3.883346319 0.3885149062
2.213985205 -3.840924978 0.5392065048
2.199064255 -3.818119287 0.6911790371
2.203777313 -3.827846766 0.850307703
2.197170258 -3.819454193 1.007327437
2.183913231 -3.799475193 1.162667274
0.4606394172 -0.803671062 -0.2366126478
1.998364806 -3.490753651 -0.7736024857
2.134762049 -3.732034445 -0.6742841601
2.143745661 -3.750777245 -0.525313437
1.608213067 -2.814929724 -0.2799188495
2.147988081 -3.765823603 -0.07497374713
1.600610256 -2.795953989 0.1666388214
2.156416178 -3.768363953 0.3761388063
2.147356272 -3.755572796 0.5260446668
2.132807732 -3.733151674 0.6742841601
2.123223543 -3.717882156 0.8239760399
2.122012854 -3.718775988 0.9785336852
2.094088078 -3.672816277 1.121256113
0.4501928091 -0.791838944 -0.2324715555
1.99392283 -3.511365175 -0.776655376
2.071030855 -3.650122643 -0.6580149531
2.083647728 -3.675346851 -0.5136139393
2.077744484 -3.66642642 -0.3649828434
1.609001279 -2.843899965 -0.05633457005
1.605565906 -2.825158596 0.05602043122
1.61944139 -2.851891041 0.169674322
2.092105865 -3.685767174 0.3670746088
2.075475454 -3.659442663 0.5114203691
2.065223932 -3.644332409 0.656763494
2.065721035 -3.646692991 0.8064216375
2.059103966 -3.637972116 0.9551388025
2.041313171 -3.609478474 1.099515438
0.4569154084 -0.8102328777 -0.2376479357
1.973946095 -3.504619598 -0.7736024857
2.004992008 -3.562647581 -0.6408071518
2.020210505 -3.592622757 -0.5009396076
2.023930788 -3.600710154 -0.3576617837
1.699874997 -3.026665688 -0.1797228158
2.053288698 -3.64251399 0.07228606939
2.036825418 -3.616257906 0.2153112739
2.02253437 -3.592351437 0.3569645286
1.787280798 -3.179693699 0.5710374117
1.985662103 -3.534070253 0.7797083855
1.695329309 -3.019806147 0.7895748615
1.697908998 -3.026875973 0.9183420539
0.4559705853 -0.8151948452 -0.2386832088
1.944465637 -3.480638266 -0.766733408
1.947292209 -3.4885571 -0.6261023283
1.943840027 -3.485230207 -0.4848527908
1.968661666 -3.531183004 -0.3499920666
1.945893884 -3.493210793 -0.2073561996
1.943106651 -3.491072893 -0.06903992593
1.714619279 -3.066692352 0.06062786281
1.983278513 -3.550114155 0.210915044
1.681649446 -3.011425257 0.2980472445
1.933808804 -3.465822697 0.4821716845
1.931998849 -3.4654212 0.6217221618
1.928395867 -3.460378408 0.7617723942
1.910411 -3.430922031 0.896651566
1.902417302 -3.419373751 1.036881208
0.441876173 -0.7965098023 -0.2324715555
1.894244194 -3.418713331 -0.7514686584
1.889177561 -3.412379265 -0.61108464
1.883618593 -3.405142307 -0.4726658762
1.890764594 -3.419469595 -0.3381389081
1.900849462 -3.440543413 -0.2037973553
1.889352322 -3.422555447 -0.06753901392
1.925013185 -3.471386194 0.06858616322
1.686286807 -3.04339385 0.1801415086
1.640236974 -2.961503744 0.2924692929
1.885174036 -3.406550646 0.4729096293
1.877832055 -3.396080732 0.6079559326
1.87831676 -3.398357868 0.7465076447
1.866392374 -3.37956953 0.8813548684
1.856869936 -3.365101814 1.018246174
0.4539934099 -0.8251285553 -0.2407537699
1.824623346 -3.320349455 -0.7281899452
1.829717636 -3.33237648 -0.5954411626
1.833528519 -3.342081308 -0.4629163444
1.8299582 -3.336954355 -0.3292489946
1.835082531 -3.349070787 -0.1979357302
1.82169652 -3.327396393 -0.06551453471
1.868555307 -3.397484541 0.06698054075
1.854562998 -3.374832392 0.1996104866
1.574254394 -2.865926743 0.2823592126
1.821695805 -3.319138288 0.4597477317
1.808976054 -3.29869318 0.5891838074
1.821145058 -3.322258711 0.7281899452
1.808713675 -3.30231452 0.8593096733
1.795031428 -3.280050516 0.9902937412
0.4437075555 -0.8131417632 -0.2366126478
1.784837008 -3.274982214 -0.7167413831
1.782176495 -3.272818804 -0.5835521221
1.791492462 -3.292662621 -0.455116719
1.77451098 -3.2628088 -0.3212306798
1.789050341 -3.292279959 -0.1941675395
1.781063437 -3.278945923 -0.06443248689
1.810722113 -3.319720507 0.06530510634
1.569924951 -2.879445791 0.169674322
1.520396709 -2.790922165 0.2743408978
1.775933504 -3.262709618 0.4509731233
1.765928626 -3.245677948 0.5785462856
1.768340468 -3.255522966 0.8453626633
1.761099219 -3.243541479 0.9773527384
0.4408665299 -0.8146855235 -0.2366126478
1.269320607 -2.348539114 -0.5106676817
1.262413263 -2.33673358 -0.4139771461
1.265718937 -2.344809294 -0.3220353425
1.276973605 -2.367635727 -0.2316345721
1.275790453 -2.366430521 -0.1386914253
1.27741909 -2.371432781 -0.04631689191
1.50381732 -2.781251907 0.1634986699
1.28146708 -2.372002602 0.2321575135
1.253866196 -2.321881771 0.3188667595
1.249933362 -2.316532612 0.4102227092
1.263542771 -2.342733622 0.5091412067
1.261092663 -2.340146065 0.6037651896
1.250618577 -2.322650194 0.6952400208
0.4436452091 -0.8263555169 -0.2397184968
1.234620929 -2.302558661 -0.4996007979
1.237457275 -2.309783936 -0.4083455205
1.23597908 -2.308960438 -0.3164293468
1.248968244 -2.335184336 -0.2279740423
1.246805906 -2.332119942 -0.1363886446
1.245578527 -2.331781626 -0.04544426873
1.262345552 -2.352292299 0.04589803144
1.254372954 -2.339396 0.1369120032
1.253829241 -2.339361429 0.2284969687
1.217639208 -2.273745537 0.3115545809
1.222268701 -2.284305573 0.4036524892
1.228505611 -2.296925545 0.4980743229
1.21801424 -2.279222488 0.5866689086
1.214295626 -2.27417326 0.6791932583
0.4315380454 -0.810921967 -0.2345421165
1.194846272 -2.248125315 -0.4866257608
1.2048949 -2.26894331 -0.400210917
1.208366871 -2.276439667 -0.3113108575
1.210002661 -2.28144455 -0.222221747
1.212064266 -2.287259817 -0.1334578246
1.198118567 -2.261897326 -0.04397827014
1.225944281 -2.303725243 0.04485088959
1.21431911 -2.283802032 0.1333531588
1.216269016 -2.289397001 0.2230933309
1.191074371 -2.242917538 0.3066798151
1.184659839 -2.232719421 0.3936406672
1.201687217 -2.266721249 0.490441978
1.181374907 -2.230287313 0.5727219582
1.181942582 -2.232300997 0.665217042
0.4178856909 -0.7919206023 -0.2283304334
1.157701015 -2.196704388 -0.474413991
1.165675044 -2.213707924 -0.3895733654
1.16211915 -2.20882535 -0.3013175726
1.170112371 -2.225903273 -0.2162951678
1.178989053 -2.243740082 -0.1306316853
1.165652037 -2.220239878 -0.04307074472
1.186705351 -2.249835014 0.04369902983
1.189179063 -2.25643301 0.1314690709
1.17298305 -2.226643801 0.2164694667
1.161580205 -2.206865788 0.3010738194
1.149804354 -2.186344147 0.3845674396
1.159053922 -2.204866648 0.4759404361
1.158177853 -2.205068588 0.565073669
1.143230796 -2.178457499 0.6476173401
0.4221428633 -0.8071417809 -0.2324715555
1.120555162 -2.145247698 -0.462202251
1.122822881 -2.151418686 -0.377684325
1.133284569 -2.172388554 -0.2957115769
1.132866383 -2.173436642 -0.2107172012
1.13570106 -2.180731773 -0.1266541481
1.134810925 -2.179951429 -0.04219812527
1.150115132 -2.199032545 0.04261698201
1.155394912 -2.211006403 0.1285382509
1.133461356 -2.170879126 0.2105429024
1.119886875 -2.145792961 0.2920555174
1.11567843 -2.139549732 0.3754942715
1.117400765 -2.14467907 0.4618206024
1.117694259 -2.147070646 0.5488771796
1.109759331 -2.132736444 0.6326057911
0.4267246127 -0.8221811652 -0.2366126478
1.090319514 -2.103439331 -0.4522801638
1.09698081 -2.118099928 -0.3711140752
1.099617362 -2.125006676 -0.2886431515
1.10131824 -2.129203796 -0.2060107887
1.097667456 -2.123962164 -0.1230953038
1.099134326 -2.128621817 -0.04111607373
1.117032051 -2.153133154 0.04163964465
1.111291409 -2.14389801 0.1243513823
1.103721261 -2.130203485 0.2061851174
1.080823183 -2.087794304 0.2835246325
1.084981203 -2.097619057 0.367359668
1.08721447 -2.102835894 0.4518985152
1.085006237 -2.100361586 0.5358299613
1.076099634 -2.084904671 0.617076695
0.4203163087 -0.8167948127 -0.2345421165
1.069509506 -2.081040144 -0.4465559125
1.070631742 -2.085014105 -0.3645438552
1.063196182 -2.072313547 -0.2808435261
1.073877335 -2.094032288 -0.202175945
1.07203126 -2.092230797 -0.1210018694
1.083495855 -2.116425276 -0.04080192745
1.086642504 -2.112563133 0.0407670252
1.080977201 -2.103353977 0.121734567
1.080801606 -2.103915215 0.2032217979
1.059932232 -2.065063477 0.279868573
1.06503284 -2.076785564 0.3629795313
1.063747168 -2.075170755 0.4450294077
1.057235956 -2.064243078 0.5254822373
1.057374835 -2.066291332 0.6103473902
0.4227302074 -0.8285819888 -0.2376479357
1.053325772 -2.067268133 -0.4427397251
1.05528152 -2.072894812 -0.3617280126
1.056856155 -2.077781439 -0.2810872495
1.051665425 -2.072049379 -0.03985949978
1.062000751 -2.082496405 0.04010383412
1.06818819 -2.096437216 0.1211065501
1.066217184 -2.093472004 0.2018273026
1.046415329 -2.056366444 0.27816239
1.042557359 -2.050556183 0.3576607108
1.052939415 -2.071870327 0.4435029626
1.043847919 -2.055757761 0.5223329067
1.038793087 -2.04757309 0.6036180854
0.4041406512 -0.7990225554 -0.2283304334
1.03990674 -2.058665514 -0.4400683641
1.050709486 -2.081856489 -0.3626666367
1.045127869 -2.072595358 -0.279868573
1.048470974 -2.080128193 -0.2000841945
1.048415184 -2.081825733 -0.1199551523
1.055212021 -2.097143173 -0.04027835652
1.057431698 -2.091544628 0.04020854831
1.055460572 -2.089456558 0.1204785109
1.05441308 -2.088288546 0.2009557486
1.043701291 -2.068868399 0.2793810964
1.033615351 -2.050654888 0.3570349813
1.045700788 -2.075533152 0.4435029626
1.04017055 -2.066351891 0.5241325498
1.028167367 -2.04428339 0.6015475392
0.4134717882 -0.8246052265 -0.2355773747
1.030077457 -2.057016611 -0.4389235079
1.033713341 -2.066078901 -0.3592250645
1.039661884 -2.079782009 -0.2803560197
1.038531899 -2.078428507 -0.1995612532
1.03578949 -2.074750662 -0.119327113
1.041108608 -2.086316586 -0.03999911621
1.042956471 -2.080920935 0.039929308
1.044947386 -2.085802555 0.1200598255
1.038199067 -2.074139833 0.1992126405
1.02848208 -2.056519985 0.2771874666
1.025042772 -2.050537348 0.3564092517
1.032308698 -2.066875935 0.4408316016
1.029470801 -2.062995195 0.5223329067
1.021382809 -2.04768157 0.6015475392
0.4174698591 -0.8398829699 -0.2397184968
1.026382446 -2.067633629 -0.4404500127
1.028612375 -2.073034286 -0.3598507941
1.028351068 -2.074325562 -0.2791373432
1.02861762 -2.07668519 -0.1990383416
1.023586512 -2.067434788 -0.1186990887
1.041799426 -2.106069803 -0.04031326249
1.032489896 -2.07720542 0.03978969157
1.03766036 -2.089437246 0.1200598255
1.034495115 -2.084890127 0.1999098957
1.014600515 -2.045692205 0.2752375305
1.017878771 -2.054103136 0.3564092517
1.022834778 -2.065010309 0.4396867752
1.020030975 -2.061157942 0.5209832191
1.01251626 -2.047770977 0.6005122662
0.4010162354 -0.8135384321 -0.2314362824
1.017786026 -2.067503214 -0.4396867752
1.018754482 -2.071294785 -0.3589122295
1.020228505 -2.076121092 -0.2788936198
1.025238872 -2.087237835 -0.1997355819
1.018123627 -2.074581146 -0.1189084351
1.030919909 -2.102511406 -0.04017364234
1.029651761 -2.089765787 0.03996421397
1.023303509 -2.078711271 0.1192224547
1.029334903 -2.091884613 0.2002585232
1.011832833 -2.058128595 0.2764562368
1.011573195 -2.059416533 0.3567221165
1.017350793 -2.072092533 0.4404500127
1.005963922 -2.050709486 0.5173839927
1.010463119 -2.061701059 0.6036180854
0.4049586058 -0.8288192153 -0.2355773747
1.00711906 -2.063985825 -0.4381602705
1.016711831 -2.085491657 -0.3607894182
1.012975216 -2.079669714 -0.2788936198
1.014458179 -2.083638668 -0.1990383416
1.016991258 -2.090694666 -0.1196411327
1.01483345 -2.088111877 -0.03982459381
1.022351146 -2.093347311 0.03996421397
1.015165329 -2.080475807 0.1191177741
1.022026539 -2.095464945 0.2002585232
1.002903104 -2.058079004 0.2759687304
0.9948666096 -2.043398619 0.3532805741
1.015266418 -2.086223125 0.4427397251
1.002207994 -2.061218739 0.5191836357
0.9998839498 -2.058264732 0.6015475392
0.4104833007 -0.8476147056 -0.2407537699
1.001618028 -2.071023464 -0.4389235079
1.007707 -2.085470915 -0.3601636887
1.009161949 -2.090343475 -0.279868573
1.00544703 -2.083577871 -0.1986896992
1.01142168 -2.097830057 -0.1198504716
1.014481187 -2.106054306 -0.04010383412
1.015037656 -2.096903324 0.03996421397
1.013114691 -2.09479475 0.1197458133
1.010370255 -2.090050697 0.1993869543
1.000892997 -2.072292328 0.2774311602
0.9894448519 -2.050416708 0.3539063036
1.004566193 -2.082681179 0.4412132204
0.9966990948 -2.06821537 0.5200834274
0.9893406034 -2.054780245 0.5994769335
0.3974907398 -0.8281428814 -0.2345421165
0.999474287 -2.085129499 -0.4412132204
0.9987149239 -2.085412264 -0.3595379591
1.006999612 -2.104597569 -0.2813310027
0.9998874068 -2.09066987 -0.1990383416
1.004092813 -2.101347685 -0.1198504716
1.008846402 -2.113191843 -0.04017364234
1.004251838 -2.093221664 0.03982459381
1.007522821 -2.101920605 0.1199551523
1.005650759 -2.098955393 0.1999098957
0.9936532378 -2.075773716 0.2774311602
0.987395525 -2.0645504 0.3557835221
0.9955965281 -2.082632303 0.4404500127
0.994512856 -2.082232714 0.5227828622
0.98382622 -2.061708212 0.6005122662
0.3912780881 -0.8225471973 -0.2324715555
0.9955593944 -2.095698833 -0.4427397251
0.9897351265 -2.085316896 -0.3589122295
0.9979461432 -2.104512453 -0.2808435261
0.994289875 -2.09774828 -0.1993869543
0.9916231036 -2.094009399 -0.1192224547
1.007450461 -2.129353523 -0.0404179804
1.000373721 -2.103938341 0.03996421397
1.000179648 -2.105424643 0.1199551523
1.000027299 -2.106052399 0.2002585232
0.9829981923 -2.07205534 0.2764562368
0.9835668206 -2.075124741 0.3570349813
0.9900017977 -2.089643478 0.4412132204
0.9839033484 -2.078645945 0.5209832191
0.9782754779 -2.068622589 0.6015475392
0.3867569268 -0.8204131722 -0.2314362824
0.9857292175 -2.093832731 -0.4415948689
0.9874946475 -2.099483967 -0.3607894182
0.9872165322 -2.1007967 -0.279868573
0.9920439124 -2.112026215 -0.2004328221
0.9893981814 -2.108306408 -0.1198504716
0.9983138442 -2.129235983 -0.04034816474
0.9930236936 -2.107417345 0.03996421397
0.9911227226 -2.105289221 0.1197458133
0.9960631728 -2.116741419 0.2009557486
0.975759387 -2.075474024 0.2764562368
0.9763175249 -2.078545332 0.3570349813
0.9843705297 -2.096640587 0.4419764578
0.9749865532 -2.078539133 0.5200834274
0.9759671092 -2.082520485 0.6046533585
0.3920674324 -0.8392609358 -0.2366126478
0.9726041555 -2.084806442 -0.4389235079
0.9818291068 -2.106499195 -0.3614151478
0.9798775315 -2.104229927 -0.279868573
0.9813023806 -2.108251095 -0.1997355819
0.9854018092 -2.118991375 -0.1202691719
0.9849769473 -2.120013475 -0.04010383412
0.9890452623 -2.118118525 0.04010383412
0.9837678075 -2.108736038 0.1197458133
0.9886679649 -2.120205641 0.2009557486
0.9718617797 -2.086065054 0.2774311602
0.9615536928 -2.065822601 0.3542191386
0.9803584218 -2.107184172 0.4435029626
0.9710108042 -2.088998556 0.5218830705
0.9670646787 -2.082410336 0.6036180854
0.3810200393 -0.8230932355 -0.2314362824
0.9686163664 -2.095316887 -0.4404500127
0.9728134274 -2.106326818 -0.3607894182
0.979180336 -2.122057199 -0.2818184793
0.9722682834 -2.108045101 -0.1993869543
0.9779987931 -2.122418165 -0.1202691719
0.977570951 -2.123438835 -0.04010383412
0.9816458821 -2.121557951 0.04010383412
0.9814295173 -2.123034477 0.1203738302
0.9779184461 -2.116408825 0.2002585232
0.9695661068 -2.100258589 0.2788936198
0.958473444 -2.07813549 0.3557835221
0.9729969501 -2.110593557 0.4435029626
0.9637129307 -2.092375517 0.5218830705
0.9581744671 -2.082263708 0.6025828123
0.3781445622 -0.8244182467 -0.2314362824
0.9645665884 -2.105824947 -0.4419764578
0.9638112783 -2.106117249 -0.3601636887
0.9734175205 -2.129073143 -0.2823059559
0.9665603638 -2.115050316 -0.1997355819
0.9705844522 -2.125818968 -0.1202691719
0.9759619832 -2.139573574 -0.04034816474
0.9709009528 -2.117700577 0.03996421397
0.977339685 -2.133710861 0.1207925305
0.9721833467 -2.123432875 0.2006071359
0.960577786 -2.100019932 0.2784061432
0.954497993 -2.088654995 0.3570349813
0.960729599 -2.103262186 0.4412132204
0.9612575173 -2.106363773 0.5245824456
0.9509003162 -2.085595369 0.6025828123
0.3816588223 -0.83980304 -0.2355773747
0.960455358 -2.116330147 -0.4435029626
0.956453681 -2.109468937 -0.3601636887
0.9659798741 -2.132457733 -0.2823059559
0.963280499 -2.127486467 -0.2006071359
0.9598655105 -2.121914864 -0.1198504716
0.9693109393 -2.144789457 -0.04038307071
