# .PCD v0.7 - Point Cloud Data file format
VERSION 0.7
FIELDS x y z
SIZE 4 4 4
TYPE F F F
COUNT 1 1 1
WIDTH 1236
HEIGHT 1
VIEWPOINT 0 0 0 1 0 0 0
POINTS 1236
DATA ascii
-0.4317860007 3.675616264 -0.8444628716
-0.4786501825 4.080697536 -0.7903936505
-0.4766701758 4.076113224 -0.6433101296
-0.4789139926 4.107745647 -0.5026457906
-0.4769022167 4.102922916 -0.3576617837
-0.4768634737 4.108859062 -0.2145785689
-0.4759994149 4.113935947 -0.07158797234
-0.419408083 3.564878702 0.06195424497
-0.4837460816 4.124142647 0.2154159397
-0.5228948593 4.464636803 0.3895607591
-0.52337569 4.482283115 0.5489560962
-0.5277565122 4.533537388 0.7162086368
-0.4872971773 4.192353725 0.8121459484
-0.5132730007 4.429310799 1.019474864
-0.5164644122 4.470515251 1.194243193
-0.4647992253 4.092178345 -0.792301774
-0.4630597234 4.0896101 -0.6451873779
-0.4643521607 4.107419014 -0.5024020076
-0.4634688199 4.112482071 -0.3583590388
-0.4629164338 4.120503902 -0.2151019424
-0.4625267386 4.123521328 -0.07172759622
-0.4080961049 3.576254606 0.06212876737
-0.469799608 4.129775047 0.2156252861
-0.5092206597 4.490280151 0.3916525245
-0.5063852668 4.472248554 0.5474936962
-0.5105977654 4.523574829 0.7143313885
-0.4739048183 4.211669922 0.8155804276
-0.4996408224 4.454401493 1.024873614
-0.5021494031 4.483809948 1.197348952
-0.4511551559 4.099629879 -0.79344666
-0.4505055249 4.106910229 -0.6476902962
-0.4492955208 4.109093189 -0.5024020076
-0.4508413076 4.129919052 -0.3597535193
-0.4491773248 4.128050327 -0.2154159397
-0.4482735097 4.133140564 -0.07186721265
-0.3969614804 3.595615387 0.06244291365
-0.4546590149 4.13146925 0.2156252861
-0.4939818382 4.49599123 0.392001152
-0.4917201102 4.489860535 0.549443543
-0.4965880513 4.548980713 0.7180858254
-0.4606883526 4.226960659 0.8182518482
-0.4811435044 4.428995609 1.018574953
-0.4859166741 4.487541199 1.197866559
-0.107232064 1.001738787 -0.2583534718
-0.4364269972 4.097275257 -0.792683363
-0.437834233 4.124172688 -0.650193274
-0.4370370209 4.130377293 -0.5048393607
-0.436839968 4.135430813 -0.3601021469
-0.4351861179 4.133565903 -0.2156252861
-0.4334269762 4.130702972 -0.07179740816
-0.3852570355 3.604932547 0.06258253008
-0.4415048361 4.144947052 0.2162533253
-0.4799691439 4.513537407 0.3933956325
-0.4781377017 4.511289597 0.5518809557
-0.478214711 4.527112484 0.7143313885
-0.4481964707 4.25001955 0.8224496245
-0.4689384997 4.461657047 1.025773406
-0.4708561301 4.49497366 1.199419498
-0.1037344187 1.002107024 -0.2583534718
-0.4233278632 4.110491276 -0.7949730754
-0.4242450893 4.133535862 -0.6514447331
-0.4242314696 4.147676468 -0.5067893267
-0.4224047959 4.136929989 -0.3601021469
-0.423584044 4.16287756 -0.2170906812
-0.4213421941 4.148033142 -0.07207664102
-0.3728757501 3.608244658 0.0626174435
-0.4298076928 4.166255474 0.2173000425
-0.4633947611 4.507257938 0.3926984072
-0.4640049338 4.528729916 0.5538309216
-0.4644065201 4.540464401 0.7162086368
-0.4325609505 4.243745804 0.8209231496
-0.4541502297 4.471021652 1.027572989
-0.4557515681 4.494588852 1.198901892
-0.1002355218 1.002462983 -0.2583534718
-0.4111132324 4.133433819 -0.7991708517
-0.4101439714 4.130988598 -0.650818944
-0.4112555385 4.156961918 -0.5077642798
-0.4087424278 4.146310806 -0.3607993722
-0.4101671875 4.168235302 -0.2173000425
-0.4076417089 4.157439232 -0.07221625745
-0.3611062467 3.611450911 0.06265234202
-0.4160531163 4.175680161 0.2177187204
-0.4484469891 4.516778469 0.3933956325
-0.449768573 4.538145065 0.5548058152
-0.4512734115 4.569579601 0.7205887437
-0.41887182 4.249064445 0.8216863275
-0.4404651821 4.484139919 1.030272484
-0.4385530651 4.480770588 1.194760799
-0.0924513787 0.9566402435 -0.2459301353
-0.3983460069 4.144545555 -0.8010789752
-0.3972269595 4.148126602 -0.6533219814
-0.3974995315 4.166276455 -0.5087391734
-0.3953967392 4.159613132 -0.3618452549
-0.3956157267 4.169641495 -0.2173000425
-0.3950078487 4.17874527 -0.07256531715
-0.3494602442 3.622641325 0.06282686442
-0.4018577635 4.181083202 0.2179280818
-0.4346088767 4.5301404 0.3944415152
-0.4327902794 4.527831078 0.5533434153
-0.4371913373 4.590791225 0.7237174511
-0.4053365886 4.264181137 0.8243576288
-0.4259111285 4.497290134 1.032971859
-0.4254510999 4.509200573 1.202007771
-0.08894425631 0.9569726586 -0.2459301353
-0.3831517696 4.145977974 -0.8010789752
-0.3831081092 4.161356449 -0.6551991105
-0.3833162487 4.171592236 -0.5092266798
-0.3830548227 4.184776783 -0.3639370203
-0.3810549378 4.179019451 -0.2177187204
-0.3804197907 4.180098534 -0.07256531715
-0.3375520706 3.631803989 0.0629664883
-0.3872594833 4.182460308 0.2179280818
-0.4194650352 4.54757452 0.3958359957
-0.4184393883 4.545127869 0.555293262
-0.4208039045 4.588355064 0.7230916619
-0.3909561634 4.279325008 0.8270290494
-0.4083661735 4.487176895 1.030272484
-0.4100588858 4.514505386 1.203042984
-0.0831945166 0.9303389192 -0.2386832088
-0.3693735003 4.155112267 -0.8026054502
-0.3699726462 4.178410053 -0.6577020884
-0.3683717251 4.176923752 -0.5097141266
-0.3684437573 4.186088562 -0.3639370203
-0.3675125241 4.192261696 -0.2183467597
-0.3665222228 4.189369678 -0.07270493358
-0.3256614506 3.648951054 0.06324572861
-0.3740740716 4.199701786 0.2187654376
-0.4046436846 4.560918808 0.3968818486
-0.4031767547 4.562450409 0.557243228
-0.4061720967 4.605538368 0.7255946994
-0.3767042458 4.288486481 0.8285555243
-0.3950771093 4.515753746 1.036571026
-0.3958111405 4.533230782 1.207701683
-0.07994627208 0.9306236506 -0.2386832088
-0.3562021852 4.172025204 -0.8056584597
-0.357121557 4.191423416 -0.6595793366
-0.3558620512 4.193946362 -0.5116640925
-0.3538302183 4.187349319 -0.3639370203
-0.3542805314 4.201417923 -0.2187654376
-0.3527338803 4.200586796 -0.07287944853
-0.3139006197 3.653995514 0.0633155331
-0.360093981 4.208941936 0.2191841304
-0.3880450428 4.554362774 0.3961846232
-0.3898936212 4.585519314 0.5599243045
-0.390760988 4.614801407 0.7268461585
-0.3631410301 4.297536373 0.8300819397
-0.3797742724 4.513154984 1.035671353
-0.3765959144 4.494157314 1.196831346
-0.08035673946 0.9732402563 -0.2500712276
-0.3425246775 4.175140381 -0.8060400486
-0.3418461382 4.184769154 -0.6583278179
-0.3421847522 4.207034588 -0.5131265521
-0.3401045203 4.190485477 -0.3641113043
-0.3405768275 4.21457386 -0.2193934768
-0.339030087 4.21375227 -0.07308888435
-0.3006502986 3.64909029 0.06321082264
-0.3473584056 4.234060287 0.220440194
-0.3740767539 4.569524765 0.3974047899
-0.373722285 4.58487463 0.5596806407
-0.3749704957 4.620074749 0.7274718881
-0.3482949138 4.300734997 0.8304635286
-0.3658985496 4.537762165 1.041070104
-0.3587405086 4.468485355 1.189584374
-0.07939559966 1.00432837 -0.2583534718
-0.3297958374 4.19979763 -0.8106194735
-0.3278511763 4.193814278 -0.6595793366
-0.3284223974 4.220078468 -0.5145889521
-0.3239314258 4.17178297 -0.3623681962
-0.3261719048 4.219719887 -0.2196028382
-0.3255474865 4.230860233 -0.07336812466
-0.2886977494 3.660084963 0.06338534504
-0.3325795531 4.235246658 0.220440194
-0.3589029014 4.580733776 0.398276329
-0.352777034 4.522819996 0.5518809557
-0.3524171114 4.538639069 0.7143313885
-0.3341912329 4.313668728 0.8327532411
-0.3409148455 4.420491219 1.013626099
-0.3341210485 4.352213383 1.158008456
-0.3152795434 4.202880859 -0.8110010624
-0.3143875599 4.210691929 -0.6620822549
-0.3133941889 4.21723938 -0.5141014457
-0.2961104214 3.994063377 -0.3466801345
-0.3117331564 4.224816322 -0.2198121548
-0.3116566241 4.243936539 -0.07357754558
-0.2769708931 3.675028801 0.06362967938
-0.3171950281 4.228415489 0.2200215161
-0.3403819799 4.548182487 0.3953130543
-0.3349238634 4.49630928 0.5484686494
-0.3329218626 4.490591526 0.7065096498
-0.3200014532 4.326556683 0.8350430131
-0.3191864789 4.336140633 0.9938303232
-0.3173731863 4.332159996 1.152314544
-0.300465703 4.201997757 -0.8106194735
-0.300667882 4.22555685 -0.6642723083
-0.2992351055 4.22622776 -0.5150763988
-0.2821656764 3.995072842 -0.3466801345
-0.2978268862 4.237832069 -0.220440194
-0.2962815464 4.237019062 -0.07343792915
-0.2648600936 3.685945511 0.06380420178
-0.304141432 4.25340271 0.2212775648
-0.3189783692 4.471836567 0.3885149062
-0.3141658902 4.426167488 0.5396940112
-0.3118158579 4.414878368 0.6943077445
-0.3058616519 4.341355801 0.8377143145
-0.3025504947 4.315845013 0.9888814688
-0.3001013696 4.302406311 1.144032359
-0.2865961194 4.214772701 -0.8129091263
-0.2864482701 4.234464169 -0.6655237675
-0.2858127654 4.247053146 -0.5175138116
-0.2647483349 3.944348335 -0.3421480656
-0.2846279144 4.262760162 -0.2216962725
-0.2835570276 4.257931232 -0.07378697395
-0.2525365949 3.694828033 0.06394382566
-0.2907130122 4.264351845 0.2218009382
-0.3003996015 4.429191113 0.3846800625
-0.2957746983 4.383663654 0.5343317389
-0.2923998833 4.34493494 0.6830444336
-0.2913622856 4.352191925 0.839622438
-0.2881298363 4.326597214 0.9911310673
-0.2853191197 4.295667171 1.141961694
-0.2723864019 4.223584652 -0.8144356608
-0.2726591527 4.23933363 -0.6661495566
-0.2724865973 4.259863853 -0.5189762115
-0.2497161776 3.925364494 -0.3404049575
-0.2707422376 4.267667294 -0.221905604
-0.2691988945 4.266877651 -0.07392659783
-0.2401519269 3.69364953 0.06390891969
-0.2767310441 4.279292107 0.2225336283
-0.28263399 4.394423485 0.3815424442
-0.2803477645 4.370753288 0.5326256156
-0.2782363296 4.361700535 0.685547471
-0.2771784365 4.357052326 0.8403856158
-0.2750120461 4.346977234 0.9956300259
-0.2712919712 4.31206131 1.146102786
-0.2596982121 4.24601984 -0.8186334372
-0.2585797608 4.2520895 -0.6680268049
-0.2578536868 4.264751911 -0.5194637179
-0.2372070253 3.946100473 -0.3421480656
-0.2556035519 4.264598846 -0.2216962725
-0.2557292879 4.291745663 -0.07434545457
-0.2282419801 3.710432768 0.06418815255
-0.2620345652 4.284218788 0.2227429897
-0.2565810084 4.318768024 1.147655725
-0.2443603277 4.250863552 -0.8193966746
-0.2438957095 4.268785954 -0.6705297232
-0.2431940585 4.269589901 -0.5199511647
-0.2220806628 3.923033953 -0.34005633
-0.2406453639 4.277472019 -0.2223242968
-0.2411934882 4.300598145 -0.074485071
-0.2160984278 3.725181341 0.06443248689
-0.2471941113 4.287101269 0.2228476554
-0.2544561327 4.440050602 0.3853773177
-0.2491479069 4.360713005 0.531163156
-0.2465472817 4.341842651 0.6821058989
-0.2431348562 4.335213661 0.9924806356
-0.2416149229 4.321565628 1.148173332
-0.2293077409 4.247769356 -0.8186334372
-0.2298385948 4.285392284 -0.673032701
-0.2281762362 4.282346249 -0.5214136243
-0.2069623172 3.909894228 -0.3388361633
-0.2265554219 4.294241905 -0.2231616676
-0.2248023897 4.289471626 -0.07427564263
-0.2033104748 3.741922379 0.0647117272
-0.2318013459 4.293961525 0.2231616676
-0.2379933894 4.423006058 0.3838084936
-0.2334802002 4.367543697 0.5318943858
-0.2291662544 4.315100193 0.6777256727
-0.2319163829 4.381322384 0.8445834517
-0.2283085734 4.341874599 0.9938303232
-0.226478219 4.335926533 1.151796818
-0.192956537 3.809033632 -0.870557189
-0.2143301517 4.260346413 -0.8209231496
-0.2143283486 4.290151119 -0.673658371
-0.2140171975 4.298977852 -0.5233635902
-0.2026589662 4.099638939 -0.3553957343
-0.211792767 4.314991951 -0.2242083848
-0.2108057439 4.310203075 -0.07462468743
-0.1902482808 3.742609262 0.0647117272
-0.2179197967 4.31668663 0.2243130505
-0.2212807685 4.413899422 0.3829369545
-0.2192246169 4.388157845 0.5343317389
-0.2158629596 4.351387501 0.683357358
-0.2161471993 4.388025284 0.8457282186
-0.2133461982 4.362145901 0.998329401
-0.2115285695 4.340549946 1.15283215
-0.04798483849 1.006318331 -0.2583534718
-0.182352066 3.852476835 -0.8804550171
-0.2020533979 4.284531116 -0.8255025148
-0.2010329217 4.294749737 -0.6742841601
-0.2004958987 4.315527439 -0.525313437
-0.1969625801 4.255495071 -0.3689920008
-0.1985115409 4.321620941 -0.2245224118
-0.1970566064 4.322864532 -0.07483412325
-0.1779301614 3.745217085 0.06474663317
-0.2045435905 4.337335587 0.2253597677
-0.2081618905 4.430493832 0.384331435
-0.2049479783 4.3948102 0.5350629687
-0.2022548914 4.369838238 0.686173141
-0.202721253 4.396527767 0.8472548127
-0.200352475 4.378368378 1.001928687
-0.1975726634 4.350876808 1.155420303
-0.04447204992 1.00647974 -0.2583534718
-0.1820469648 4.152908325 -0.9497399926
-0.187782377 4.30090189 -0.8285555243
-0.1863830388 4.303319454 -0.6755356193
-0.1857703477 4.324133873 -0.5262883902
-0.1824485362 4.264119625 -0.3696892858
-0.1833392382 4.32029295 -0.2244177461
-0.1828055084 4.343504906 -0.07518316805
-0.1654720902 3.759799719 0.06499096751
-0.189664498 4.344009399 0.2256737947
-0.1931290478 4.441146374 0.3852030039
-0.1895213574 4.393515587 0.5348192453
-0.1880987585 4.396174431 0.6902404428
-0.1878756881 4.408977032 0.8495445251
-0.1854802221 4.388775826 1.004178047
-0.1828682721 4.363121033 1.158526063
-0.1721040606 4.266453266 -0.9758342505
-0.1729267538 4.305454254 -0.8293187022
-0.1719880551 4.319734097 -0.6780385971
-0.170832634 4.328722954 -0.5267758965
-0.168187499 4.280656815 -0.3710837662
-0.1690355539 4.340863705 -0.2254644632
-0.1676436514 4.344116688 -0.07518316805
-0.1529125571 3.77434063 0.06523530185
-0.1739397496 4.330675125 0.2249410897
-0.1790571958 4.477627754 0.3883405924
-0.1750497967 4.415968895 0.5375003815
-0.173526451 4.416542053 0.6933691502
-0.1737129986 4.440993786 0.8556503057
-0.1711395979 4.414711475 1.010026813
-0.1689728349 4.398480892 1.167843699
-0.1580722034 4.290397167 -0.98123312
-0.1576799005 4.300146103 -0.8281739354
-0.1576261967 4.340049267 -0.6811673045
-0.156148538 4.341196537 -0.5282383561
-0.1525323838 4.26130724 -0.3693406582
-0.1543053836 4.353403091 -0.2260924727
-0.152760312 4.352669716 -0.07532279193
-0.1402553469 3.788840055 0.06547963619
-0.1596989036 4.355207443 0.2261971533
-0.1661156565 4.551894188 0.394790113
-0.1619991213 4.482017994 0.5455437303
-0.1595936418 4.45857811 0.6999394298
-0.1585582644 4.451383591 0.8575584292
-0.1557979435 4.417229652 1.010476828
-0.1537518948 4.402904987 1.168878913
-0.1437433362 4.310399532 -0.9857321382
-0.1431231052 4.314405441 -0.8308452368
-0.142668888 4.346496105 -0.6821058989
-0.1415124089 4.357586861 -0.5301882029
-0.137655586 4.261813641 -0.3693406582
-0.1396852583 4.371881008 -0.2270345241
-0.138705343 4.365143776 -0.07553221285
-0.1271637529 3.79330349 0.06554944068
-0.1457869709 4.371682167 0.2270345241
-0.1553520113 4.70776844 0.4083864093
-0.1541898102 4.722624779 0.5750361681
-0.1540412456 4.743387222 0.7449925542
-0.1432700306 4.459758759 0.8590849042
-0.1413670629 4.448910236 1.017675161
-0.1396395266 4.418838024 1.173020005
-0.1298005432 4.322539806 -0.9884315729
-0.1282377988 4.320765972 -0.8319900632
-0.1283137202 4.348919392 -0.6824187636
-0.1276386529 4.377874851 -0.5326256156
-0.1226623431 4.258284569 -0.3689920008
-0.1252999306 4.376313686 -0.2272438705
-0.1240314543 4.385590553 -0.0758812651
-0.1147036999 3.797701836 0.06561925262
-0.1309420913 4.386138916 0.2277672291
-0.1393867135 4.724214554 0.4097809196
-0.1391670257 4.744936466 0.5777172446
-0.1382826716 4.771539688 0.7493727207
-0.1284223795 4.458247185 0.8587033153
-0.1331550628 4.67921257 1.070763588
-0.1314882189 4.678064346 1.24238348
-0.02707564458 1.00709784 -0.2583534718
-0.1147121862 4.322966576 -0.9884315729
-0.1140132472 4.325092316 -0.8327532411
-0.1132874116 4.355265617 -0.683357358
-0.1122532338 4.374324799 -0.5321381092
-0.1081028506 4.270637512 -0.3700378835
-0.1100218222 4.37672472 -0.2272438705
-0.1087251455 4.385997295 -0.0758812651
-0.1016591042 3.806075096 0.06575886905
-0.1157391071 4.390562534 0.2279765755
-0.124031499 4.736600876 0.4108267725
-0.1224014312 4.737455368 0.5767422915
-0.1220274121 4.787790775 0.751875639
-0.1132102311 4.472406387 0.8613746166
-0.1170140505 4.687442303 1.072563291
-0.1154894382 4.692013741 1.246006966
-0.0997101441 4.327236652 -0.989331305
-0.09807209671 4.321556091 -0.8319900632
-0.09776394814 4.375400066 -0.6864860654
-0.09716231376 4.382628441 -0.533113122
-0.0931937471 4.270988941 -0.3700378835
-0.0945378989 4.403056622 -0.2286046147
-0.09375394136 4.40234375 -0.07616050541
-0.08888598531 3.828397512 0.06614282727
-0.1006852686 4.402920246 0.2286046147
-0.1074785888 4.77287817 0.4139643908
-0.1060843542 4.747777462 0.5779610276
-0.1055757925 4.800036907 0.7537528276
-0.09715817124 4.488493443 0.8644275665
-0.0998339653 4.687839508 1.072563291
-0.09955803305 4.713633537 1.251700997
-0.08437884599 4.354850769 -0.9956300259
-0.08287223428 4.315983295 -0.8308452368
-0.08264021575 4.38361454 -0.6877375245
-0.08131563663 4.394863605 -0.5345754623
-0.07843159139 4.279256344 -0.3707351387
-0.07931023091 4.411347389 -0.2290232927
-0.07831605524 4.398645401 -0.07609069347
-0.07508532703 3.840693474 0.06635225564
-0.08558735996 4.417222977 0.2293373197
-0.09074041247 4.769239902 0.4136157632
-0.08894270658 4.762027264 0.5796672106
-0.08889170736 4.804327011 0.7543786168
-0.08180931956 4.506471634 0.8678621054
-0.08374825865 4.703746319 1.076162457
-0.08341349661 4.731336594 1.256359816
-0.07031352818 4.378488064 -1.001028776
-0.06774330884 4.312319756 -0.8300819397
-0.06822677702 4.391765118 -0.6889889836
-0.06704359502 4.414958 -0.5370129347
-0.06313789636 4.255598068 -0.3686434031
-0.06476996094 4.417577267 -0.2293373197
-0.06324644387 4.418886662 -0.07643974572
-0.06241439655 3.84491992 0.06642206013
-0.07023010403 4.421488285 0.2295466363
-0.07409537584 4.769527435 0.4136157632
-0.07357627898 4.790084362 0.5830795169
-0.07250968367 4.830284595 0.7584459186
-0.06698012352 4.514570236 0.8693885803
-0.06831768155 4.715689659 1.078861952
-0.06678704172 4.723872185 1.25428915
-0.05507713556 4.382604122 -1.001928687
-0.05353888497 4.320373058 -0.8316084146
-0.05299023166 4.399877548 -0.6902404428
-0.05179553479 4.429059982 -0.5387191176
-0.04898042977 4.251799107 -0.3682947755
-0.04950644448 4.431756496 -0.2300700098
-0.04794992134 4.431078434 -0.07664917409
-0.04899355024 3.84511447 0.06642206013
-0.05509161204 4.445672035 0.2308027148
-0.05856942758 4.793653965 0.4157074988
-0.05690115318 4.79428196 0.5835670233
-0.05571537837 4.836433887 0.7593845129
-0.05119745433 4.512813568 0.8690069914
-0.05198599398 4.727591515 1.081561327
-0.05046277493 4.739530563 1.258430243
-0.03981494531 4.386666775 -1.00282836
-0.03860042244 4.336239815 -0.8346614242
-0.03773375973 4.411887169 -0.692117691
-0.0364151448 4.439138412 -0.5399377346
-0.03423342854 4.263898849 -0.3693406582
-0.03406591713 4.435896873 -0.2302793711
-0.03268842772 4.459213734 -0.07713783532
-0.03562576696 3.851261139 0.06652677804
-0.03962937742 4.451828957 0.231116727
-0.04200867936 4.813751698 0.4174506366
-0.04023316875 4.802391052 0.5845419765
-0.03900589794 4.858326912 0.7628260851
-0.03559962288 4.532597065 0.8728231788
-0.03559904173 4.74333334 1.085160494
-0.03405540064 4.758995533 1.263606668
-0.0245012138 4.386778831 -1.00282836
-0.0233989954 4.324568272 -0.8323716521
-0.02252196893 4.449523926 -0.6980621815
-0.02096715197 4.449164391 -0.5411564708
-0.01942266151 4.279930592 -0.3707351387
-0.02230964229 3.873358011 0.06691072881
-0.02407736331 4.449943066 0.2310120612
-0.02526890486 4.825823784 0.4184964895
-0.02352866717 4.814413071 0.5860043764
-0.02202106081 4.852507591 0.7618874311
-0.0198643133 4.552325726 0.8766393661
-0.01903467998 4.74148035 1.084710598
-0.01749857143 4.774540424 1.26774776
-0.009236153215 4.410223007 -1.008227229
-0.008296661079 4.320696831 -0.8316084146
-0.006988908164 4.449575424 -0.6980621815
-0.00542565668 4.441269398 -0.540181458
-0.004448276944 4.248094559 -0.3679461777
-0.001553687849 4.445334911 -0.07689350843
-0.008819690906 3.887410402 0.06715506315
-0.008809576742 4.587810516 0.2382344306
-0.008456968702 4.845806122 0.4202395976
-0.006740734912 4.826376438 0.587466836
-0.005087426864 4.858481407 0.7628260851
-0.003988280892 4.568074226 0.8796923161
-0.002487548161 4.751261234 1.086960077
-0.0008332128637 4.774572372 1.26774776
0.006165687926 4.416074276 -1.009576917
0.006774252281 4.312846661 -0.8300819397
0.008515569381 4.435745239 -0.695872128
0.01006735861 4.437291622 -0.5396940112
0.01040868089 4.260037899 -0.3689920008
0.01244836394 4.457980156 -0.2314307541
0.01395833958 4.443314075 -0.07685860246
0.00474913884 3.887417316 0.06715506315
0.007651617751 4.871423721 0.2530978322
0.008439698257 4.83584404 0.4193680286
0.01014936343 4.846221447 0.5899042487
0.01189497951 4.868346691 0.7643904686
0.01197907049 4.575912476 0.881218791
0.01414271817 4.766830921 1.090559363
0.01581934467 4.770682812 1.266712546
0.01989427954 4.384293079 -1.163184881
0.02143894695 4.386795044 -1.00282836
0.02183000371 4.312796593 -0.8300819397
0.02380795404 4.400132179 -0.6902404428
0.02552110143 4.431273937 -0.538962841
0.02523276769 4.252006531 -0.3682947755
0.02777018398 4.419961929 -0.2294419706
0.02938992344 4.431240559 -0.07664917409
0.01835560054 3.895375729 0.06729467958
0.02540540323 5.019162655 0.2608435452
0.02536060289 4.843755245 0.4200653136
0.02708923444 4.850126266 0.5903916955
0.02898368053 4.884078026 0.7668933868
0.02797711641 4.579769135 0.8819819689
0.03098459728 4.797931671 1.097757816
0.03254992515 4.782188892 1.269818425
0.03473407403 4.326243401 -1.147655725
0.03648738563 4.355515003 -0.9956300259
0.03691701591 4.316620827 -0.8308452368
0.03897071257 4.378293991 -0.6867989302
0.04001865163 4.409329891 -0.5362817049
0.04014910012 4.259861469 -0.3689920008
0.04296549782 4.395872593 -0.2281859368
0.04400593415 4.423120022 -0.07650955766
0.03203594312 3.905286074 0.06746920943
0.04194562882 5.00706768 0.2602155209
0.04251301289 4.871529579 0.4225056767
0.04405418038 4.853972435 0.5908791423
0.04510564357 4.87605381 0.7656419277
0.04411312938 4.595349312 0.8850349784
0.04689398408 4.797802925 1.097757816
0.04856582358 4.797508717 1.273959398
0.04886021093 4.306787491 -1.14247942
0.05081785843 4.345626831 -0.9933804274
0.05125367641 4.318437576 -0.8312268257
0.0533458516 4.366289139 -0.6849216819
0.05414745584 4.369473934 -0.531406939
0.05427423865 4.259705067 -0.3689920008
0.05749142542 4.391711712 -0.2279765755
0.05827243626 4.392956734 -0.07598597556
0.04521758854 3.925153971 0.06781825423
0.05878436565 5.026872635 0.261262238
0.05876467377 4.879330635 0.4232029021
0.06024770811 4.861739159 0.5918540955
0.06117703021 4.867976665 0.7643904686
0.05968030542 4.620697975 0.8899959922
0.06275411695 4.793723583 1.096858025
0.06465543061 4.810842991 1.277582884
0.06297302246 4.29501152 -1.139373541
0.06496409327 4.327897549 -0.989331305
0.06542599946 4.308428764 -0.8293187022
0.0677011013 4.358187675 -0.6836702228
0.06921144575 4.357349396 -0.5299444795
0.06907951832 4.255505562 -0.3686434031
0.07172600925 4.371526718 -0.2269298583
0.07293745875 4.352737904 -0.07528788596
0.05858882144 3.948976278 0.06823711842
0.07615043968 5.014654636 0.2606342137
0.07509681582 4.889069557 0.424074471
0.07677618414 4.88731575 0.595022738
0.07753138989 4.828230381 0.7581329942
0.07525896281 4.636178017 0.8930488825
0.0798067525 4.812959671 1.101356983
0.08158010989 4.818314552 1.27965343
0.07825344056 4.269641876 -1.132644176
0.07978363335 4.312057495 -0.9857321382
0.0809937641 4.296382904 -0.8270290494
0.08314647526 4.330260277 -0.6792900562
0.08426627517 4.349142551 -0.5289695263
0.08369895816 4.24328661 -0.3675975502
0.08742633462 4.355259418 -0.2260924727
0.08784869313 4.338462353 -0.07504355162
0.07229883969 3.94474864 0.06816729903
0.09320815653 4.990394592 0.2593781352
0.09309036285 4.892745495 0.4244230688
0.09425613284 4.908849716 0.5977038145
0.09361364692 4.788430691 0.751875639
0.09279671311 4.663351536 0.8983915448
0.09784463793 4.832118511 1.105855942
0.09847655892 4.821863174 1.280688763
0.09273649752 4.25002861 -1.127467871
0.0949819535 4.284460545 -0.9794335365
0.09590388089 4.29214859 -0.8262657523
0.09767582268 4.304270267 -0.6752227545
0.09988711029 4.3349123 -0.5272633433
0.0982299 4.23101759 -0.3665516675
0.102064997 4.330967426 -0.224836424
0.103748396 4.338111401 -0.07504355162
0.08693160117 3.95245409 0.06830692291
0.1137279272 5.089858055 0.264611721
0.1107979342 4.920277119 0.4268634319
0.1122008637 4.906486988 0.5974600911
0.1112541333 4.792005062 0.7525013685
0.1093969047 4.676738262 0.9010629654
0.1151704714 4.851229191 1.11035502
0.1165688708 4.838851929 1.285347462
0.1073748767 4.241954803 -1.125397325
0.1094381586 4.264622211 -0.9749345183
0.110681951 4.283936977 -0.824739337
0.112184003 4.284156322 -0.6720941067
0.1140694618 4.298818588 -0.5228760839
0.1133186296 4.24259901 -0.3675975502
0.1164250374 4.302633762 -0.2233710289
0.1185082272 4.323729992 -0.07479921728
0.1009835154 3.962121964 0.06848144531
0.1314930767 5.089429855 0.264611721
0.1281784326 4.927827358 0.4275607169
0.12948291 4.912018776 0.5981913209
0.1267161369 4.744195938 0.7449925542
0.1273052245 4.73520422 0.9125114679
0.1322641671 4.856642246 1.111704707
0.1342035979 4.865450859 1.292594433
0.1217355058 4.226105213 -1.121256113
0.1238685697 4.248630524 -0.9713352323
0.1249434277 4.25997591 -0.8201598525
0.126726687 4.269917011 -0.6699039936
0.128479749 4.278551579 -0.5204386711
0.1282467693 4.246160507 -0.3679461777
0.1307125241 4.278244495 -0.2221149504
0.1328559965 4.299304962 -0.07438036054
0.1151619032 3.973738194 0.06869087368
0.1492566317 5.088940144 0.264611721
0.1454977989 4.931332588 0.4279093146
0.1466864645 4.913520813 0.5984350443
0.1422012448 4.708183765 0.7393608689
0.1498509049 4.932928085 0.9510548115
0.1498136967 4.875628948 1.116203785
0.1514877081 4.874607086 1.295182586
0.1130381823 3.499657154 -0.9266242981
0.1380635202 4.228695393 -0.9668362141
0.1389122009 4.232042789 -0.8148172498
0.1414353698 4.263525486 -0.6689653993
0.1427479237 4.258237839 -0.518001318
0.1425321847 4.229756832 -0.3665516675
0.1452369392 4.265785694 -0.2214869112
0.1467638314 4.266838551 -0.07382187992
0.1297452599 3.995297194 0.06907482445
0.1671518385 5.092380047 0.2648210824
0.1637607962 4.962655544 0.4306982756
0.1642352492 4.924882889 0.5998975039
0.1589023769 4.715555668 0.7406123281
0.170194149 5.024595261 0.968990922
0.1688327044 4.933504581 1.12970078
0.1687683016 4.881771564 1.297253132
0.124712579 3.501193523 -0.9271418452
0.1272173673 3.53685832 -0.8071209788
0.128126651 3.544868469 -0.6812509298
0.1546355784 4.237370491 -0.6648980975
0.1562823951 4.241870403 -0.516051352
0.1567787081 4.215296745 -0.3653315008
0.1589336395 4.253305435 -0.2208588719
0.1604613513 4.254339218 -0.073612459
0.1434933692 4.008834362 0.06931915879
0.1862035543 5.151676655 0.2679612339
0.180071041 4.95810318 0.430349648
0.1815855801 4.952083588 0.6033098102
0.1746840477 4.718950748 0.7412381172
0.1863459945 5.010270119 0.9663196206
0.1873840988 4.991338253 1.143197894
0.1852475256 4.888906956 1.299323678
0.1374676526 3.498782635 -0.9266242981
0.1394849569 3.534445524 -0.806671083
0.1411956996 3.546336651 -0.6816325188
0.1426578164 3.551871777 -0.5563325882
0.1707694232 4.233365059 -0.5150763988
0.1710049659 4.202778816 -0.3642856181
0.1735400856 4.228747368 -0.2196028382
0.1743217856 4.229777336 -0.07319359481
0.157487005 4.008308887 0.06931915879
0.2035511732 5.135029793 0.267123878
0.1985619217 4.965373516 0.4310469329
0.1992677599 4.96133709 0.6045285463
0.1916362494 4.730154991 0.7431153059
0.205348447 5.025246143 0.9693725109
0.2076041996 5.03734827 1.153995633
0.2027924806 4.899811745 1.302429557
0.152607277 3.537804365 -0.8075708747
0.1541677862 3.559552193 -0.6843038797
0.1552268714 3.555299044 -0.5569583178
0.1838060021 4.193079472 -0.510201633
0.1858513951 4.20613718 -0.3646342456
0.1874106377 4.208163738 -0.218556121
0.189443782 4.237133503 -0.07333321124
0.1724337488 4.013698578 0.0694238767
0.2163950801 5.016559601 0.260948211
0.2171038538 4.992516994 0.4334872663
0.2178841978 4.970489502 0.6057472229
0.2079716921 4.72551012 0.7424895763
0.2234119624 5.036266804 0.9716622233
0.2277745456 5.114504814 1.171991587
0.2209355682 4.922232628 1.308641076
0.1688416898 3.661799192 -0.9706235528
0.1919232011 4.131003857 -0.944791019
0.1709086299 3.664921999 -0.704911232
0.1672949195 3.560684204 -0.5578969121
0.1697495133 3.599564075 -0.4373237491
0.198852092 4.185596466 -0.3628911376
0.2009836137 4.199538708 -0.2181374133
0.2019576579 4.204523563 -0.07277473807
0.1864834577 4.029085159 0.06970311701
0.2160683125 4.650709629 0.24179326
0.2347777635 5.015652657 0.4355790317
0.2349258065 4.981637001 0.6072096229
0.2240158021 4.732686996 0.7437410355
0.2415107787 5.064913273 0.9773864746
0.2439897507 5.098148823 1.16839242
0.2383700162 4.944628716 1.314852834
0.1809847504 3.66121912 -0.9706235528
0.1835284531 3.68658185 -0.8422133923
0.1845862418 3.681950331 -0.7083458304
0.1843630075 3.664672613 -0.5744789839
0.184724614 3.646530628 -0.4431734979
0.2125470042 4.166968822 -0.3613223135
0.2142084539 4.170886517 -0.2166720033
0.2147796601 4.16784668 -0.07214645296
0.2010314763 4.052411079 0.07012197375
0.2317020893 4.63795805 0.2411652356
0.2506098747 4.99892664 0.4341845214
0.2525465488 5.002638817 0.609890759
0.2405358404 4.731875896 0.7437410355
0.2599933445 5.079725266 0.9804394841
0.2607859671 5.077804089 1.163893342
0.2552308142 4.936049461 1.312782288
0.1937887967 3.648956299 -0.967517674
0.1977683455 3.699506044 -0.8453626633
0.1993450522 3.704773903 -0.7129251957
0.2005611658 3.715257168 -0.5826135874
0.1937799156 3.566542387 -0.4334239662
0.2272754014 4.156214714 -0.3604507446
0.229493171 4.170073509 -0.2166720033
0.228732422 4.143071651 -0.07172759622
0.2160948813 4.055641174 0.07019178569
0.2478449643 4.621122837 0.2403278649
0.2687149942 4.993995667 0.4338359237
0.2725993097 5.033394337 0.6137905717
0.2578763664 4.730962753 0.7437410355
0.2787161171 5.080698013 0.9808210731
0.2796083391 5.08070612 1.164793253
0.2732127309 4.933152199 1.312264681
0.2081464529 3.665580034 -0.972176373
0.2118813694 3.708484173 -0.8476122022
0.2359781712 4.117623329 -0.79344666
0.2372593582 4.114834309 -0.6461259723
0.2090946287 3.61538887 -0.4395174384
0.2406237274 4.135505199 -0.3587076366
0.2433488965 4.157283783 -0.216043964
0.2431921661 4.142247677 -0.07172759622
0.2315257639 4.064804077 0.07036630064
0.2655681968 4.648145676 0.24179326
0.2879354954 5.008889675 0.4352304041
0.291503191 5.040288925 0.6147655845
0.2753054202 4.745810509 0.7462440133
0.2951925397 5.058135509 0.9766232967
0.3005314767 5.134170532 1.177390456
0.2913407683 4.947596073 1.316405773
0.2238952816 3.724648952 -0.9882231951
0.2324024886 3.832668543 -0.7381119728
0.2503012419 4.104166031 -0.6445615888
0.2214470953 3.620619535 -0.4402486384
0.2543354034 4.13468504 -0.3587076366
0.2551596165 4.124558926 -0.2143692225
0.2564309239 4.133435249 -0.07158797234
0.2454863489 4.071998596 0.07050593197
0.2812206745 4.651226521 0.2420026213
1.884953976 30.9964447 2.713132858
0.3082171679 5.039294243 0.6147655845
0.2923686802 4.766559601 0.7496855259
0.3131744862 5.076723576 0.9804394841
0.3185169399 5.148705959 1.180989623
0.310146451 4.985165119 1.326758504
0.2375901192 3.745094061 -0.9939172268
0.2442881614 3.829518795 -0.8759559989
0.2440176159 3.804404736 -0.7327693701
0.2422302514 3.766220331 -0.5910609961
0.2335691601 3.611900568 -0.4392736852
0.2674750388 4.113890171 -0.3569645286
0.2683821023 4.105706692 -0.213427186
0.2695509791 4.112560749 -0.07123892754
0.2600030303 4.087127209 0.07078516483
0.2974559963 4.650216579 0.2420026213
1.979308128 30.85879517 2.701628208
0.325564146 5.048149586 0.615984261
0.3097735047 4.777337551 0.7515627742
0.3339554071 5.122618198 0.9895982742
0.3377573788 5.167008877 1.185488701
0.3277983963 4.98790741 1.327793837
0.2224631608 3.314362288 -0.8784838915
0.2734079957 4.052194595 -0.9276947975
0.2758970857 4.06791687 -0.7842878103
0.262196213 3.855965376 -0.6054529548
0.2464024276 3.605078697 -0.4385424554
0.2825505137 4.112882137 -0.3569645286
0.2834275961 4.10469532 -0.213427186
0.2868311107 4.143464088 -0.07179740816
0.2763270438 4.106098175 0.07113420963
0.3161144555 4.673007488 0.24325867
2.084601164 30.73604012 2.691518307
0.3462235332 5.07861042 0.6198840737
0.3283605278 4.791936398 0.754065752
0.3535416722 5.133111477 0.9918879867
0.3585713804 5.192953587 1.191787243
0.3474165797 5.005944729 1.332970262
0.23256208 3.284619331 -0.8707193136
0.2369453758 3.330006123 -0.7607811093
0.2445555776 3.428530216 -0.6598803401
0.2470927238 3.447121859 -0.5406891108
0.2606915534 3.627956867 -0.4414673448
0.2976239622 4.121807098 -0.3578360975
0.3003566563 4.139536858 -0.2153112739
0.2995531261 4.118504047 -0.07137854397
0.2934975922 4.134978294 0.07165779173
0.3346937001 4.703751087 0.2449334264
2.188707352 30.60895348 2.681059361
0.3661169708 5.095127106 0.6220777035
0.3455125093 4.796671391 0.7550042868
0.3731571734 5.155344009 0.9964674115
0.3775435388 5.203331947 1.194486737
0.3647468984 5.002774715 1.332452536
0.2424541116 3.270344257 -0.8670958877
0.2481308728 3.331145525 -0.7612309456
0.254024297 3.402248621 -0.6549192667
0.2580800653 3.440373659 -0.5397504568
0.2621525526 3.486527443 -0.4241618812
0.310541451 4.110863686 -0.3569645286
0.3124187887 4.116611481 -0.214159891
0.3127550483 4.111506462 -0.07127383351
0.3057253063 4.114040375 0.07130873948
0.3517727554 4.722532749 0.2459801435
2.280081034 30.46642303 2.669206381
0.38301 5.093884945 0.6220777035
0.3630490303 4.817167282 0.7584459186
0.3914355636 5.169739246 0.9995203614
0.3956800997 5.213710308 1.197186112
0.3829492033 5.022727013 1.338146567
0.2528492808 3.263743877 -0.8655429482
0.2561513186 3.291446924 -0.7522329092
0.261336714 3.350497246 -0.6449972391
0.2728795707 3.482824802 -0.5466336012
0.2775928378 3.527149439 -0.4292804003
0.3239462078 4.097837448 -0.3559186757
0.3248074055 4.099624157 -0.2133225054
0.3275799751 4.116369724 -0.07137854397
0.3182837665 4.099047661 0.07106439769
0.369654417 4.739196777 0.246922195
2.37147975 30.33554077 2.658398867
0.4008336961 5.104461193 0.623540163
0.3820354342 4.843440056 0.7628260851
0.4087330401 5.170369625 0.9999019504
0.4129528105 5.200641632 1.194486737
0.4064707458 5.096463203 1.358334541
0.2623102367 3.231986761 -0.857260704
0.2660601139 3.271109581 -0.747733891
0.2707372606 3.314295769 -0.6381281018
0.3437894285 4.190556049 -0.6592664123
0.286324054 3.482634068 -0.4239181578
0.3538223505 4.285316467 -0.3724782467
0.3792751729 4.574119091 -0.2383390963
0.3893048763 4.68514967 -0.0813613236
0.3335599005 4.109870434 0.07127383351
0.3865186274 4.741859913 0.2471315414
2.475489855 30.23927307 2.650729179
0.4192973077 5.110944748 0.6245151162
0.3991033733 4.844046116 0.7631388903
0.4281651676 5.174706459 1.001046896
0.4329784214 5.210745811 1.197186112
0.4300283194 5.164319992 1.376969457
0.2735912502 3.231051445 -0.857260704
0.2765609324 3.252636671 -0.7436847687
0.2794721425 3.280075788 -0.6316406131
0.3052040935 3.567383051 -0.5603998303
0.3072429895 3.576495886 -0.4356175959
0.3706575334 4.305891514 -0.3743956983
0.4012603462 4.642411709 -0.2420026213
0.4084165096 4.715638638 -0.08191979676
0.3504818976 4.130538464 0.07165779173
0.4047595263 4.760382175 0.2481782585
2.568834305 30.08751678 2.638178825
0.4397239387 5.129151344 0.6269524693
0.416687429 4.850495815 0.7643904686
0.4479142129 5.19274044 1.004863024
0.45116359 5.209202766 1.197186112
0.4500582218 5.185882568 1.383181095
0.2835096419 3.214681625 -0.8531196117
0.2873464227 3.251701593 -0.7436847687
0.2891843617 3.259524584 -0.6278244257
0.3128354251 3.519128799 -0.552891016
0.3205123842 3.591275215 -0.4375675023
0.3862202168 4.31052494 -0.3749186397
0.4277243912 4.764389515 -0.2484922856
0.4284659028 4.754015923 -0.08261789382
0.3645278811 4.133337498 0.07172759622
0.4245459437 4.79475069 0.2500623465
2.662546635 29.95135498 2.627022982
0.459194988 5.155346394 0.6303648353
0.435374707 4.86868763 0.7675191164
0.4661817551 5.202959061 1.007152796
0.4698335528 5.223204613 1.200785279
0.4705889225 5.211215973 1.390427947
0.2950481772 3.223342896 -0.8557078242
0.2979828417 3.242916584 -0.7418851852
0.3005310297 3.264412642 -0.6289692521
0.3225735426 3.490477085 -0.5485107899
0.3341457248 3.601994514 -0.4390299618
0.40237391 4.321053028 -0.3759644926
0.4450936913 4.770822048 -0.2489109784
0.4471101165 4.774392128 -0.08300184458
0.3787701726 4.130048275 0.07169269025
0.4460397065 4.844949722 0.2527838051
2.751600027 29.83125687 2.61726141
0.4764569998 5.145805836 0.6293898821
0.453830719 4.882872581 0.7700220346
0.484706074 5.205209732 1.007915974
0.489515394 5.237055302 1.204384565
0.4920237958 5.244163513 1.399745464
0.3075937629 3.229932547 -0.8577783704
0.3083732724 3.23215723 -0.7396356463
0.3130559623 3.269151926 -0.6301140785
0.3346078992 3.481406212 -0.5472593307
0.3463374376 3.596853733 -0.4385424554
0.4201369882 4.34738636 -0.3784048557
0.4635441899 4.779097557 -0.2494343072
0.4657061696 4.79270649 -0.08335090429
0.3945125937 4.142636299 0.07193702459
0.4633304179 4.84733963 0.2529931664
2.850637436 29.71387482 2.607848644
0.495554775 5.155967712 0.6308523417
0.4727656841 4.900921345 0.7731507421
0.5039688945 5.205352306 1.008297563
0.5090826154 5.239105225 1.205284357
0.5110764503 5.250104904 1.40181601
0.3384211063 3.426856756 -0.9110951424
0.3213731945 3.242640495 -0.7423350811
0.3240768909 3.264132023 -0.6293509007
0.3479342759 3.492010832 -0.549136579
0.3610974848 3.611362457 -0.4404923618
0.4357079268 4.349857807 -0.3787534535
0.4810193181 4.785399914 -0.2498530298
0.4840708673 4.7989254 -0.08349052072
0.4120550156 4.165041924 0.07235588133
0.4889856577 4.925108433 0.2571800351
2.942517519 29.58478546 2.597389936
0.516025126 5.169919014 0.6328021884
0.4917133152 4.908983231 0.7747151256
0.5250749588 5.232863426 1.014021873
0.5254163742 5.217906475 1.200785279
0.5318682194 5.263573647 1.405957222
0.3490059376 3.412201643 -0.9074716568
0.3470131755 3.381075144 -0.7747280002
0.3342650235 3.251263142 -0.6270611286
0.3674166799 3.561513424 -0.5603998303
0.3700231016 3.574537992 -0.4361050725
0.4502696991 4.342365742 -0.3782305717
0.4999954104 4.805543423 -0.2510043979
0.5012358427 4.801184177 -0.08356032521
0.428630501 4.18347168 0.07270493358
0.5131207108 4.990921974 0.2607388794
3.034347534 29.46334839 2.587628603
0.5365183949 5.191781044 0.6357271075
0.5090461969 4.909202099 0.7750279903
0.5455704331 5.2524786 1.018219709
0.5460476279 5.239300251 1.206184149
0.5534544587 5.292426109 1.414239287
0.3594926 3.39751482 -0.9038481712
0.3723921776 3.507741451 -0.8044216037
0.377332598 3.53663826 -0.5566453934
0.3846104145 3.592962742 -0.4385424554
0.463301599 4.320956707 -0.3764874041
0.5197565556 4.831570625 -0.2524697781
0.5203536749 4.821274757 -0.08394428343
0.4449161291 4.197857857 0.07298416644
0.5601082444 5.267148972 0.2753929496
3.128727913 29.37332916 2.580656052
0.5559048653 5.201719761 0.6371895075
0.5274443626 4.919180393 0.776905179
0.5657898784 5.268110275 1.021654248
0.5664219856 5.256737232 1.210683227
0.5731698275 5.301986217 1.417345166
0.3715576231 3.398159742 -0.9043658376
0.3846334815 3.506420374 -0.8044216037
0.4212775528 3.834303617 -0.7415465713
0.4178115129 3.790552616 -0.5973183513
0.3851510882 3.483079672 -0.4251368344
0.4391238093 3.964843035 -0.3452856541
0.4420024753 3.978142977 -0.2075655609
0.5409423709 4.853214741 -0.08453766257
0.4591324031 4.192304134 0.07291436195
0.5789231658 5.269132614 0.2756022811
0.5941461325 5.398982525 0.4714871645
0.5751444697 5.209613323 0.6384081841
0.5480927825 4.948722839 0.7819111347
0.5850377083 5.273908615 1.023180723
0.5877867937 5.281842709 1.216981769
0.5925324559 5.3076334 1.419415832
0.3881850243 3.439074516 -0.9157538414
0.3977487385 3.512801647 -0.8062211871
0.4202806056 3.706010818 -0.7167413831
0.4127310216 3.628128052 -0.5716631413
0.40315786 3.532993793 -0.4314740598
0.4466256201 3.907860041 -0.3404049575
0.4476977587 3.905142069 -0.2037973553
0.5597088337 4.867189884 -0.08481689543
0.4753350317 4.204584599 0.07315869629
0.6112673283 5.390120983 0.2820919454
0.6228808761 5.483980656 0.4791569114
0.5951250792 5.223352909 0.64035815
0.5689515471 4.978180885 0.7869169712
0.6025519371 5.264032364 1.021654248
0.6075529456 5.29137516 1.219681263
0.6123835444 5.317046642 1.422521472
0.3968358338 3.408915281 -0.9079892635
0.4002907872 3.428161383 -0.7868754268
0.3990087509 3.412026644 -0.6594986916
0.4021512568 3.428510904 -0.5400633812
0.4071370661 3.460591078 -0.4226994514
0.4635288715 3.933978796 -0.3428452909
0.4613238573 3.90355587 -0.2037973553
0.567984879 4.791732311 -0.08352541924
0.4923237264 4.222762585 0.07350774109
0.6226540208 5.324474812 0.2787424326
0.6420186162 5.4817729 0.4791569114
0.6156692505 5.240958691 0.6427955031
0.5872511268 4.984012127 0.7881684899
0.6259836555 5.304790497 1.030049801
0.626937151 5.296962738 1.221480846
0.6309386492 5.314877033 1.422521472
0.4047913551 3.384633303 -0.9017776251
0.4101296663 3.419147253 -0.7850757837
0.4101952612 3.414654255 -0.660261929
0.4162276089 3.454687119 -0.5444434881
0.4313435853 3.569657564 -0.4363488257
0.4754061103 3.928547621 -0.3424966633
0.4779174924 3.93777585 -0.2056814581
0.5757884383 4.730372906 -0.08247827739
0.508680284 4.247006416 0.0739615038
0.6527198553 5.433540821 0.2846040726
0.6659018993 5.535116673 0.4840376079
0.6349861622 5.262648106 0.6457203627
0.6033796072 4.986064434 0.7887941599
0.6405218244 5.285257339 1.026615262
0.6463955045 5.318181515 1.226879716
0.6495018005 5.328210354 1.426662683
0.411509186 3.327471972 -0.6434707642
0.4414142966 3.559072256 -0.5613384247
0.4374301732 3.516912222 -0.4300116003
0.4846847057 3.891275883 -0.3393590748
0.5908046961 4.716429234 -0.08226884902
0.5257036686 4.263066769 0.07427564263
0.6716812849 5.431229115 0.2846040726
0.6866871119 5.544621944 0.4850834906
0.6557979584 5.280098915 0.6481577158
0.6232234836 5.003530025 0.7919228673
0.6635827422 5.320003986 1.033865929
0.6664082408 5.327494621 1.229579091
0.6680981517 5.325910568 1.426662683
0.4179705381 3.299314022 -0.8795191646
0.4453352392 3.490887403 -0.5507009029
0.4597804248 3.594125509 -0.4397611618
0.4989428222 3.8894732 -0.3393590748
0.4949633181 3.85312295 -0.2013899088
0.603433609 4.684588432 -0.08174528182
0.5405804515 4.261205673 0.07427564263
0.6931576729 5.448664188 0.2856507897
0.7060361505 5.542191982 0.4850834906
0.6757356524 5.289592266 0.6496201754
0.642190218 5.01308012 0.7938001156
0.6824002862 5.319602966 1.034247637
0.688480258 5.352195263 1.235877752
0.6886610389 5.338873863 1.430803776
0.4200669229 3.221134663 -0.8588136435
0.4277429283 3.275537252 -0.7526828647
0.457354784 3.483355999 -0.5497623086
0.4492928386 3.417333126 -0.418068409
0.509911716 3.867955446 -0.3376159668
0.5098686218 3.857223272 -0.201703921
0.6205705404 4.688399792 -0.08184998482
0.5575214624 4.275156021 0.07455488294
0.7095820308 5.426407814 0.2846040726
0.7341193557 5.598830223 0.4903128147
0.6939361691 5.285233021 0.649376452
0.6638119221 5.042143822 0.7988060117
0.7034333944 5.328744411 1.036537409
0.709627986 5.361227036 1.238577127
0.7133836746 5.382400036 1.443227053
0.4466992319 3.334533453 -0.8898719549
0.442340523 3.29326129 -0.7571818829
0.4769747555 3.527793407 -0.4319615364
0.5234113336 3.86615181 -0.3376159668
0.524938941 3.867295027 -0.2023319602
0.6339740157 4.658354282 -0.0813613236
0.5753128529 4.288939476 0.07483412325
0.742246151 5.518783092 0.2896283269
0.7525908947 5.588336468 0.4896155894
0.715960443 5.302326202 0.6518138647
0.6844068766 5.055336952 0.8013089299
0.7222950459 5.328201771 1.036918998
0.7301738858 5.372234344 1.241726518
0.7331051826 5.379749298 1.443227053
0.4457026124 3.241089344 -0.8650252819
0.4607544839 3.341889381 -0.768879354
0.4811220467 3.476164341 -0.549136579
0.4898327291 3.530039549 -0.4324489832
0.5363562107 3.860354185 -0.3372673392
0.5301697254 3.80609417 -0.1991918087
0.6452515721 4.620464802 -0.08073303849
0.5938276649 4.312657833 0.07528788596
0.7653284073 5.543857098 0.2910937071
0.7780965567 5.629095078 0.493450433
0.738550961 5.329289436 0.6554698944
0.7036815882 5.064656734 0.8031861186
0.7408883572 5.325647831 1.036918998
0.7510769367 5.385092735 1.245325685
0.7481356263 5.350372314 1.435980082
0.4494581223 3.185952425 -0.8505314589
0.4680484235 3.309388399 -0.7616809011
0.5024132729 3.539004564 -0.559461236
0.5105438828 3.587266684 -0.4397611618
0.5464525819 3.834789276 -0.3351756036
0.5474075079 3.831900835 -0.2006572038
0.6642121077 4.637978554 -0.08108208328
0.6097182631 4.316499233 0.07539259642
0.794945538 5.606617451 0.491707325
0.7613409758 5.356158733 0.6591259837
0.7235822082 5.077815056 0.8056891561
0.7639121413 5.354125977 1.043024898
0.7720736265 5.397871971 1.248924851
0.7624215484 5.317130566 1.427697897
0.4644457698 3.21113205 -0.8577783704
0.4768020809 3.288448572 -0.7571818829
0.5107818842 3.509862185 -0.5550810695
0.5233485103 3.587427139 -0.4400048852
0.5540769696 3.793428659 -0.3316893876
0.5532560945 3.778585911 -0.1979357302
0.6827220321 4.651459694 -0.0813613236
0.6259273887 4.32226038 0.07553221285
0.8005673289 5.514661312 0.2898376882
0.819095552 5.635354996 0.4944962859
0.7817516327 5.365254879 0.6605884433
0.745300889 5.102622986 0.810069263
0.7848709822 5.366967678 1.046077847
0.7914776802 5.398999691 1.249824643
0.7865935564 5.352663994 1.438050628
0.4739534557 3.198025227 -0.8546725512
0.6858654022 4.616798401 -1.067614317
0.5279817581 3.541271925 -0.5603998303
0.5320543051 3.560055494 -0.4368363023
0.5714421272 3.819057941 -0.3341297209
0.5676285028 3.784532309 -0.198354423
0.6951726079 4.629395485 -0.08101227134
0.6442407966 4.341807842 0.07591617107
0.8247215152 5.551487446 0.2919311225
0.819981575 5.50633955 0.4833403528
0.8013506532 5.368383884 0.6613196731
0.7663068771 5.127474308 0.8144494295
0.7995246649 5.337013721 1.040735126
0.8062689304 5.369224072 1.243526101
0.8011788726 5.329011917 1.432356715
0.4868539274 3.207811117 -0.8577783704
0.4939037859 3.250447989 -0.7490836382
0.568605423 3.728923559 -0.5907481313
0.5735487342 3.752539635 -0.4609664083
0.5805466175 3.789468288 -0.3316893876
0.5783577561 3.77078414 -0.1977263838
0.7131502032 4.638799667 -0.08122170717
0.6616349816 4.359418869 0.07626522332
0.8230694532 5.410356998 0.2846040726
0.8292822838 5.438446522 0.4775880873
0.8206477761 5.375508308 0.6625383496
0.7853944898 5.13257885 0.8157008886
0.8190037012 5.345976353 1.043024898
0.8181529641 5.327998161 1.234528065
0.8191894293 5.322363853 1.431321383
0.4963047206 3.198542356 -0.8557078242
0.5076435804 3.264108896 -0.7526828647
0.5819239616 3.728868008 -0.5910609961
0.5848026872 3.738747835 -0.4595040083
0.5900265574 3.767838001 -0.3299462497
0.5896578431 3.756903648 -0.1970983595
0.7257344723 4.618630409 -0.08090756088
0.678689003 4.368938446 0.07647465169
0.8456091881 5.437201023 0.2861741483
0.8485412002 5.443540573 0.4782853127
0.8424725533 5.392223835 0.6649757028
0.8017989993 5.126043797 0.8150752187
0.8419181108 5.370238304 1.0483675
0.8409799337 5.352061272 1.240826607
0.8356351852 5.311984539 1.429250836
0.5062530637 3.189159393 -0.8536372781
0.5172424316 3.254708767 -0.7508832216
0.5911765695 3.707410336 -0.5879323483
0.5921861529 3.70542407 -0.4556041658
0.6038063765 3.769690275 -0.3302948773
0.600849092 3.747039318 -0.1966796666
0.7443917394 4.631863117 -0.0811868012
0.695053339 4.378513336 0.07668407261
0.8642709851 5.432243347 0.2860694826
0.8716176152 5.466123581 0.480551362
0.8603480458 5.389400482 0.6649757028
0.8259302974 5.16222477 0.8213325739
0.8414009809 5.253043175 1.025852084
0.8383387327 5.222251892 1.211133122
0.8333041072 5.179337502 1.394051552
0.5100244284 3.145509958 -0.8422492743
0.5173470378 3.183637381 -0.7346867323
0.6044759154 3.699416399 -0.455116719
0.608589232 3.716438293 -0.3257627785
0.6113393903 3.729151726 -0.1958422959
0.7615270615 4.635157108 -0.08129151911
0.7122565508 4.387903214 0.07689350843
0.8659088612 5.322741032 0.2804171741
0.8657184839 5.31571722 0.4674780071
0.8599678874 5.268814564 0.6503514051
0.8464971781 5.174905777 0.8238354921
0.8540205359 5.215200424 1.018983006
0.8546705246 5.207755566 1.208433628
0.8479284048 5.15542841 1.388357401
0.5310347676 3.200793743 -0.8577783704
0.5329276919 3.208725691 -0.7409853935
0.6144409776 3.683600426 -0.5848036408
0.6206543446 3.716863632 -0.4575541019
0.6195862293 3.70250082 -0.3247168958
0.619058311 3.69143033 -0.1939581931
0.7757168412 4.620637417 -0.08108208328
0.7308408618 4.405118465 0.07724255323
0.882904768 5.298750877 0.4662578404
0.873783052 5.238368034 0.6469390988
0.8710685968 5.210886002 0.8300928473
