# .PCD v0.7 - Point Cloud Data file format
VERSION 0.7
FIELDS x y z
SIZE 4 4 4
TYPE F F F
COUNT 1 1 1
WIDTH 1240
HEIGHT 1
VIEWPOINT 0 0 0 1 0 0 0
POINTS 1240
DATA ascii
4.648375988 -0.2395436466 0.4035057127
4.621655464 -0.2397842109 0.563092947
4.611201763 -0.2408558577 0.7246560454
4.593183517 -0.2407185733 0.8857981563
4.598711491 -0.24261792 1.05321753
4.55757761 -0.2420431823 1.211325169
2.801882982 -0.1522350013 -0.7402745485
3.160265923 -0.17281349 -0.7207397819
3.630071402 -0.1991394311 -0.6984237432
4.771379948 -0.265090853 -0.5816170573
4.784594059 -0.2666626573 -0.4155332148
4.758098125 -0.266852051 -0.2475502342
4.749730587 -0.2680459619 -0.08233866096
4.70031786 -0.256205678 0.08146603405
4.590902805 -0.2518489659 0.2387577742
4.69525671 -0.2583956122 0.407689184
4.654485226 -0.2577814758 0.5672364831
4.655696869 -0.259478718 0.7318520546
4.57663393 -0.2558735609 0.882745266
4.640640736 -0.2610770762 1.063115239
4.597208977 -0.2602435052 1.222195625
2.810977459 -0.1625721902 -0.742862761
3.147970676 -0.1831646413 -0.7180404067
3.635234118 -0.2121526748 -0.6995685697
4.250649929 -0.2495572716 -0.6677139401
4.810058594 -0.2840852141 -0.5864918232
4.821423054 -0.285600841 -0.4188450873
4.789037228 -0.2853600383 -0.2492249757
4.792680264 -0.2872560322 -0.0831065625
4.739322186 -0.2749274671 0.0821641311
4.621897697 -0.269734472 0.2404325306
4.728138924 -0.2767627835 0.4106524587
4.68130064 -0.2756607831 0.570648849
4.682369232 -0.2773638666 0.7362322211
4.579632759 -0.2720803022 0.8835085034
4.653317451 -0.2780880928 1.066264629
4.632911682 -0.2784915864 1.232030749
2.814249516 -0.1726198941 -0.7438979745
3.160927534 -0.1949919015 -0.7211896777
3.624673605 -0.2242346108 -0.6976605058
4.267497063 -0.2654972076 -0.6705297232
4.852624416 -0.3036006987 -0.5918540955
4.870109081 -0.3055479228 -0.4232029021
4.829871178 -0.3047160506 -0.2514230609
4.821583748 -0.3058829904 -0.08363013715
4.782244205 -0.294170171 0.0829320401
4.64684248 -0.2874694467 0.24179326
4.760950089 -0.2953626215 0.4136157632
4.721915245 -0.294595629 0.5757673383
4.718831062 -0.296056807 0.7421767116
4.613924026 -0.2902834415 0.8903775811
4.687325954 -0.296544224 1.074362874
4.672398567 -0.2972373962 1.242901206
2.813629866 -0.1824423969 -0.7438979745
3.183562994 -0.2075457126 -0.7265884876
3.63366437 -0.2375260293 -0.6995685697
4.268515587 -0.2805214822 -0.6708426476
4.903035164 -0.3239402473 -0.5981913209
4.898833275 -0.3245213628 -0.425817579
4.880591869 -0.3250241578 -0.2541445494
4.848419666 -0.3245816231 -0.08411879838
4.829079151 -0.3139753044 0.08376975358
4.685670853 -0.3062937856 0.2438867092
4.787723541 -0.3138040006 0.4160561562
4.760474682 -0.3136868775 0.5806421041
4.749305725 -0.3146159649 0.7471826077
4.710829258 -0.3128929734 0.9094584584
4.72320652 -0.3153710365 1.082911015
4.70795536 -0.3160034418 1.25273633
2.80526638 -0.1917357594 -0.7418274879
3.184763193 -0.2187907249 -0.7270384431
3.64260602 -0.2508829236 -0.7014766932
4.261598587 -0.2950103879 -0.6699039936
4.921678066 -0.3424308896 -0.6006287336
4.921521187 -0.3432831168 -0.4279093146
4.907320499 -0.3440139592 -0.2556099296
4.893136501 -0.3447360992 -0.08492161334
4.855883598 -0.3327438831 0.08425842226
4.720438957 -0.3251181841 0.245770812
4.830327034 -0.3335337639 0.41989097
4.808858871 -0.3337380588 0.5867356062
4.785620213 -0.3338038325 0.7531271577
4.766504288 -0.3333064318 0.9205254316
4.766787529 -0.3349983692 1.093258739
4.73187542 -0.3342047632 1.259465575
2.812287569 -0.2020806521 -0.7438979745
3.174261808 -0.2292045653 -0.7247889042
3.649540663 -0.2641634047 -0.7030031085
4.232959747 -0.3078781664 -0.6655237675
4.987766266 -0.364528209 -0.6089158058
4.964008808 -0.3636629581 -0.4317441583
4.949911594 -0.3643673658 -0.2579127252
4.933783054 -0.3649117351 -0.08565461636
4.886605263 -0.3519907892 0.08481689543
4.773060322 -0.3454867303 0.2485969514
4.868876934 -0.3532764316 0.4233771861
4.833402157 -0.3523985445 0.5899042487
4.833677769 -0.3541149199 0.7609488368
4.788807392 -0.35166803 0.9251048565
4.804458141 -0.3545035124 1.102256775
4.769211292 -0.3535766304 1.269818425
2.811565161 -0.2118961364 -0.7438979745
3.16372633 -0.2395477593 -0.7225394249
3.644680977 -0.2766039073 -0.7022399306
4.271253109 -0.3256556094 -0.6717812419
5.033966541 -0.3855750859 -0.6147655845
5.014358997 -0.3849535584 -0.436276257
4.986444473 -0.3845614791 -0.2599014938
4.980328083 -0.385838598 -0.08649232984
4.91725111 -0.3714561462 0.08537537605
4.803689957 -0.3645639718 0.250271678
4.905360699 -0.3731411099 0.4266891181
4.863811493 -0.3716882467 0.5938040018
4.871803761 -0.3740095496 0.767206192
4.83257246 -0.371846199 0.9338820577
4.83816433 -0.3739753366 1.11035502
4.80646944 -0.3732132316 1.280171156
2.822363377 -0.2226204723 -0.7470038533
3.168699026 -0.2510514855 -0.7238891125
3.639779091 -0.2890137434 -0.7014766932
4.277966976 -0.3411912918 -0.673032701
5.076121807 -0.4066317677 -0.6201277971
5.066606522 -0.4067594707 -0.4409826696
5.026878834 -0.4053361416 -0.2620995939
5.004862309 -0.4053192735 -0.08694609255
4.967754841 -0.3927156329 0.08628290147
4.832252502 -0.3837011456 0.2518417537
4.949708462 -0.3938969672 0.4306982756
4.902060986 -0.3918271959 0.5986788273
4.907880306 -0.3940165341 0.7731507421
4.878211498 -0.3924915791 0.9430409074
4.862081051 -0.3929019272 1.116203785
4.855200768 -0.3940518498 1.293629766
2.813867807 -0.2318364829 -0.7449332476
3.183340311 -0.2633963525 -0.7274883389
3.627008915 -0.3007437885 -0.6991869807
4.26100111 -0.3548106849 -0.6705297232
5.102366924 -0.4266641736 -0.623540163
5.098907948 -0.4272710681 -0.4439459443
5.077178955 -0.4272350371 -0.2648210824
5.045261383 -0.4263228774 -0.08767909557
5.01816988 -0.4143321812 0.08719042689
4.868702412 -0.4037023485 0.2538305223
4.982057571 -0.4139770567 0.4336615801
4.95605278 -0.4135582149 0.6055034995
4.943876266 -0.4142799675 0.7790952921
4.927677155 -0.4137885869 0.952962935
4.897574902 -0.4129824936 1.124751925
4.888444424 -0.413931191 1.302947164
2.809191942 -0.2413265854 -0.7438979745
3.164927483 -0.2729994059 -0.7234392166
3.637672901 -0.3144169748 -0.7014766932
4.259736061 -0.3696822226 -0.6705297232
5.120622158 -0.446195364 -0.6259775758
5.129143238 -0.4478397667 -0.446734935
5.125398159 -0.4493156075 -0.2674378753
5.09155035 -0.4481393695 -0.0885168165
5.048570156 -0.4345903993 0.08774890751
4.913030148 -0.4246506095 0.2562379837
5.016311646 -0.4344596863 0.4367991984
4.998086929 -0.4346390367 0.6108657718
4.985693932 -0.4353148341 0.7859784365
4.959451199 -0.4338957369 0.9594504237
4.960165501 -0.4357029498 1.139598727
4.921609402 -0.4340474606 1.312264681
2.804484129 -0.2507869005 -0.742862761
3.179482698 -0.2854394019 -0.7270384431
3.640463829 -0.3274646699 -0.7022399306
4.258419991 -0.3845492005 -0.6705297232
5.166481018 -0.4683682621 -0.6318272948
5.183106899 -0.4707875848 -0.4516156912
5.161588669 -0.4706497192 -0.2694266438
5.139739037 -0.4704664946 -0.0893894285
5.084865093 -0.4556012452 0.08841209859
4.955280781 -0.4457342029 0.2585407794
5.062388897 -0.4562595189 0.4409826696
5.024218082 -0.4545873106 0.6142780781
5.029391289 -0.4568254054 0.793174386
4.99114418 -0.4542296827 0.9659379125
4.991605282 -0.4560285211 1.147246957
4.962387085 -0.4551059008 1.323652625
2.811285734 -0.261289984 -0.7449332476
3.162944555 -0.2950879633 -0.7234392166
3.645162821 -0.3407183886 -0.703384757
4.27081871 -0.4007031322 -0.6727197766
5.164814949 -0.4863998294 -0.6318272948
5.22507 -0.4929944575 -0.455450505
5.193717003 -0.4918654263 -0.2712060809
5.197787285 -0.4940815866 -0.09043657035
5.129038811 -0.477612406 0.0892149061
4.993466377 -0.4667461812 0.2606342137
5.112342358 -0.4787577391 0.4455147684
5.06410408 -0.4760236144 0.6193965673
5.069065094 -0.4782751501 0.799744606
5.042301178 -0.4766377807 0.9762417078
5.021023273 -0.4763948321 1.15444541
5.005000591 -0.4766374826 1.335558295
2.818048477 -0.2718436122 -0.7470038533
3.171593666 -0.3070658445 -0.7256886959
3.647859335 -0.3538194001 -0.7041479945
4.289054871 -0.4175225794 -0.675848484
5.159133911 -0.5040393472 -0.6313397884
5.270907879 -0.5158882737 -0.459634006
5.241660595 -0.5148729682 -0.273822844
5.225882053 -0.5151649117 -0.090960145
5.173120022 -0.4999373853 0.09001772106
5.037528992 -0.4886086285 0.2630416453
5.146334171 -0.5000686646 0.4486523569
5.111804962 -0.4985147119 0.6254900694
5.098821163 -0.4990453124 0.8047505021
5.081638336 -0.4982589781 0.9842556119
5.067814827 -0.4986896515 1.165693045
5.055213928 -0.4992313981 1.349534512
2.80362606 -0.2803333104 -0.7433803678
3.182136297 -0.3193023205 -0.7283881307
3.632928371 -0.3651761115 -0.7014766932
4.279709339 -0.4316986203 -0.6745970249
5.153393269 -0.5216451883 -0.6308523417
5.31070137 -0.5385049582 -0.4632945359
5.293480396 -0.538625598 -0.2766489983
5.265828133 -0.5376690626 -0.09169314802
5.231035709 -0.5239709616 0.09106486291
5.073550701 -0.5099852085 0.2650304437
5.182222366 -0.5218223333 0.4519642889
5.165334225 -0.521943152 0.632314682
5.140284061 -0.521224618 0.8116335869
5.136510849 -0.5217477083 0.9953225255
5.118387699 -0.5217119455 1.177840352
5.084189415 -0.520019412 1.357816815
2.814160109 -0.2913115621 -0.746486187
3.171310902 -0.3294014037 -0.7261386514
3.639442205 -0.3786679208 -0.7030031085
4.274247646 -0.4462248087 -0.6739712954
5.171283722 -0.541698873 -0.6332896948
5.356345654 -0.5620294213 -0.4674780071
5.333280087 -0.5614914298 -0.2788471282
5.309658051 -0.5608784556 -0.09249595553
5.262988091 -0.5457336903 0.09165824205
5.119416237 -0.5326526761 0.267542541
5.216039658 -0.5436261296 0.4551019073
5.208890438 -0.5447190404 0.6379206777
5.18951273 -0.544524014 0.8197681904
5.167850971 -0.5431630015 1.001810074
5.163046837 -0.5444803238 1.188637972
5.126529217 -0.5424387455 1.369722486
2.797759056 -0.2994880676 -0.7423450947
3.164329052 -0.3398450613 -0.7247889042
3.653714418 -0.3930494785 -0.7060560584
4.264807701 -0.4602940679 -0.6727197766
5.18514967 -0.5614562631 -0.6352396011
5.405851364 -0.5863087773 -0.4720101058
5.382911682 -0.58572191 -0.2815685868
5.365315914 -0.5857024193 -0.09350819886
5.300817013 -0.5683653951 0.0923563391
5.171142578 -0.5562872887 0.2703686953
5.275518417 -0.5684470534 0.4605055451
5.242481709 -0.5667386055 0.6423079967
5.22489357 -0.5666824579 0.8257127404
5.210813999 -0.5660755038 1.010587335
5.205672264 -0.5673555732 1.198985696
5.180295944 -0.5664197206 1.384733915
2.813978195 -0.311163187 -0.7470038533
3.163123369 -0.3508885801 -0.7247889042
3.648417473 -0.4053673446 -0.7052928805
4.28280735 -0.4773664474 -0.675848484
5.167376041 -0.5777876973 -0.6332896948
5.447332382 -0.6100534797 -0.4758449793
5.428468704 -0.6098597646 -0.284080714
5.414904118 -0.610249877 -0.09441572428
5.350476742 -0.5925886035 0.09326386452
5.214824677 -0.5794072747 0.2727761269
5.330926895 -0.5932490826 0.4655605853
5.287819862 -0.5903206468 0.6481577158
5.289629459 -0.5923921466 0.8363503218
5.249777317 -0.5888568759 1.018601298
5.236580372 -0.5892276168 1.206634045
5.224359035 -0.5896992683 1.397157192
2.816713572 -0.3214219511 -0.7480391264
3.179304123 -0.3639223278 -0.7288380265
3.63527751 -0.4167585969 -0.7030031085
4.285040379 -0.4927647412 -0.6764742136
5.169271946 -0.5962766409 -0.6337771416
5.496629715 -0.6350095272 -0.4803770781
5.477890491 -0.6347823739 -0.2868021727
5.460412502 -0.6346887946 -0.09525343776
5.404005051 -0.6176195145 0.09424119443
5.246503353 -0.6014741659 0.2745555639
5.368411064 -0.6163992882 0.4690468311
5.340944767 -0.6151345372 0.6549824476
5.311077595 -0.6135732532 0.8401046991
5.310097694 -0.6143992543 1.030813098
5.292563915 -0.6142427921 1.220131159
5.275998592 -0.6141868234 1.411651134
2.802144289 -0.329672128 -0.7444156408
3.172208548 -0.374332875 -0.7274883389
3.637700081 -0.4299063981 -0.7037664056
4.269562244 -0.5060915947 -0.6742841601
5.14350462 -0.6115049124 -0.6308523417
5.541861057 -0.6598460078 -0.4845605493
5.515304565 -0.65863657 -0.288895607
5.491917133 -0.6577880979 -0.0958468169
5.449479103 -0.6420952082 0.09507891536
5.299908638 -0.6263476014 0.2774863839
5.437456131 -0.6435653567 0.4753220379
5.390017509 -0.6398584843 0.6613196731
5.359902859 -0.6381809711 0.8482393026
5.358606815 -0.6389751434 1.040735126
5.342631817 -0.638961792 1.232278585
5.314102173 -0.6374313235 1.422521472
2.802893877 -0.3396838009 -0.7449332476
3.182489634 -0.3868144155 -0.7301877141
3.632279158 -0.4421272576 -0.7030031085
4.252083302 -0.5190771222 -0.6717812419
5.178775787 -0.634038806 -0.6354833245
5.579075336 -0.6840358973 -0.4880467653
5.481254578 -0.6739845276 -0.2872208655
5.555081367 -0.6850308776 -0.09699867666
5.488892555 -0.6661731601 0.09581191838
5.351220608 -0.6513597369 0.2803125083
5.470775127 -0.6668810844 0.4784596264
5.470508575 -0.6687866449 0.6715566516
5.451756001 -0.6684256196 0.8632570505
5.434288025 -0.6672466993 1.055999875
5.415799618 -0.666895628 1.249824643
5.361694813 -0.6621332169 1.435980082
2.811276197 -0.350661248 -0.7475214601
3.184987068 -0.3984047174 -0.7310875058
3.64629817 -0.4567557573 -0.7060560584
4.262004852 -0.5353937745 -0.673658371
5.211982727 -0.6565781832 -0.6398706436
5.426422596 -0.6845545173 -0.4747990966
5.437257767 -0.6878495812 -0.2850227654
5.606219292 -0.7112126946 -0.0979411155
5.534156322 -0.6912774444 0.09664962441
5.410349369 -0.6777306199 0.2835573256
5.492137432 -0.6889495254 0.480551362
5.479958057 -0.6893648505 0.6730191112
5.468987942 -0.6899241805 0.8663856983
5.46114254 -0.6899026632 1.061724186
5.459837914 -0.6916742921 1.260622382
5.432176113 -0.6900966167 1.455650449
2.815783501 -0.3612096906 -0.7490743995
3.158450842 -0.4062879086 -0.7252388
3.656364679 -0.4709858298 -0.7083458304
4.246396542 -0.5484963059 -0.6714683175
5.24706316 -0.6796121001 -0.6445016861
5.424000263 -0.7034920454 -0.4747990966
5.411056995 -0.7037339211 -0.2837666869
5.67112112 -0.7395697832 -0.09912787378
5.593194962 -0.7184893489 0.09773167968
5.441626072 -0.7009500265 0.2853367925
5.4916749 -0.7083713412 0.4807256758
5.45980072 -0.7061975002 0.6708254814
5.468504906 -0.7092642784 0.8666985631
5.448966503 -0.7076972127 1.059816003
5.443863869 -0.7089668512 1.257473111
5.435480595 -0.7098047137 1.457203388
2.808759689 -0.3702789247 -0.7475214601
3.172468662 -0.4193534255 -0.7288380265
3.63912797 -0.4816851914 -0.7052928805
4.275787354 -0.567473948 -0.6764742136
5.224981785 -0.6953051686 -0.642064333
5.417435169 -0.7228401899 -0.474450469
5.404607773 -0.722088635 -0.2835573256
5.70616293 -0.7644058466 -0.09979106486
5.648145199 -0.7455982566 0.09874392301
5.484685898 -0.7259683609 0.2877442241
5.479293346 -0.7262276411 0.4798541367
5.463205338 -0.7260359526 0.6715566516
5.460121632 -0.727565825 0.8657599688
5.438679218 -0.7256747484 1.058289647
5.433629513 -0.7269314528 1.255673409
5.436798573 -0.7292873263 1.458238602
2.809298038 -0.380830586 -0.7480391264
3.157468319 -0.4285900593 -0.7256886959
3.641228676 -0.4955494404 -0.7060560584
4.289336681 -0.585278213 -0.6789772511
5.20482111 -0.7111209035 -0.6398706436
5.391192436 -0.7385014892 -0.4723587334
5.40192461 -0.741892755 -0.2835573256
5.796569347 -0.7971234918 -0.1014315933
5.708918571 -0.7739053369 0.09986086935
5.533574104 -0.7521026731 0.2904657125
5.529896736 -0.7535689473 0.4845605493
5.503908634 -0.7510060668 0.6769189239
5.471249104 -0.7484950423 0.8679500222
5.461268425 -0.7490717769 1.063250661
5.440581322 -0.7481693029 1.257922888
5.411254883 -0.7450986505 1.452026963
2.798384428 -0.389303565 -0.7454509139
3.17517662 -0.442851752 -0.7301877141
3.651143074 -0.5098859072 -0.7083458304
4.275529861 -0.598603785 -0.6771000028
5.247393608 -0.7365391254 -0.6454766393
5.378716469 -0.7559293509 -0.4714871645
5.391391277 -0.759629786 -0.2831386626
5.791771412 -0.8170731068 -0.1013966873
5.769421577 -0.8036527038 0.1009778306
5.73861599 -0.8003826141 0.3014562428
5.570642948 -0.7789372802 0.4883953929
5.56206131 -0.7797170281 0.6844748259
5.558588028 -0.7802191973 0.8823419809
5.520832062 -0.776884973 1.075462461
5.497755051 -0.7755947709 1.271869898
5.475570679 -0.7734398246 1.470144272
2.802746058 -0.3998880088 -0.7470038533
3.169832468 -0.4528274238 -0.7292879224
3.649341106 -0.5226277113 -0.7083458304
4.253967762 -0.6099748611 -0.6739712954
5.268501282 -0.7573254108 -0.6484014988
5.366185188 -0.7732790709 -0.4706156254
5.365121365 -0.774081707 -0.2818826139
5.780967712 -0.8361401558 -0.1012570709
5.784542561 -0.8253223896 0.1012919694
5.793124676 -0.8286103606 0.3044917285
5.569861889 -0.7986605167 0.4885697067
5.571234226 -0.7998496294 0.6859372258
5.739622116 -0.826069653 0.9117516875
5.730031967 -0.825710237 1.117058754
5.720812798 -0.8264202476 1.324508429
5.642997265 -0.8171900511 1.516214013
2.80905056 -0.4102968574 -0.7490743995
3.172088861 -0.4644540548 -0.7301877141
3.655357838 -0.5358654857 -0.7098722458
4.259629726 -0.6259690523 -0.6752227545
5.267789364 -0.7760006785 -0.6486452222
5.369366646 -0.792879045 -0.4711385667
5.328798294 -0.7878388166 -0.2801031768
5.778013706 -0.8563143611 -0.1012570709
5.77964735 -0.8452197909 0.1012570709
5.76845932 -0.8456404805 0.3033403456
5.598722935 -0.8217557073 0.4913586974
5.566445351 -0.8190031052 0.6856935024
5.775788307 -0.8518641591 0.9180091023
5.734883308 -0.8468539119 1.118585229
5.737170696 -0.8492381573 1.329007506
5.718459129 -0.8485082984 1.537437201
2.803706884 -0.4200173616 -0.7480391264
3.158885241 -0.4737896025 -0.7274883389
3.633954763 -0.5463406444 -0.7060560584
4.257307053 -0.6415771842 -0.6752227545
5.251308441 -0.7923107743 -0.6469390988
5.362625599 -0.8110209107 -0.4707899392
5.341672897 -0.809759438 -0.2809405625
5.75917244 -0.8740777373 -0.1009778306
5.766773224 -0.8639079928 0.101082541
5.749671936 -0.8633983135 0.3025029898
5.557662964 -0.837541163 0.6849622726
5.729809284 -0.8655292988 0.911125958
5.725917339 -0.8669858575 1.117440343
5.718606472 -0.8679209352 1.32540834
5.719281673 -0.8690445423 1.538472414
2.798404932 -0.4292158782 -0.7470038533
3.16675806 -0.4868448973 -0.7297378182
3.632025719 -0.5590222478 -0.7060560584
4.294086933 -0.6624576449 -0.6814801693
5.232675076 -0.8091257811 -0.6449891329
5.359762192 -0.8297350407 -0.4707899392
5.342760086 -0.8290128112 -0.281149894
5.748026848 -0.893951118 -0.1008382067
5.765544415 -0.8853420615 0.101117447
5.744494438 -0.8841623068 0.3023982942
5.586791992 -0.8608877659 0.4908357561
5.578098297 -0.8615415096 0.6878871918
5.710981369 -0.8841066957 0.9086230397
5.722856045 -0.8869677186 1.117440343
5.713616371 -0.8875781298 1.324958324
5.698878765 -0.8873260617 1.533813834
2.793072224 -0.4383823574 -0.7459685206
3.159264088 -0.496987462 -0.7283881307
3.641688347 -0.5735295415 -0.7083458304
4.28394413 -0.6762109399 -0.6802287102
5.218053818 -0.8255250454 -0.6435266733
5.364704609 -0.8496857882 -0.4714871645
5.345751762 -0.8485968709 -0.2814638913
5.748821259 -0.9146384001 -0.1009080261
5.740689278 -0.9020476937 0.1007334962
5.733481884 -0.9029660821 0.3019796014
5.713646412 -0.9008641839 0.5023403168
5.578978539 -0.8816271424 0.6883746386
5.707860947 -0.9040364027 0.9086230397
5.694517612 -0.9029419422 1.112479329
5.72203064 -0.9093521833 1.3276577
5.680484295 -0.9047825933 1.529672623
2.80678463 -0.4505789876 -0.7501096129
3.165205956 -0.5092505217 -0.7301877141
3.651293755 -0.588111043 -0.7106355429
4.269856453 -0.6892717481 -0.6783514619
5.22689867 -0.8456367254 -0.6449891329
5.359739304 -0.8680883646 -0.4713128805
5.356557846 -0.869492054 -0.282196641
5.74164629 -0.9340577722 -0.1008382067
5.727633476 -0.9204944968 0.1005589664
5.738182068 -0.9242444634 0.3023982942
5.726202488 -0.9233403802 0.503734827
5.569988251 -0.9001460075 0.6876434684
5.70661974 -0.9242707491 0.9089358449
5.681641579 -0.9212428331 1.110571265
5.701509953 -0.9265069366 1.323608637
5.681105137 -0.9252266884 1.530707955
2.803288221 -0.4600608647 -0.7495920658
3.153794527 -0.5187147856 -0.7279382348
3.641469955 -0.5995770097 -0.7091090083
4.279118538 -0.7061017156 -0.6802287102
5.216081142 -0.8625813127 -0.6440141797
5.419576645 -0.8972051144 -0.476890862
5.400777817 -0.8960299492 -0.2847087383
5.736378193 -0.9537661672 -0.1008033082
5.724385738 -0.9404820204 0.1005589664
5.715213299 -0.9410240054 0.301351577
5.711149693 -0.9413787127 0.5026890039
5.551143646 -0.9169952273 0.6856935024
5.711153984 -0.9454753995 0.910187304
5.674518108 -0.9404278398 1.109807968
5.680939674 -0.9435297847 1.319559574
5.675935268 -0.944734633 1.530190349
2.7978549 -0.4692043662 -0.7485567927
3.16926074 -0.5326271653 -0.7319873571
3.627738714 -0.610330224 -0.7068193555
4.2805233 -0.7216911912 -0.6808543801
5.216953278 -0.8814450502 -0.6445016861
5.475346565 -0.9260854125 -0.4821201861
5.421247005 -0.9188818336 -0.285964787
5.713468552 -0.9694382548 -0.1004542559
5.717123508 -0.9597959518 0.1004891619
5.696304321 -0.9573230743 0.3005142212
5.709793568 -0.9616394639 0.5028632879
5.543993473 -0.9357059002 0.685205996
5.678771019 -0.9594728351 0.9054943323
5.667328835 -0.9595743418 1.10904479
5.66800499 -0.9617241621 1.317309976
5.672770977 -0.9635514617 1.530190349
2.798104048 -0.4792939723 -0.7490743995
3.161715031 -0.5421458483 -0.73063761
3.637195349 -0.6249845028 -0.7091090083
4.254745483 -0.7318635583 -0.6771000028
5.229650974 -0.9014376998 -0.6464515924
5.51723671 -0.9529922605 -0.4861293435
5.439818859 -0.9405975938 -0.2871161997
5.71201992 -0.9897174835 -0.1004891619
5.713909626 -0.9787493348 0.1004891619
5.692928314 -0.9772010446 0.3005142212
5.692656994 -0.9792003632 0.5016431212
5.681714058 -0.9783390164 0.7027552128
5.673440456 -0.9789535999 0.9051814079
5.664115906 -0.9783626795 1.10904479
5.657104015 -0.979185164 1.315510392
5.646532059 -0.9793855548 1.523978591
2.792693138 -0.4879052937 -0.7480391264
3.16940093 -0.554859221 -0.7328871489
3.633169174 -0.6367035508 -0.7087274194
4.267729282 -0.7494441867 -0.679602921
5.707416058 -1.004317284 -0.7064113021
5.741659164 -1.011376143 -0.506349504
5.519110203 -0.9741613269 -0.2915124297
5.773689747 -1.020135403 -0.1016410217
5.69272995 -0.995588243 0.1001750156
5.689656258 -0.9960741401 0.3005142212
5.681528568 -0.9966953993 0.5009458661
5.686085701 -0.999540627 0.7037302256
5.668217182 -0.9974195957 0.9048685431
5.645198822 -0.995400846 1.10599184
5.663246632 -1.000621557 1.317759871
5.631838799 -0.9960858822 1.520872831
2.798580647 -0.4990071058 -0.7501096129
3.16754365 -0.5653663278 -0.7328871489
3.632856846 -0.6497273445 -0.7091090083
4.27299881 -0.7649847269 -0.6808543801
5.625898838 -1.009218097 -0.6966617703
5.808688641 -1.044101357 -0.5126247406
5.584648609 -1.004836798 -0.2951759398
5.803548813 -1.046314716 -0.1022344008
5.764205933 -1.027799487 0.1015014052
5.727433205 -1.023305535 0.3027123213
5.689782143 -1.01862812 0.5019916892
5.663199902 -1.014889359 0.7012928128
5.656924248 -1.01580286 0.903617084
5.641867161 -1.014115453 1.10599184
5.654143333 -1.01835978 1.316410184
5.632129669 -1.016424775 1.521908164
2.800623178 -0.5094644427 -0.7511449456
3.14627862 -0.5734776855 -0.7283881307
3.649880409 -0.6659283638 -0.7129251957
4.274052143 -0.7813513875 -0.6814801693
5.438616276 -0.9962105751 -0.6737502813
5.812661171 -1.066822886 -0.5133219361
5.795046329 -1.064635515 -0.3065851629
5.778042316 -1.063596725 -0.10185045
5.782041073 -1.052860022 0.101885356
5.77079916 -1.052894473 0.3052244186
5.770470619 -1.053874969 0.5094871521
5.735595703 -1.049574733 0.7107985616
5.738654613 -1.052204847 0.9173833132
5.665145874 -1.039748788 1.111334443
5.640790462 -1.037314296 1.314160705
5.639766216 -1.039161205 1.525013924
2.806334496 -0.5211365819 -0.7532154918
3.150005579 -0.5855250955 -0.7297378182
3.651275396 -0.6800201535 -0.7136884332
4.294462681 -0.8013596535 -0.6852346063
5.739515781 -1.072047591 -0.7117735744
5.844153404 -1.093703389 -0.5164595842
5.806809902 -1.088812947 -0.3074225485
5.791982651 -1.087079287 -0.1021645889
5.780296326 -1.07340157 0.1019202545
5.761198997 -1.071935892 0.3049104214
5.774403572 -1.076478243 0.5101843476
5.759217262 -1.074687243 0.7142109871
5.729121208 -1.071141005 0.9164447188
5.740414619 -1.075326324 1.126980901
5.711646557 -1.072001338 1.331706882
5.700657845 -1.070968866 1.542613626
2.793109417 -0.5287733078 -0.7501096129
3.16698432 -0.6006980538 -0.7342368364
3.618018866 -0.6869022846 -0.707582593
4.268351555 -0.8119155765 -0.6814801693
5.632198334 -1.073380589 -0.6988554597
5.848127842 -1.115590096 -0.5171568394
5.83436203 -1.115074873 -0.3090973198
5.813491344 -1.113189578 -0.1026183516
5.784183025 -1.096069574 0.1020598784
5.759193897 -1.093417048 0.3050150871
5.745165348 -1.091792583 0.5079182982
5.737689018 -1.092447162 0.7120172977
5.73679924 -1.094352961 0.9183219075
5.732769012 -1.094621181 1.126217604
5.713612556 -1.093030691 1.333056569
5.706180573 -1.093673825 1.545201778
2.78365922 -0.5370560288 -0.7480391264
3.161041498 -0.6110095382 -0.7333370447
3.634874105 -0.7032566071 -0.7113987803
4.277127743 -0.8290655017 -0.683357358
5.207500935 -1.011292458 -0.6462078691
5.87157917 -1.141319394 -0.5195971727
5.873562813 -1.143832803 -0.3114000857
5.854712009 -1.142283201 -0.1034211591
5.797991753 -1.119665861 0.1023740172
5.788676739 -1.119963169 0.3067945242
5.784352779 -1.12017405 0.5117532015
5.75722599 -1.117005825 0.7149421573
5.717432022 -1.111356139 0.9158189893
5.725058556 -1.113875747 1.125454307
5.713587761 -1.113713861 1.333956361
5.69474411 -1.112104416 1.543131232
2.791245461 -0.548632443 -0.7506272793
3.151241302 -0.6205338836 -0.7315374017
3.64010191 -0.717459023 -0.7129251957
4.270331383 -0.8432250619 -0.6827316284
5.799829483 -1.147345185 -0.7207918763
5.877332211 -1.163743138 -0.5204687715
5.861698151 -1.162773967 -0.3109813929
5.860496044 -1.164661765 -0.1035956889
5.831328392 -1.147232175 0.1030372083
5.823923111 -1.147887111 0.3088879585
5.809727669 -1.146142602 0.5143678188
5.784450054 -1.143253684 0.71884197
5.763899326 -1.141282797 0.9239535928
5.73846817 -1.137288094 1.128888845
5.744071007 -1.140482545 1.342054605
5.688932896 -1.131599188 1.542613626
2.789313316 -0.5583723783 -0.7506272793
3.139502525 -0.6296141744 -0.7292879224
3.651049614 -0.732865572 -0.7155965567
4.271235466 -0.858905077 -0.683357358
5.823032856 -1.173071742 -0.7242042422
5.865421772 -1.182676435 -0.5197715163
5.84977293 -1.181646228 -0.3105627
5.852474689 -1.184318423 -0.103525877
5.844934464 -1.171115994 0.1033513546
5.83163023 -1.17056787 0.3095159829
5.82913208 -1.171124697 0.5164595842
5.809615135 -1.169313669 0.7224980593
5.808290005 -1.171156645 0.9317752719
5.778725624 -1.166245103 1.137666106
5.764886379 -1.165546417 1.347903371
5.683054924 -1.15106678 1.542096019
2.798705101 -0.5704203844 -0.7537331581
3.148741722 -0.6429083347 -0.7319873571
3.629233837 -0.7416747808 -0.7117803693
4.275952339 -0.8753938675 -0.6846088171
5.811124325 -1.191795707 -0.7232292891
5.865160942 -1.203944564 -0.5201200843
5.837787151 -1.200449467 -0.310144037
5.832636833 -1.201512456 -0.1032466441
5.83297348 -1.189912677 0.1032117382
5.819681644 -1.189317465 0.3090973198
5.828912258 -1.192263603 0.5168081522
5.807442188 -1.189984322 0.7227417827
5.798361778 -1.190232754 0.9308366776
5.791927814 -1.189965487 1.141100645
5.770326138 -1.187626839 1.35015285
5.679002285 -1.170897245 1.542096019
2.789130211 -0.5786164999 -0.7516625524
3.146478415 -0.6538955569 -0.7319873571
3.628544807 -0.7547384501 -0.7121619582
4.280605316 -0.8919261694 -0.6858602762
5.783609867 -1.207205653 -0.7203043699
5.841419697 -1.22033608 -0.5183770061
5.831606388 -1.220410585 -0.3100393414
5.812749386 -1.218582511 -0.1029673964
5.822910309 -1.209046721 0.1031070277
5.803761959 -1.207184196 0.3084692657
5.816912651 -1.210978746 0.5161109567
5.803253174 -1.210248709 0.7227417827
5.790305138 -1.209657788 0.9302110076
5.785817146 -1.209774137 1.140719056
5.783311367 -1.211357355 1.354202032
5.655973911 -1.186746478 1.536919594
2.773862362 -0.5855557919 -0.7480391264
3.15370965 -0.6668906808 -0.7342368364
3.637412548 -0.7698388696 -0.7144517303
4.285195827 -0.9085016251 -0.6871117353
5.798778534 -1.231510639 -0.7227417827
5.82543087 -1.238233566 -0.5173311234
5.833171368 -1.242007017 -0.3103533685
5.816283703 -1.240533829 -0.1031070277
5.803002357 -1.226058006 0.1028277799
5.805374622 -1.228676438 0.3087832928
5.802905083 -1.229211926 0.5152394176
5.800935745 -1.230910659 0.7229855657
5.776385784 -1.227808714 0.9286466241
5.770037174 -1.227511764 1.138429403
5.779047489 -1.231537461 1.354202032
5.642350197 -1.204465866 1.534331441
2.783134222 -0.5976685286 -0.7511449456
3.141836643 -0.6758459806 -0.7319873571
3.630864382 -0.7817046642 -0.7136884332
4.270412922 -0.9209557176 -0.6852346063
5.798325539 -1.252583146 -0.7232292891
5.81328392 -1.256876469 -0.5166338682
5.817088604 -1.259824514 -0.3097253442
5.808009624 -1.259981036 -0.1030372083
5.79477787 -1.24546659 0.1027579755
5.793240547 -1.247252107 0.3083645999
5.79078722 -1.247781396 0.5145421028
5.781079769 -1.247801661 0.7210355997
5.775926113 -1.248799443 0.9292723536
5.750365734 -1.244323611 1.135376334
5.770904541 -1.250876904 1.353302121
5.63244772 -1.222924232 1.532778502
2.784805536 -0.608204186 -0.7521802187
3.12613225 -0.6838936806 -0.7288380265
3.635785103 -0.796053648 -0.7152149081
4.274889946 -0.937549293 -0.6864860654
5.762895584 -1.26600039 -0.7193294764
5.808861256 -1.277160883 -0.5166338682
5.797050953 -1.276685834 -0.3088879585
5.79185915 -1.277662396 -0.1028277799
5.788440704 -1.265259504 0.1027230695
5.781046867 -1.265757799 0.3079459071
5.786396503 -1.26798737 0.5145421028
5.76117754 -1.264569044 0.719085753
5.773461342 -1.269377708 0.9295852184
5.74982214 -1.265232444 1.136139631
5.755084991 -1.268496752 1.350602865
5.628144741 -1.242577672 1.532778502
2.786437511 -0.6187588573 -0.7532154918
3.148455381 -0.7003021836 -0.7346867323
3.636816978 -0.8095933199 -0.7159781456
4.275446892 -0.9533254504 -0.6871117353
5.772003174 -1.28913784 -0.7210355997
5.814089775 -1.299602866 -0.5175054669
5.790610313 -1.296477199 -0.3087832928
5.779559135 -1.296121597 -0.1026881635
5.780085087 -1.284589648 0.102653265
5.762946606 -1.28289187 0.3072131872
5.783879757 -1.288611293 0.5147164464
5.75285387 -1.283806801 0.7185982466
5.763211727 -1.2882303 0.9286466241
5.73962307 -1.284009576 1.134994745
5.73540926 -1.285169244 1.347003579
5.623773098 -1.262215972 1.532778502
2.78049159 -0.6276307702 -0.7521802187
3.159297228 -0.7142963409 -0.7378360629
3.639713287 -0.8235830665 -0.7171230316
4.279799461 -0.9699902534 -0.6883632541
5.759724617 -1.307520151 -0.7200606465
5.782317162 -1.313710213 -0.515065074
5.778259754 -1.314909697 -0.3083645999
5.767201424 -1.314510822 -0.1025485471
5.775566101 -1.304758072 0.102653265
5.754538059 -1.302119017 0.3070038855
5.763801098 -1.30527246 0.5133219361
5.748337269 -1.303880215 0.7185982466
5.747121811 -1.305714011 0.9267693758
5.737020016 -1.30447197 1.135376334
5.73088789 -1.305181742 1.347003579
5.606148243 -1.278831482 1.529155016
2.770752192 -0.6356049776 -0.7501096129
3.156784534 -0.7253199816 -0.7378360629
3.617682934 -0.8318832517 -0.7133068442
4.268687725 -0.9831501842 -0.6871117353
5.751256943 -1.326725006 -0.7195731997
5.781579494 -1.334782839 -0.5154137015
5.769742489 -1.334171534 -0.3081552684
5.758681297 -1.333731532 -0.1024787351
5.761231422 -1.322673321 0.1024787351
5.757743359 -1.323988438 0.3074225485
5.749501705 -1.32314992 0.512450397
5.747619629 -1.324829459 0.719085753
5.740604401 -1.325322986 0.926456511
5.720954895 -1.32183826 1.133086801
5.728195667 -1.325617671 1.347453356
5.597886086 -1.29752028 1.528119683
2.779805183 -0.6479039192 -0.7532154918
3.1428473 -0.7336767316 -0.7351366282
3.652992725 -0.8534391522 -0.720939219
4.257535934 -0.9962443709 -0.6858602762
5.736927032 -1.344527721 -0.7183545232
5.767185688 -1.35268116 -0.5145421028
5.763105869 -1.353846788 -0.3080506027
5.750097752 -1.352909088 -0.1024089307
5.742947102 -1.339595914 0.1022344008
5.747251987 -1.342715502 0.3071085513
5.742907524 -1.342757583 0.5122760534
5.731363297 -1.34216857 0.7176232934
5.722481251 -1.342195749 0.9242664576
5.699104309 -1.337762237 1.129652143
5.721636295 -1.345158815 1.347003579
5.582040787 -1.314396143 1.525013924
2.78128624 -0.6584933996 -0.7542507648
3.11751318 -0.7392473221 -0.7297378182
3.640440464 -0.8639187217 -0.7190310955
4.261720181 -1.012927055 -0.6871117353
5.712887764 -1.359948158 -0.7159171104
5.764367104 -1.373265862 -0.5147164464
5.744746208 -1.37071085 -0.3073178828
5.751174927 -1.37436676 -0.1025136411
5.736290455 -1.359173298 0.1021994948
5.734756947 -1.360924363 0.3066898584
5.73430872 -1.361875296 0.5119274855
5.715056419 -1.359410524 0.7161608338
5.725447178 -1.363993883 0.9255179167
5.698218822 -1.358558178 1.13041532
5.70932436 -1.363312364 1.345203996
5.596207619 -1.338366628 1.530190349
2.782727242 -0.669101119 -0.7552860379
3.141437769 -0.7565123439 -0.7360364199
3.629768133 -0.8747810721 -0.7175046802
4.2658391 -1.029651046 -0.6883632541
5.708106041 -1.37988174 -0.7159171104
5.761231899 -1.394853115 -0.51489079
5.741868019 -1.391225815 -0.3074225485
5.728852749 -1.390189528 -0.1021994948
5.731511116 -1.379188418 0.1021994948
5.722204208 -1.379062176 0.3062711358
5.731457233 -1.382350445 0.5121017694
5.708346844 -1.378885269 0.7159171104
5.712971687 -1.382113218 0.9242664576
5.695350647 -1.378902555 1.130797029
5.685592175 -1.378641129 1.340704918
5.583992004 -1.356068969 1.528119683
2.772749901 -0.677461803 -0.7532154918
3.140670776 -0.7679362893 -0.7364863753
3.620816946 -0.8866779804 -0.7163597941
4.269711018 -1.047161341 -0.6896147728
5.691687107 -1.396959186 -0.7144547105
5.744718552 -1.412101388 -0.5138449073
5.730911732 -1.410829067 -0.3071085513
5.725906372 -1.41065681 -0.1022344008
5.726662159 -1.399186611 0.1021994948
5.717355728 -1.399028063 0.3062711358
5.703130245 -1.397657156 0.510010004
5.699642658 -1.39785707 0.7154296041
5.69084692 -1.397805929 0.9214506149
5.690258503 -1.399767756 1.130797029
5.678609371 -1.399004579 1.340255022
5.556716442 -1.370003223 1.521908164
2.768492937 -0.686671257 -0.7526978254
3.130270004 -0.7775630951 -0.7346867323
3.623415709 -0.9007325172 -0.7175046802
4.250694275 -1.058241248 -0.6871117353
5.69038105 -1.418771386 -0.7149421573
5.730089188 -1.429733992 -0.5129733682
5.729827881 -1.431793571 -0.3073178828
5.705427647 -1.426754475 -0.1019551679
5.713732243 -1.418239713 0.1020598784
5.708560944 -1.418013811 0.3060618043
5.69628334 -1.417075276 0.5098357201
5.696407318 -1.419217825 0.7156733871
5.695516586 -1.420051813 0.9230149984
5.673909187 -1.416768312 1.128507257
5.677472115 -1.419763565 1.341154814
5.544404507 -1.387515545 1.519837618
2.769826174 -0.6972742677 -0.7537331581
3.139012575 -0.790795505 -0.737386167
3.612634897 -0.9114540815 -0.7159781456
4.254823208 -1.074265599 -0.6883632541
5.670248508 -1.433740497 -0.7129922509
5.723131657 -1.449237943 -0.5127990246
5.705687046 -1.445880175 -0.3062711358
5.70041275 -1.446661472 -0.1019551679
5.70124054 -1.43522656 0.1019202545
5.701639652 -1.437443614 0.3059571683
5.683575153 -1.434999585 0.5091384649
5.680122375 -1.435182333 0.7142109871
5.6886096 -1.439439535 0.9227020741
5.652050495 -1.431238413 1.125072718
5.670843601 -1.438103795 1.340704918
5.533909798 -1.405434132 1.518284678
2.776857853 -0.7088444829 -0.7563213706
3.124904633 -0.7988520265 -0.7346867323
3.640024662 -0.9312142134 -0.7220840454
4.243392467 -1.087149978 -0.6871117353
5.665209293 -1.45352459 -0.7129922509
5.718294621 -1.468208432 -0.5127990246
5.690934181 -1.463301182 -0.305747807
5.691455364 -1.465553522 -0.101885356
5.692320824 -1.454128981 0.10185045
5.686912537 -1.454862118 0.30543378
5.684575558 -1.45532155 0.5096614361
5.655848503 -1.450070977 0.7117735744
5.681637287 -1.458796501 0.9223892093
5.650823116 -1.451936245 1.125836015
5.654465675 -1.454976201 1.338005543
5.534582615 -1.426188707 1.519837618
2.783717394 -0.7209550142 -0.7589095235
3.116438389 -0.8082873225 -0.7333370447
3.621549368 -0.9399688244 -0.7190310955
4.247219563 -1.103943467 -0.6883632541
5.637048721 -1.46729064 -0.7100673914
5.715063095 -1.488662362 -0.5129733682
5.689656734 -1.484165549 -0.3059571683
5.674696445 -1.48237896 -0.1016759202
5.687210083 -1.473989964 0.10185045
5.674066544 -1.472697258 0.3050150871
5.683317184 -1.476157188 0.510010004
5.664200306 -1.473302603 0.7134797573
5.659306049 -1.474138737 0.9195733666
5.645720959 -1.471652389 1.125836015
5.64180994 -1.472736478 1.336205959
5.52957058 -1.445499301 1.519837618
2.76436758 -0.7262496948 -0.7542507648
3.14563632 -0.8275898099 -0.7409853935
3.614449263 -0.9516050816 -0.718267858
4.266261578 -1.124805331 -0.692117691
5.651085854 -1.492026091 -0.7125048041
5.69634819 -1.50504005 -0.5117532015
5.68444109 -1.504017115 -0.3059571683
5.661755085 -1.50012958 -0.1015363038
5.680096626 -1.493324518 0.1018155366
5.665028572 -1.491477489 0.3048057556
5.664643764 -1.492433548 0.5087898374
5.662861824 -1.494078279 0.7139672041
5.650306702 -1.492875338 0.9189476967
5.63485527 -1.489845157 1.124691129
5.629099846 -1.490426064 1.334406376
5.511419296 -1.461326241 1.516214013
2.761815786 -0.7358947396 -0.7542507648
3.12578249 -0.8340434432 -0.7369362116
3.622485876 -0.9672548771 -0.7205575705
4.258492947 -1.138670087 -0.6914919615
5.636255264 -1.509175658 -0.711286068
5.68721056 -1.523883462 -0.5114045143
5.67915678 -1.523850322 -0.3059571683
5.660346985 -1.520921588 -0.1016061157
5.667120457 -1.511082053 0.1016759202
5.650139332 -1.508666992 0.304282397
5.653625011 -1.510654569 0.5082669258
5.64610672 -1.510757685 0.7125048041
5.643152714 -1.512078285 0.9186348319
5.623931408 -1.507979989 1.123546243
5.623862743 -1.510066032 1.334406376
5.496957302 -1.478047729 1.51362586
2.766690016 -0.747546494 -0.7563213706
3.139781952 -0.8495301604 -0.7409853935
3.609612703 -0.9773283005 -0.718649447
4.254491806 -1.153528214 -0.6914919615
5.625205517 -1.527280211 -0.7105548382
5.681856632 -1.543726206 -0.5114045143
5.660311699 -1.539994478 -0.3052244186
5.651144505 -1.539619327 -0.1015363038
5.652159691 -1.528245091 0.1015014052
5.656406403 -1.53151226 0.3049104214
5.64639473 -1.529859424 0.5080926418
5.633135319 -1.528377652 0.7115297914
5.637840271 -1.531767368 0.9186348319
5.607266426 -1.524511576 1.12125659
5.629838943 -1.53275919 1.337105632
5.504811287 -1.500783801 1.517249346
2.764063835 -0.7571994066 -0.7563213706
3.123642445 -0.8568761945 -0.7378360629
3.619431973 -0.9935602546 -0.7213208079
4.258058071 -1.170466304 -0.6927434206
5.616012096 -1.5458529 -0.7100673914
5.668750286 -1.561433911 -0.5107073188
5.647200584 -1.557619333 -0.3048057556
5.645735741 -1.559336066 -0.1015363038
5.650647163 -1.549022675 0.1015712097
5.635617733 -1.547017813 0.3040730357
5.637177944 -1.548504233 0.5077440143
5.620110035 -1.545925736 0.7105548382
5.628650188 -1.550388575 0.9180091023
5.596232891 -1.542510152 1.120111704
5.613183975 -1.549290895 1.334406376
5.493952751 -1.518446088 1.515696406
2.772572279 -0.7699447274 -0.7594271302
3.124387026 -0.8688186407 -0.7387358546
3.615941763 -1.006188273 -0.7213208079
4.257752419 -1.186383009 -0.6933691502
5.606758118 -1.564380169 -0.709579885
5.669022083 -1.582819462 -0.5112302303
5.635958672 -1.575708866 -0.3044917285
5.636406898 -1.577955484 -0.1014664918
5.631719589 -1.564989805 0.1013268754
5.618638039 -1.563467741 0.3034450114
5.637495995 -1.569775462 0.5082669258
5.614679337 -1.565534234 0.7105548382
5.617496014 -1.568433046 0.9170704484
5.596487045 -1.56362021 1.12125659
5.594604969 -1.565199852 1.331256986
5.486758709 -1.537093043 1.5151788
2.766148567 -0.7785711884 -0.7583918571
3.134464979 -0.8834200501 -0.7418851852
3.612407207 -1.018804193 -0.7213208079
4.257387161 -1.202311993 -0.6939948797
5.585981369 -1.579620481 -0.7076299787
5.651959419 -1.5993433 -0.5101843476
5.63426733 -1.596461415 -0.3047010899
5.611626625 -1.59216249 -0.101117447
5.639695644 -1.588433504 0.1015712097
5.60737896 -1.581444502 0.3031309843
5.618559837 -1.585656285 0.5070467591
5.605360031 -1.58404386 0.7100673914
5.606284618 -1.586418629 0.9161318541
5.592884064 -1.583680987 1.121638179
5.587232113 -1.584187508 1.33080709
5.472067833 -1.553597808 1.512590528
2.755982876 -0.7861025929 -0.7563213706
3.135109663 -0.8954262733 -0.742784977
3.595615149 -1.027631164 -0.718649447
4.253164291 -1.217165589 -0.6939948797
5.593791962 -1.602937579 -0.7093361616
5.631020546 -1.614669085 -0.5087898374
5.626740932 -1.615567923 -0.3045964241
5.610159874 -1.611866713 -0.101187259
5.618733883 -1.603719473 0.1012919694
5.602104187 -1.600030541 0.3031309843
5.599581242 -1.601424336 0.5058265924
5.607429981 -1.605786562 0.7110423446
5.585801601 -1.600647926 0.9136289358
5.574111938 -1.599403858 1.118966818
5.58541441 -1.604757071 1.331706882
5.45388937 -1.567998886 1.508967161
2.760645628 -0.7978634238 -0.7583918571
3.12463522 -0.9036521912 -0.7409853935
3.61652112 -1.047274947 -0.7236105204
4.233926296 -1.226864696 -0.6914919615
5.582726002 -1.619818926 -0.7086049914
5.636829853 -1.637650132 -0.5098357201
5.611763 -1.631429911 -0.3040730357
5.60449934 -1.631440163 -0.101187259
5.599936962 -1.618456483 0.1010476425
5.604159355 -1.621796727 0.3035497069
5.590129852 -1.619851828 0.5054779649
5.583008766 -1.61884439 0.7086049914
5.591562271 -1.623440862 0.9155060649
5.561236382 -1.615688205 1.117440343
5.580061913 -1.623270035 1.331706882
5.452092171 -1.588107586 1.510002494
2.767255306 -0.8097264171 -0.7609800696
3.121461868 -0.9145537615 -0.7409853935
3.616796494 -1.06036675 -0.7243737578
4.237199306 -1.243861794 -0.6927434206
5.538947105 -1.628100038 -0.7037302256
5.62343359 -1.65506649 -0.5091384649
5.600286484 -1.649316072 -0.3037590384
5.602606773 -1.652124882 -0.1012570709
5.59233427 -1.637432098 0.1010127291
5.585047722 -1.637415528 0.302816987
5.592375278 -1.640624046 0.50617522
5.573514462 -1.637203932 0.708117485
5.583966255 -1.642391562 0.9151932597
5.551795483 -1.633982182 1.116677046
5.561276913 -1.638882518 1.328557611
5.442809582 -1.606035948 1.508967161
2.767972946 -0.820962131 -0.7620153427
3.12945962 -0.9287706614 -0.7436847687
3.603476286 -1.070819616 -0.7224656343
4.259118557 -1.267270565 -0.6971235871
5.554158211 -1.653655767 -0.7064113021
5.623350143 -1.676393509 -0.5096614361
5.586548328 -1.667545915 -0.3033403456
5.585309505 -1.668237805 -0.1010476425
5.590418339 -1.658080459 0.101082541
5.569725037 -1.654058218 0.3022936285
5.584414005 -1.660541892 0.5060008764
5.571570873 -1.657781482 0.7086049914
5.563054085 -1.657361388 0.9126903415
5.542006969 -1.653197169 1.115913868
5.547763824 -1.657023549 1.326757908
5.435319424 -1.624471664 1.508449554
2.755839825 -0.827840209 -0.7594271302
3.1279006 -0.9407958388 -0.7441346645
3.603476048 -1.08452332 -0.7232289314
4.258451939 -1.283270001 -0.6977493167
5.530955791 -1.668840528 -0.7042176127
5.606019974 -1.692557096 -0.5086155534
5.590252399 -1.689926147 -0.3038637042
5.571796417 -1.685408115 -0.1009080261
5.586218834 -1.679134846 0.101117447
5.562005043 -1.672914863 0.3021889627
5.567137241 -1.676577926 0.5049550533
5.557855129 -1.675898552 0.7076299787
5.54777956 -1.673916698 0.911125958
5.539960861 -1.673667669 1.116677046
5.541945934 -1.676378727 1.326757908
5.425918102 -1.642315388 1.507414222
2.74554038 -0.8352059722 -0.7573565841
3.143406391 -0.9568380117 -0.7486336827
3.594034672 -1.095378041 -0.7220840454
4.261731148 -1.299689174 -0.6990007758
5.536782742 -1.690651059 -0.7056800723
5.586740971 -1.708037972 -0.5073953867
5.578888416 -1.706702113 -0.3035497069
5.571614742 -1.706603885 -0.1010127291
5.567228317 -1.693576336 0.1008731127
5.563773632 -1.694647551 0.3026076555
5.551722527 -1.693094492 0.5040834546
5.559862137 -1.696637511 0.7086049914
5.547569752 -1.695003748 0.9120645523
5.52499342 -1.68915987 1.114769101
5.534492493 -1.694177032 1.326308012
5.412764072 -1.658980846 1.505343676
2.748294592 -0.8460108638 -0.7589095235
3.136322737 -0.9666566253 -0.747733891
3.601639032 -1.110761762 -0.7243737578
4.234518528 -1.307563663 -0.6952463388
5.530847549 -1.709967971 -0.7056800723
5.582647324 -1.728117943 -0.5075696707
5.561450005 -1.722619891 -0.3029216528
5.561803818 -1.72485745 -0.1009429246
5.553638458 -1.710644484 0.1007334962
5.550190449 -1.711703777 0.3021889627
5.542270184 -1.710320473 0.503734827
5.533042431 -1.709588647 0.7059237957
5.515199661 -1.706184745 0.9076843858
5.515312195 -1.707274199 1.114005804
5.532268524 -1.714639544 1.327207923
5.408785343 -1.678437471 1.505861282
2.754396677 -0.8589539528 -0.761497736
3.116186857 -0.97237432 -0.7436847687
3.601291418 -1.125126004 -0.7251369953
4.25232172 -1.330152035 -0.6990007758
5.507794857 -1.723926902 -0.7034864426
5.568976402 -1.745211244 -0.5068724155
5.551287174 -1.741796255 -0.3027123213
5.55574894 -1.744261503 -0.1009429246
5.547633648 -1.730020046 0.1007334962
5.532742977 -1.72749567 0.3015609384
5.545472145 -1.733594656 0.5046063662
5.511885166 -1.724151015 0.703973949
5.524290562 -1.730148911 0.910187304
5.494031429 -1.722778082 1.110952854
5.503635406 -1.727900028 1.321809053
5.402893543 -1.697307467 1.505861282
2.760592699 -0.8714711666 -0.7640858889
3.123750687 -0.9873129725 -0.7463842034
3.582367182 -1.132953882 -0.7220840454
4.247653008 -1.344987273 -0.6990007758
5.480624199 -1.737503529 -0.7008053064
5.56664896 -1.76584518 -0.5072211027
5.537559032 -1.758744955 -0.3022936285
5.542003632 -1.761221409 -0.1008033082
5.543161869 -1.750943542 0.1007683948
5.522869587 -1.745594025 0.301351577
5.539386749 -1.752941489 0.5046063662
8.171894073 -2.589138269 1.047401786
8.154439926 -2.585174084 1.348204017
8.169488907 -2.593083858 1.657811522
5.499427319 -1.747690916 1.322258949
5.396935463 -1.716156602 1.505861282
2.753853798 -0.8799260855 -0.7630506158
3.114890814 -0.9958859086 -0.7450344563
3.59334898 -1.150240183 -0.7251369953
4.265744209 -1.366296291 -0.7027552724
5.474832535 -1.755668402 -0.7008053064
5.550966263 -1.782220125 -0.506349504
5.543106079 -1.780763865 -0.3029216528
5.524399757 -1.776882052 -0.1005938798
5.539230347 -1.769924641 0.1008033082
5.51484108 -1.764253259 0.3012469113
5.512362957 -1.765581965 0.5026890039
8.1821661 -2.622281075 1.049839139
8.147246361 -2.614226341 1.348516822
8.17206192 -2.623761892 1.660101175
5.493601799 -1.765918016 1.322258949
5.379878044 -1.731433868 1.502755404
2.734376431 -0.8837065101 -0.7583918571
3.116958141 -1.00855267 -0.7463842034
3.589514732 -1.162149787 -0.7251369953
4.230882645 -1.371432304 -0.6977493167
5.468670368 -1.774768591 -0.7008053064
5.54123497 -1.799387217 -0.5060008764
5.536856651 -1.800101995 -0.3029216528
5.516262054 -1.795535922 -0.1005589664
5.517796516 -1.78432703 0.1005240604
5.514349461 -1.785338759 0.3015609384
5.502686977 -1.782623649 0.5023403168
8.157856941 -2.645926714 1.047889233
8.123042107 -2.637768984 1.346013904
8.127376556 -2.640744925 1.652850509
5.492963314 -1.786892176 1.323608637
5.359107018 -1.74541676 1.498614311
2.738619804 -0.895647943 -0.7604624629
3.111566544 -1.018820286 -0.7459343076
3.596630096 -1.178339601 -0.7274267077
4.256101608 -1.396043181 -0.7027552724
5.477530003 -1.798801661 -0.7027552128
5.540599346 -1.820584893 -0.506523788
5.517258644 -1.815049291 -0.3021889627
5.519457817 -1.817908406 -0.1007334962
5.507733345 -1.802332997 0.1004542559
5.509981632 -1.805198073 0.3016656041
5.500217438 -1.80306232 0.5026890039
8.133482933 -2.669435024 1.045939326
8.111907959 -2.665490866 1.34570086
8.110648155 -2.666645288 1.651323915
5.486692429 -1.806055069 1.323608637
5.360320568 -1.766531467 1.500684857
2.742812634 -0.9076296091 -0.7625330091
3.107991457 -1.029675484 -0.7459343076
3.603676319 -1.194593668 -0.7297164202
4.217455387 -1.399691224 -0.6971235871
5.437308788 -1.80664432 -0.6983679533
5.526326656 -1.838364124 -0.5058265924
5.501413822 -1.83114326 -0.3016656041
5.518769741 -1.839060426 -0.1008382067
5.501408577 -1.821547627 0.1004542559
5.494168282 -1.821278572 0.3011422455
5.493889809 -1.822250605 0.5026890039
5.463999271 -1.814453483 0.7017802596
5.457639217 -1.814457059 0.9042428732
5.471110821 -1.822117805 1.321359158
5.350456715 -1.784009814 1.499649644
2.735804081 -0.9164491892 -0.761497736
3.109921217 -1.042376041 -0.7472839952
3.580661058 -1.20154798 -0.7259002328
4.242257595 -1.425205112 -0.7021294832
5.408389568 -1.818022847 -0.6954430342
