# .PCD v0.7 - Point Cloud Data file format
VERSION 0.7
FIELDS x y z
SIZE 4 4 4
TYPE F F F
COUNT 1 1 1
WIDTH 1221
HEIGHT 1
VIEWPOINT 0 0 0 1 0 0 0
POINTS 1221
DATA ascii
-1.807970881 -3.682391882 1.087609768
-1.746276617 -3.542657614 -1.046716213
-1.488278747 -3.016603947 -0.7666297555
-1.763762712 -3.573412418 -0.7663516998
-1.77480185 -3.59261775 -0.6279795766
-1.776939988 -3.595365763 -0.4872901738
-1.783714652 -3.605904102 -0.3482489586
-1.318683267 -2.663470745 -0.1535548419
-1.474262118 -2.976399899 -0.05727700517
-1.496482134 -3.034566164 0.05835904926
-1.542952061 -3.127421618 0.1805601865
-1.800604343 -3.64645052 0.352083832
-1.802446723 -3.646974802 0.4943585992
-1.805824041 -3.652203321 0.6386170983
-1.799722314 -3.636667252 0.7804715633
-1.81240952 -3.660696983 0.9330935478
-1.81630969 -3.665354252 1.084503889
-1.759734869 -3.540307283 -1.047751546
-1.503482223 -3.022120476 -0.7693291903
-1.775602937 -3.567543983 -0.7663516998
-1.781420946 -3.576103687 -0.6261023283
-1.792394996 -3.596560478 -0.4882651865
-1.791216135 -3.591054916 -0.3473774195
-1.330184817 -2.66444397 -0.153868854
-1.484124064 -2.971494675 -0.05727700517
-1.511879444 -3.040330172 0.05856848136
-1.554204345 -3.124076128 0.1806648672
-1.809134245 -3.6333251 0.3513865769
-1.818072677 -3.648084641 0.495333612
-1.808229923 -3.6267488 0.6351755261
-1.788103819 -3.583249331 0.7701678872
-1.827150345 -3.659897566 0.934443295
-1.824999452 -3.652398586 1.082433224
-1.773195863 -3.537906885 -1.048786879
-1.515243292 -3.020601988 -0.770228982
-1.790946126 -3.568654776 -0.7678781748
-1.793270111 -3.570176363 -0.6261023283
-1.804938555 -3.590281725 -0.4882651865
-1.804905057 -3.588654757 -0.3477260172
-1.329134822 -2.640394449 -0.1527174562
-1.503484368 -2.984154701 -0.05762604997
-1.556013465 -3.103227377 0.05989486352
-1.564204097 -3.116846561 0.1805601865
-1.821172833 -3.627305746 0.3513865769
-1.821246743 -3.62429738 0.4928961694
-1.831529498 -3.641591549 0.6389299631
-1.795564651 -3.568531513 0.7682598829
-1.839914799 -3.653497219 0.934443295
-1.839476824 -3.649456024 1.083468556
-1.783792138 -3.52824688 -1.047751546
-1.513460159 -2.990951061 -0.7639303803
-1.803392291 -3.562381506 -0.7678781748
-1.811971068 -3.576229572 -0.6282923818
-1.814766645 -3.57864809 -0.4875339568
-1.821928144 -3.591216803 -0.3485975862
-1.340152025 -2.639300585 -0.1529268175
-1.512079954 -2.975322962 -0.05755623803
-1.532538652 -3.029969215 0.05856848136
-1.575074434 -3.111367464 0.1805601865
-1.833823562 -3.62092638 0.3513865769
-1.832092166 -3.61437726 0.4924087226
-1.847805023 -3.642222881 0.6401814222
-1.808898687 -3.563992739 0.7686414719
-1.84471333 -3.631415367 0.9303941131
-1.844324946 -3.627514601 1.078809857
-1.800484776 -3.530604362 -1.050339818
-1.525663137 -2.989121199 -0.7648301721
-1.814650774 -3.552251101 -0.7671149969
-1.821746707 -3.564605951 -0.6273537874
-1.82001555 -3.558153152 -0.4855840206
-1.836894155 -3.588061571 -0.3489461839
-1.353459716 -2.641480923 -0.1533454955
-1.524281144 -2.973585606 -0.05762604997
-1.539471626 -3.017475605 0.0584288612
-1.583200097 -3.10051465 0.1802461743
-1.853703022 -3.628697634 0.3527810574
-1.848311543 -3.615030289 0.4933836758
-1.853308439 -3.621682167 0.6376784444
-1.822844267 -3.559086084 0.7690230608
-1.859155536 -3.628422737 0.9312939644
-1.870199442 -3.64683938 1.086574435
-1.827556133 -3.551465511 -1.058621883
-1.545531392 -3.000833988 -0.7693291903
-1.825858355 -3.542086601 -0.7663516998
-1.836610317 -3.561416388 -0.6279795766
-1.840328217 -3.565570593 -0.4875339568
-1.842717528 -3.567143917 -0.3475517035
-1.366801381 -2.643599272 -0.1537641883
-1.503933549 -2.907589436 -0.05643928796
-1.548689485 -3.008257151 0.05835904926
-1.595468283 -3.096466303 0.180350855
-1.841429114 -3.572293282 0.3479003608
-1.864280105 -3.613523483 0.4941148758
-1.860226035 -3.60257864 0.6354883909
-1.841284871 -3.562845469 0.7713127732
-1.876021981 -3.628508329 0.9330935478
-1.880889654 -3.634812832 1.085021496
-1.827207208 -3.519025803 -1.050857425
-1.544836879 -2.972670078 -0.7634804845
-1.840022802 -3.53917551 -0.7671149969
-1.847827554 -3.551156044 -0.6273537874
-1.849096894 -3.552081585 -0.4865590036
-1.852396011 -3.555388689 -0.3470287919
-1.378791332 -2.644124746 -0.1540782005
-1.536271572 -2.944872618 -0.05727700517
-1.600264549 -3.08064127 0.05989486352
-1.608109236 -3.094422579 0.1805601865
-1.84899354 -3.554913998 0.3468544781
-1.855513096 -3.56440711 0.4882651865
-1.860927701 -3.573287487 0.6314210892
-1.868229389 -3.584251881 0.777418673
-1.87425983 -3.594290733 0.9258950949
-1.881946564 -3.605961084 1.078292251
-1.827219844 -3.490697145 -1.04412806
-1.563729644 -2.984792709 -0.7679795027
-1.853571773 -3.536531687 -0.7678781748
-1.853170156 -3.53276372 -0.625163734
-1.867322206 -3.558234692 -0.4882651865
-1.866955638 -3.554518461 -0.3475517035
-1.38011682 -2.625395298 -0.1532408148
-1.580785751 -3.018630028 0.05877790973
-1.619288921 -3.090842247 0.1806648672
-1.862622499 -3.55229187 0.3472030759
-1.862709761 -3.549445629 0.4870464504
-1.876439929 -3.574092627 0.6326725483
-1.869145751 -3.557181835 0.7728391886
-1.886168003 -3.588056087 0.9258950949
-1.87770319 -3.568926334 1.068974853
-1.850506186 -3.506829739 -1.050857425
-1.57452929 -2.981313944 -0.7684293985
-1.872626543 -3.544252396 -0.7709311843
-1.870415092 -3.53707695 -0.6270409226
-1.874160171 -3.541167974 -0.486802727
-1.883393288 -3.557111979 -0.3484232426
-1.386945009 -2.617274761 -0.1530314833
-1.62066102 -3.069960117 0.05989486352
-1.629135132 -3.083405018 0.1805601865
-1.874392271 -3.546095848 0.3472030759
-1.874470115 -3.54324913 0.4870464504
-1.885207295 -3.560538054 0.6314210892
-1.884607553 -3.557903528 0.7743657827
-1.893205643 -3.571119785 0.9231957793
-1.898297906 -3.577709198 1.073633432
-1.864551306 -3.503760099 -1.051892757
-1.574849486 -2.956879616 -0.7634804845
-1.87852478 -3.525565863 -0.7682598829
-1.886468291 -3.537498236 -0.6282923818
-1.885575175 -3.532853127 -0.4865590036
-1.897675395 -3.554031134 -0.3487718999
-1.397014022 -2.614178896 -0.153136149
-1.587262273 -2.967690706 -0.05804490671
-1.612573028 -3.028981686 0.05919676647
-1.634253263 -3.067123652 0.1799321622
-1.891445279 -3.548322439 0.3480746448
-1.890564561 -3.543689966 0.4880214036
-1.898554921 -3.555678368 0.6317340136
-1.90071559 -3.558229923 0.7758921981
-1.898308516 -3.550740957 0.9195964932
-1.910774946 -3.571060658 1.073633432
-1.875856042 -3.495528221 -1.051375031
-1.59069407 -2.961665154 -0.7661799192
-1.884315133 -3.506881237 -0.765588522
-1.90254724 -3.537850618 -0.6295438409
-1.898836374 -3.527997494 -0.486802727
-1.908799171 -3.543543577 -0.3484232426
-1.403288364 -2.604011774 -0.1528221369
-1.599510193 -2.965651751 -0.05811471865
-1.598543406 -2.977526188 0.05828924105
-1.645894885 -3.063159466 0.1800368279
-1.901933074 -3.538188219 0.3477260172
-1.906685233 -3.544062138 0.4889963865
-1.901590109 -3.531636477 0.6286053061
-1.91498673 -3.555030346 0.776655376
-1.909766793 -3.542378187 0.919146657
-1.918641925 -3.555868387 1.07104528
-1.88681674 -3.485231161 -1.050339818
-1.596381545 -2.947526932 -0.7639303803
-1.897156 -3.499951363 -0.765588522
-1.911733747 -3.523908377 -0.6282923818
-1.912086725 -3.523092031 -0.4870464504
-1.913548827 -3.522852421 -0.3470287919
-1.420454502 -2.612888575 -0.1536595076
-1.644247055 -3.023291588 -0.05937128887
-1.627967715 -3.007098675 0.0589873381
-1.661334753 -3.066175699 0.1805601865
-1.909189582 -3.520684481 0.3466801345
-1.92472434 -3.547853947 0.4904587865
-1.924274445 -3.544073105 0.6320468783
-1.928003669 -3.5479877 0.776655376
-1.9357723 -3.559321642 0.9254452586
-1.930119276 -3.547452211 1.070527554
-1.898971081 -3.478623629 -1.050339818
-1.610911369 -2.94849658 -0.7657299638
-1.915010929 -3.503643513 -0.7678781748
-1.921178818 -3.512014627 -0.6273537874
-1.933566451 -3.531731367 -0.4892401099
-1.929662943 -3.523141623 -0.3477260172
-1.42380631 -2.59740591 -0.1530314833
-1.65718925 -3.034457207 0.05965052918
-1.673519731 -3.0618186 0.1806648672
-1.924335361 -3.519243479 0.3472030759
-1.931997061 -3.530327559 0.4889963865
-1.931557775 -3.526601076 0.6301696301
-1.934716582 -3.530905724 0.7743657827
-1.941625595 -3.540581942 0.922295928
-1.944967389 -3.543741226 1.071562886
-1.898059368 -3.448280334 -1.043092847
-1.615552783 -2.932614088 -0.7630305886
-1.929124832 -3.500376463 -0.7686414719
-1.92770195 -3.494908571 -0.6254765391
-1.935329199 -3.505844355 -0.4865590036
-1.947728395 -3.526848793 -0.3487718999
-1.430932045 -2.58892417 -0.1528221369
-1.672614694 -3.023696661 -0.05961562321
-1.671629071 -3.035660982 0.05979014561
-1.677449226 -3.043714046 0.1799321622
-1.939493179 -3.517739534 0.3477260172
-1.938554287 -3.513133764 0.4875339568
-1.950541019 -3.531941652 0.6323596835
-1.950827599 -3.531004429 0.7758921981
-1.950200915 -3.526961088 0.9204963446
-1.959196806 -3.540311575 1.072598219
-1.904460073 -3.431499243 -1.039987087
-1.631456494 -2.937178612 -0.7657299638
-1.937516451 -3.486757278 -0.7671149969
-1.945649624 -3.498517275 -0.6273537874
-1.946590304 -3.497332096 -0.4863152206
-1.960027575 -3.520028591 -0.3487718999
-1.43996048 -2.583913565 -0.1528221369
-1.686081529 -3.023079157 -0.05972033739
-1.68415761 -3.033303976 0.05985996127
-1.687092781 -3.036094427 0.1798274964
-1.976931095 -3.556224108 0.352258116
-1.968176723 -3.53757 0.4919212162
-1.973429084 -3.54409647 0.6358013153
-1.968873978 -3.534464121 0.7781819105
-1.962500572 -3.520132065 0.9204963446
-1.975307941 -3.540198803 1.074668765
-1.924916625 -3.44000268 -1.044645667
-1.639794946 -2.9280653 -0.7648301721
-1.947756529 -3.476547003 -0.7663516998
-1.962680817 -3.500319719 -0.6289181709
-1.962671518 -3.497440815 -0.4872901738
-1.965475678 -3.501004219 -0.3475517035
-1.449949026 -2.580612898 -0.1529268175
-1.69074285 -3.006716967 -0.05951090902
-1.697665215 -3.032641411 0.05996467173
-1.697680593 -3.030186892 0.1798274964
-1.990305901 -3.551039934 0.3524324298
-1.994110703 -3.55491662 0.495333612
-1.987722158 -3.540630579 0.6364269853
-1.994658828 -3.551534176 0.7835245728
-2.001512289 -3.560825586 0.9330935478
-2.002808332 -3.560221434 1.08295095
-1.937862396 -3.434945583 -1.045163393
-1.65671277 -2.934201956 -0.7679795027
-1.961811423 -3.473145723 -0.7671149969
-1.970026493 -3.484848738 -0.6273537874
-1.978779078 -3.4974792 -0.4882651865
-1.976702571 -3.492388725 -0.3473774195
-1.465839744 -2.587700129 -0.1536595076
-1.700704336 -3.001093864 -0.05951090902
-1.706275105 -3.023213863 0.05989486352
-1.710665703 -3.029757977 0.1801415086
-1.996808171 -3.533663034 0.3513865769
-2.00650692 -3.547934532 0.495333612
-2.007234335 -3.547774076 0.6389299631
-2.010912418 -3.551383972 0.7850509882
-2.013929844 -3.553817272 0.9330935478
-2.01269722 -3.550199509 1.081915617
-1.957481503 -3.441593647 -1.049304485
-1.664506435 -2.925304651 -0.767079711
-1.977809191 -3.473100901 -0.7686414719
-1.977660775 -3.471431255 -0.6261023283
-1.990365505 -3.490898609 -0.4882651865
-1.992830992 -3.492388964 -0.3480746448
-1.467481136 -2.570683479 -0.1529268175
-1.715137124 -3.002084494 -0.05965052918
-1.709370732 -3.005371571 0.05965052918
-1.721231222 -3.023768187 0.1801415086
-2.007158279 -3.523209095 0.3510379493
-2.014329433 -3.534362316 0.4943585992
-2.015690565 -3.53388238 0.6376784444
-2.014894247 -3.531054497 0.7819980979
-2.029568672 -3.553888798 0.9348932505
-2.02795434 -3.548183203 1.083468556
-1.97560823 -3.446815968 -1.052927971
-1.665980697 -2.90426302 -0.7630305886
-1.993224144 -3.473333836 -0.7701678872
-1.989766359 -3.464506626 -0.6261023283
-2.002538919 -3.483929396 -0.4882651865
-2.008373976 -3.492670059 -0.3487718999
-1.476445675 -2.565545559 -0.1529268175
-1.725605965 -2.996079445 -0.05965052918
-1.721840501 -3.002856016 0.05972033739
-1.729787588 -3.014276981 0.1799321622
-2.022798777 -3.523445129 0.3517351747
-2.013798237 -3.504933357 0.4911900163
-2.028013945 -3.526824951 0.6376784444
-2.029165506 -3.527403116 0.7827612758
-2.040989637 -3.545093775 0.934443295
-2.047077894 -3.552800417 1.087092042
-1.989561081 -3.443244219 -1.053963304
-1.684888482 -2.913612604 -0.767079711
-1.99943769 -3.456158876 -0.7678781748
-2.007786512 -3.467797279 -0.6279795766
-2.001749992 -3.454589844 -0.4850965738
-2.02055335 -3.485638142 -0.3487718999
-1.484389901 -2.558648348 -0.1528221369
-1.728021145 -2.976202726 -0.05937128887
-1.734313488 -3.000289917 0.05979014561
-1.736298203 -3.001305103 0.1795134693
-2.037081957 -3.519811869 0.352083832
-2.034975052 -3.513342619 0.4933836758
-2.043284655 -3.524851322 0.6386170983
-2.045405865 -3.527092218 0.7842878103
-2.051395655 -3.534577131 0.9335435629
-2.059467316 -3.545633316 1.087092042
-1.992816329 -3.421255112 -1.049304485
-1.69210434 -2.902662754 -0.7657299638
-2.009511948 -3.445766926 -0.7671149969
-2.021870613 -3.464179754 -0.6286053061
-2.02280736 -3.46300745 -0.4872901738
-2.028687716 -3.471683025 -0.3480746448
-1.495328784 -2.556899309 -0.1530314833
-1.732339025 -2.959797621 -0.0591618605
-1.746788979 -2.99767375 0.05985996127
-1.746764183 -2.995226145 0.1795134693
-2.046343565 -3.507516384 0.3515608907
-2.053232193 -3.516503096 0.4948461056
-2.0446136 -3.498936653 0.6351755261
-2.063650131 -3.530099392 0.7865774632
-2.061753035 -3.524030685 0.9326437116
-2.064998388 -3.526752949 1.083468556
-2.0067029 -3.417609692 -1.050339818
-1.709136844 -2.908499956 -0.768879354
-2.021527529 -3.438731194 -0.7671149969
-2.029943228 -3.450290918 -0.6273537874
-2.040926933 -3.466189146 -0.4887526333
-2.041805029 -3.466296911 -0.3482489586
-1.510330796 -2.5619874 -0.1536595076
-1.746724606 -2.960622072 -0.05930148065
-1.75319171 -2.984660625 0.05972033739
-1.759233236 -2.992553711 0.1797228158
-2.060595036 -3.503787279 0.3519095182
-2.063481092 -3.50589323 0.4943585992
-2.06583786 -3.507096529 0.6379913688
-2.067986488 -3.509343386 0.7835245728
-2.078001261 -3.52352643 0.934443295
-2.081224442 -3.526178122 1.085539103
-2.020588398 -3.413908958 -1.051375031
-1.719279647 -2.902515888 -0.768879354
-2.037521362 -3.438410282 -0.7686414719
-2.037944794 -3.4363873 -0.6261023283
-2.055039167 -3.462458611 -0.4892401099
-2.057960987 -3.466001034 -0.3489461839
-1.511101723 -2.542963982 -0.1528221369
-1.764203548 -2.966537714 -0.05954581499
-1.757485628 -2.968198538 0.05951090902
-1.765595198 -2.979522228 0.1793041378
-2.071796179 -3.494859457 0.3517351747
-2.073680401 -3.495254278 0.4938711822
-2.081092834 -3.504959583 0.6389299631
-2.07821846 -3.498727322 0.7827612758
-2.093275547 -3.521276474 0.9357929826
-2.087593794 -3.508929968 1.082433224
-2.035462141 -3.411812067 -1.052927971
-1.723406196 -2.88645792 -0.7661799192
-2.053538322 -3.43801856 -0.7701678872
-2.054994822 -3.437730789 -0.6276667118
-2.063037395 -3.448449373 -0.4882651865
-2.066976786 -3.453667879 -0.3484232426
-1.516890883 -2.532533169 -0.1525081098
-1.770435452 -2.953500986 -0.05940619856
-1.771935344 -2.968914509 0.05965052918
-1.775985122 -2.973340988 0.1793041378
-2.087049961 -3.492736578 0.352258116
-2.081792355 -3.481179714 0.4928961694
-2.097372055 -3.504454613 0.6401814222
-2.092434883 -3.49482131 0.7835245728
-2.099544525 -3.503918409 0.9330935478
-2.109765291 -3.518189669 1.087609768
-2.047359228 -3.404685974 -1.052927971
-1.733471274 -2.8804245 -0.7661799192
-2.057425976 -3.417373896 -0.7671149969
-2.066982269 -3.43053627 -0.6276667118
-2.068911076 -3.431027889 -0.486802727
-2.084165573 -3.454961777 -0.3492948413
-1.526753664 -2.528933048 -0.1526127905
-1.774529815 -2.937033415 -0.05919676647
-1.782288194 -2.962710857 0.05965052918
-1.781202555 -2.958568096 0.1787807792
-2.08483696 -3.461536169 0.3498177826
-2.09905529 -3.482392788 0.4941148758
-2.096327543 -3.475122929 0.6361141801
-2.10868001 -3.494218826 0.7850509882
-2.113777876 -3.499904633 0.9339933991
-2.122032642 -3.510804415 1.087609768
-2.060232639 -3.399170637 -1.053445578
-1.743515491 -2.874355793 -0.7661799192
-2.069342375 -3.41017127 -0.7671149969
-2.083046198 -3.430054188 -0.6289181709
-2.087061882 -3.433962584 -0.4882651865
-2.087932587 -3.434046507 -0.3479003608
-1.543878317 -2.537237644 -0.1534501761
-1.781650305 -2.925697803 -0.05909205228
-1.798839927 -2.96673131 0.05985996127
-1.79773581 -2.962577581 0.1794088036
-2.102076769 -3.462752819 0.350689292
-2.099860907 -3.456382751 0.4914337695
-2.106392622 -3.464408159 0.6354883909
-2.114741802 -3.476773262 0.7827612758
-2.114835024 -3.474194527 0.9290445447
-2.121209383 -3.481927633 1.080880523
-2.068057537 -3.385364294 -1.051375031
-1.759637117 -2.878228188 -0.768879354
-2.085330963 -3.409626484 -0.7686414719
-2.099131346 -3.429501057 -0.6301696301
-2.099035025 -3.4266572 -0.4882651865
-2.099906921 -3.426737547 -0.3479003608
-1.55063653 -2.528428078 -0.1532408148
-1.796036959 -2.926277876 -0.05923167244
-1.801885486 -2.948489666 0.05961562321
-1.810150504 -2.959691763 0.17961815
-2.109992027 -3.448596239 0.3499920666
-2.117095947 -3.457495928 0.492652446
-2.116409063 -3.45366621 0.634862721
-2.12481308 -3.46602273 0.7819980979
-2.13102603 -3.47343564 0.9308441281
-2.13436079 -3.476148605 1.081398129
-2.081887722 -3.38141489 -1.052410364
-1.769673467 -2.872068405 -0.768879354
-2.097220182 -3.402326584 -0.7686414719
-2.107978582 -3.417109013 -0.6292310357
-2.113069296 -3.422687292 -0.4887526333
-2.116043329 -3.426166773 -0.3485975862
-1.556302786 -2.51790309 -0.1529268175
-1.812551737 -2.930194616 -0.05944110081
-1.807972074 -2.935371637 0.05947600678
-1.820470691 -2.953355074 0.17961815
-2.126200199 -3.447993279 0.350689292
-2.133322239 -3.456841946 0.4936273992
-2.137793303 -3.461383104 0.6376784444
-2.130707741 -3.448563814 0.7797083855
-2.148261786 -3.474262953 0.9330935478
-2.145465374 -3.46703434 1.080880523
-2.091641426 -3.370843887 -1.051375031
-1.771463633 -2.852629423 -0.7652801275
-2.111155748 -3.398320198 -0.7694047093
-2.11467886 -3.401342392 -0.6276667118
-2.122906685 -3.411919594 -0.4882651865
-2.127990484 -3.418759823 -0.3485975862
-1.561914563 -2.507369518 -0.1526127905
-1.818537593 -2.917061806 -0.05930148065
-1.822425127 -2.935838699 0.05961562321
-1.823391199 -2.935106754 0.178885445
-2.151894808 -3.462549448 0.3529553413
-2.147472858 -3.452745438 0.4941148758
-2.160301685 -3.470669985 0.6408071518
-2.152072191 -3.45610404 0.7831429839
-2.158315182 -3.463435173 0.9321938157
-2.160621166 -3.464441299 1.082433224
-2.111588955 -3.376626253 -1.055516243
-1.787613392 -2.856339693 -0.7679795027
-2.123004436 -3.390930653 -0.7694047093
-2.130734444 -3.400635719 -0.6289181709
-2.13374877 -3.402806044 -0.4880214036
-2.144146204 -3.418061733 -0.3492948413
-1.574905157 -2.508668423 -0.1530314833
-1.820198417 -2.89715004 -0.05902224407
-1.828420639 -2.922677994 0.05947600678
-1.832565069 -2.927031517 0.1787807792
-2.165026188 -3.45670557 0.3531296849
-2.158457994 -3.443546534 0.4938711822
-2.169254303 -3.458087683 0.6398685575
-2.169340849 -3.456885338 0.7850509882
-2.17453742 -3.46248126 0.9339933991
-2.188121557 -3.481412411 1.090197921
-2.115122557 -3.356159925 -1.051375031
-1.799651504 -2.853379488 -0.768879354
-2.132733822 -3.380178213 -0.7686414719
-2.146810532 -3.399857998 -0.6301696301
-2.142432451 -3.390302896 -0.4872901738
-2.1507411 -3.402135849 -0.3484232426
-1.586855888 -2.508219004 -0.1533454955
-1.82816112 -2.887399912 -0.05895243585
-1.845009923 -2.926427603 0.05968543515
-1.841706038 -2.918926954 0.1786760986
-2.173887968 -3.4440732 0.3526067436
-2.180006504 -3.451095343 0.4960647821
-2.169701099 -3.432127714 0.6364269853
-2.187690735 -3.459247351 0.7873407602
-2.18661046 -3.45486927 0.9339933991
-2.197159529 -3.468857288 1.088644981
-2.128896236 -3.352017879 -1.052410364
-1.806464791 -2.842146158 -0.7675296068
-2.144519091 -3.372713327 -0.7686414719
-2.156543255 -3.389010668 -0.6295438409
-2.156386852 -3.386152744 -0.4877776802
-2.162603617 -3.394607544 -0.3484232426
-1.596675515 -2.504348755 -0.1534501761
-1.732818723 -2.715794802 -0.05553176254
-1.844490647 -2.903090477 0.0593363829
-1.851883173 -2.912480831 0.1786760986
-2.184828281 -3.43478179 0.3524324298
-2.185642958 -3.433418036 0.4946023822
-2.193343401 -3.442859173 0.6398685575
-2.19553113 -3.444968462 0.7858142853
-2.208088398 -3.462002754 0.9380425811
-2.208215475 -3.45953846 1.088127375
-1.814272642 -2.832540989 -0.7666297555
-2.165811777 -3.380084038 -0.7720760107
-2.171559334 -3.386451244 -0.6304824948
-2.17891407 -3.395311832 -0.4902150631
-2.177668333 -3.392068386 -0.3489461839
-1.601088643 -2.492038965 -0.1530314833
-1.665049672 -2.590597868 -0.05305352062
-1.854612589 -2.896634817 0.0593363829
-1.865840316 -2.913051128 0.1790947914
-2.196803808 -3.427134991 0.3524324298
-2.201902866 -3.432450294 0.4955773354
-2.202614069 -3.432242632 0.6392428279
-2.205421925 -3.433978796 0.7850509882
-2.219105005 -3.452634811 0.937592566
-2.22176528 -3.455446005 1.089162588
-2.135492802 -3.31109786 -1.04412806
-1.821542859 -2.823233843 -0.7657299638
-2.179727316 -3.375801802 -0.7728391886
-2.168843508 -3.357660055 -0.6264151931
-2.181540251 -3.374731064 -0.4882651865
-2.185166836 -3.377754688 -0.3482489586
-1.608258605 -2.485038996 -0.1529268175
-1.676257014 -2.588126183 -0.05312332883
-1.864207983 -2.890468597 0.0593363829
-1.872748256 -2.901486158 0.1787807792
-2.211996555 -3.42446661 0.3529553413
-2.204653502 -3.411791563 0.4936273992
-2.223163128 -3.43780303 0.6417457461
-2.216796637 -3.426646948 0.7850509882
-2.226306915 -3.438713074 0.9357929826
-2.240115881 -3.457397938 1.092268467
-2.112782955 -3.252157688 -1.027563691
-1.833510995 -2.820125818 -0.7666297555
-2.128825903 -3.273099899 -0.7507053614
-2.154688358 -3.310335398 -0.6189063191
-2.182472467 -3.350462437 -0.4858278036
-2.196944237 -3.370106459 -0.3482489586
-1.615832925 -2.477736712 -0.1528221369
-1.666701078 -2.553791285 -0.05252994969
-1.880824447 -2.894003868 0.05954581499
-1.879597902 -2.889908314 0.1784667522
-2.232033253 -3.430472612 0.3543498814
-2.220882177 -3.410729647 0.4946023822
-2.230835676 -3.423401833 0.640494287
-2.233032703 -3.425466299 0.7865774632
-2.239360571 -3.432553768 0.9362428784
-2.252171755 -3.449556828 1.092268467
-2.121513367 -3.239543676 -1.026010752
-1.841208339 -2.810448408 -0.7657299638
-2.128967762 -3.247215509 -0.7465076447
-2.140799284 -3.262777567 -0.6113975048
-2.140779495 -3.261506319 -0.4738845825
-2.147438288 -3.269162893 -0.3384875059
-1.629291296 -2.478473663 -0.1532408148
-1.662420392 -2.527908325 -0.05211109295
-1.886532903 -2.880729437 0.05940619856
-1.886389971 -2.87831831 0.17815274
-2.236942768 -3.410606861 0.3531296849
-2.240397453 -3.414574385 0.4963085651
-2.238435268 -3.408989191 0.6392428279
-2.257432699 -3.435307264 0.7907752991
-2.250855923 -3.422694683 0.9357929826
-2.25782752 -3.4319911 1.089162588
-2.124296665 -3.219219208 -1.021869659
-1.862235665 -2.819942713 -0.770228982
-2.135960817 -3.233211517 -0.7449811101
-2.142370701 -3.240454197 -0.6085816622
-2.146147251 -3.243705034 -0.4724221528
-2.148939848 -3.246694326 -0.3369187117
-1.640138984 -2.476101637 -0.1534501761
-1.669025183 -2.518756151 -0.05204127729
-1.890468717 -2.863782406 0.05919676647
-1.898627043 -2.875049353 0.1783620715
-2.224667311 -3.366209269 0.3492948413
-2.255087614 -3.409651279 0.4967960119
-2.250321627 -3.401154757 0.6392428279
-2.261823654 -3.415947437 0.7881039977
-2.266019106 -3.419690371 0.9371427298
-2.264457226 -3.416038036 1.086574435
-2.144077063 -3.224654198 -1.026010752
-1.868339062 -2.808884144 -0.768879354
-2.146145344 -3.224102259 -0.7445995212
-2.155294418 -3.236620426 -0.6092073917
-2.167900324 -3.253088951 -0.4748595357
-2.161365271 -3.24083066 -0.3370930254
-1.649449348 -2.472310305 -0.1535548419
-1.671144843 -2.502936363 -0.05183185264
-1.895525694 -2.850837231 0.05905715004
-1.910864234 -2.871729851 0.1785714328
-2.1911273 -3.290431023 0.3421480656
-2.198148012 -3.299725533 0.4816842079
-2.203009605 -3.30452323 0.6223478913
-2.215405703 -3.321861029 0.7678781748
-2.25246501 -3.374876499 0.9267949462
-2.27422142 -3.404899836 1.085539103
-2.16120863 -3.227157354 -1.029116631
-1.873792171 -2.795870304 -0.767079711
-2.1666646 -3.231643438 -0.74803406
-2.166579485 -3.229077339 -0.6092073917
-2.170389891 -3.232317448 -0.4729096293
-2.178766489 -3.243568897 -0.3381389081
-1.656955242 -2.464880228 -0.1534501761
-1.680987835 -2.498746634 -0.05186675489
-1.907692194 -2.84752512 0.05912695825
-1.91420269 -2.855089188 0.1779433936
-2.197587729 -3.276527882 0.3414508104
-2.197482824 -3.273902178 0.4790030718
-2.209024429 -3.288614511 0.6207835674
-2.211658001 -3.291294336 0.7625355721
-2.22617054 -3.310394764 0.9110483527
-2.223534346 -3.303983688 1.055516243
-2.165977001 -3.209985256 -1.026010752
-1.880268574 -2.78446722 -0.7657299638
-2.174635887 -3.21917963 -0.7468892336
-2.184475899 -3.231313944 -0.61108464
-2.179434299 -3.221433878 -0.4724221528
-2.19119215 -3.237593889 -0.3383132219
-1.664429069 -2.457427502 -0.1533454955
-1.687455893 -2.489553213 -0.05179694667
-1.919857264 -2.844164133 0.05919676647
-1.91968596 -2.841769457 0.1775247157
-2.209010839 -3.268837452 0.3414508104
-2.206674099 -3.262922525 0.4785155952
-2.214954138 -3.272703648 0.6192191839
-2.223133564 -3.283554316 0.7625355721
-2.231154203 -3.292924404 0.9083490372
-2.231801271 -3.291404963 1.053963304
-2.174996853 -3.199209929 -1.024975538
-1.88997674 -2.777887106 -0.7657299638
-2.186963797 -3.21319294 -0.7472708225
-2.200189352 -3.230199814 -0.6123360991
-2.200797558 -3.226249695 -0.3379645646
-1.67862618 -2.459851265 -0.153868854
-1.696135402 -2.483648062 -0.05179694667
-1.927524447 -2.834138155 0.05912695825
-1.929593444 -2.835051775 0.1775247157
-2.218165874 -3.257812262 0.3411021829
-2.221403122 -3.260121822 0.479246825
-2.218574524 -3.25352788 0.6170291305
-2.235687256 -3.277396202 0.762917161
-2.236042738 -3.275459051 0.9056496024
-2.236738443 -3.274023533 1.050857425
-2.193259954 -3.200778723 -1.028081417
-1.909578204 -2.785739183 -0.7697791457
-2.198726177 -3.205155373 -0.7472708225
-1.693289161 -2.461910486 -0.1543922126
-1.716130257 -2.494185925 -0.0521459952
-1.934014678 -2.822443724 0.05902224407
-1.939477801 -2.828298807 0.1775247157
-2.226708889 -3.244732857 0.3405792713
-2.239510775 -3.262167215 0.4807092845
-2.239984512 -3.260417461 0.6198449731
-2.243235588 -3.262708902 0.761390686
-2.246928215 -3.265635967 0.9051995873
-2.253629923 -3.274152279 1.053445578
-2.202224493 -3.189923525 -1.027046084
-1.912021756 -2.767498255 -0.7666297555
-2.209900856 -3.19746089 -0.7472708225
-2.208640099 -3.19325304 -0.6082687974
-2.224905014 -3.214370251 -0.4748595357
-1.691634655 -2.44121027 -0.1534501761
-1.935586095 -2.792217493 -0.05860338733
-1.944346547 -2.815336227 0.05902224407
-1.951609135 -2.824797869 0.1777340621
-2.242553949 -3.243495226 0.3412764966
-2.242416382 -3.24087739 0.4787593484
-2.254724741 -3.257451534 0.6207835674
-2.254610777 -3.254858494 0.761390686
-2.26386404 -3.265781164 0.9074491858
-2.270549774 -3.2742033 1.05603385
-2.219964504 -3.191732645 -1.030151963
-1.915623784 -2.753144264 -0.7643802762
-2.225536108 -3.196171761 -0.7487972975
-2.224862576 -3.194015741 -0.6098331809
-2.231011391 -3.200460672 -0.4738845825
-2.236741781 -3.206294537 -0.3383132219
-1.702006817 -2.438862801 -0.1536595076
-1.948756576 -2.790361643 -0.05870809779
-1.949104667 -2.802306414 0.05888262391
-1.95575273 -2.809771776 0.1772106886
-2.257278919 -3.240552425 0.341799438
-2.250881195 -3.230165958 0.4782718718
-2.269471407 -3.254421949 0.6217221618
-2.265392065 -3.247364044 0.761390686
-2.270219564 -3.251864672 0.9056496024
-2.28749609 -3.274176121 1.058621883
-2.232752323 -3.187517881 -1.031187057
-1.93193388 -2.756015062 -0.767079711
-2.236122847 -3.18877387 -0.7487972975
-2.245075941 -3.199165344 -0.6123360991
-2.242169857 -3.192653418 -0.4738845825
-2.251943111 -3.20538044 -0.3390104473
-1.719699502 -2.445977688 -0.1544968933
-1.952730894 -2.775365353 -0.05853357166
-1.962317348 -2.800398588 0.0589873381
-1.962108612 -2.798021793 0.1768966764
-2.269156694 -3.234679937 0.3419737518
-2.266705275 -3.228788137 0.479246825
-2.278546572 -3.243247271 0.6210964322
-2.283487082 -3.249073982 0.7636803985
-2.289404392 -3.255077839 0.9087988734
-2.30335927 -3.27249074 1.060692549
-2.234955311 -3.167077065 -1.027046084
-1.955032349 -2.768356323 -0.7724785209
-2.242708921 -3.174535275 -0.7472708225
-2.257369995 -3.192922115 -0.6126489639
-2.255593777 -3.188048363 -0.4743720591
-2.258514404 -3.190995216 -0.3383132219
-1.730535865 -2.443219423 -0.1547062248
-1.957781196 -2.762006521 -0.05839395523
-1.973233342 -2.795165777 0.05902224407
-1.969558716 -2.787893295 0.17668733
-2.279284239 -3.225112438 0.341799438
-2.282547235 -3.227338791 0.4802217782
-2.284147978 -3.227212191 0.6195321083
-2.297083855 -3.244287968 0.7644436955
-2.29624629 -3.240706205 0.90699929
-2.309181213 -3.256551027 1.058104277
-2.243757248 -3.156107426 -1.026010752
-1.966943264 -2.764690876 -0.7733783722
-2.258329391 -3.173085928 -0.7487972975
-2.269647598 -3.186631918 -0.6129618287
-2.26901269 -3.183388233 -0.4748595357
-2.270796061 -3.184714079 -0.3384875059
-1.746014357 -2.446918488 -0.155334264
-1.967410684 -2.755155563 -0.05839395523
-1.972548366 -2.773593903 0.05870809779
-1.981593966 -2.78425622 0.1768966764
-2.288216829 -3.213890314 0.3414508104
-2.300709724 -3.229052305 0.4816842079
-2.297692776 -3.222435713 0.6201577783
-2.30839467 -3.236249924 0.7644436955
-2.313205719 -3.24060154 0.9092487693
-2.318288803 -3.245326519 1.057069063
-2.263760328 -3.160820484 -1.030151963
-1.964093685 -2.740385294 -0.7684293985
-2.271680832 -3.168374062 -0.7495605946
-2.273846865 -3.169060469 -0.61108464
-2.285900116 -3.183511019 -0.4760782123
-2.285385132 -3.18162322 -0.3390104473
-1.752213597 -2.437565327 -0.1551249176
-1.974680543 -2.74502492 -0.05832414702
-1.97755897 -2.760189772 0.05856848136
-1.990137696 -2.775698423 0.1767919958
-2.301743269 -3.209122181 0.341799438
-2.305022717 -3.211325169 0.4802217782
-2.319298506 -3.228835583 0.6229736209
-2.317385674 -3.224983454 0.7636803985
-2.329054117 -3.238835573 0.9110483527
-2.331859827 -3.240350485 1.058104277
-2.272518396 -3.149766445 -1.029116631
-1.967943788 -2.725612879 -0.7661799192
-2.289623022 -3.169974327 -0.7518502474
-2.290682077 -3.169107914 -0.6126489639
-2.291181564 -3.167469978 -0.4748595357
-2.298814058 -3.176853895 -0.3393590748
-1.76071167 -2.431434155 -0.1551249176
-2.018279314 -2.785072565 -0.0593363829
-1.990692735 -2.758134365 0.05867319554
-1.989289045 -2.754163027 0.1758499593
-2.31526494 -3.204297781 0.3421480656
-2.316217422 -3.203259945 0.4802217782
-2.32708168 -3.215918303 0.6220350266
-2.33093071 -3.220055819 0.7644436955
-2.335772753 -3.224373102 0.9092487693
-2.346558332 -3.236883163 1.059657216
-2.249425888 -3.09493351 -1.013587475
-1.986616015 -2.731334448 -0.7697791457
-2.292588949 -3.150850534 -0.749178946
-2.302892685 -3.162690401 -0.6129618287
-2.301054478 -3.157849073 -0.4746157825
-2.311062336 -3.170420885 -0.3395333886
-1.779781818 -2.439795256 -0.156066969
-2.070435286 -2.836154461 -0.06059295684
-2.057930231 -2.830420256 0.0603835322
-2.331126213 -3.20263958 0.3428452909
-2.332061052 -3.201573133 0.4811967313
-2.341783285 -3.212565184 0.6229736209
-2.349098206 -3.22141695 0.766733408
-2.345864296 -3.214626551 0.9087988734
-2.362400055 -3.234912634 1.061727762
-2.237390995 -3.055887938 -1.003234744
-2.003048658 -2.733814716 -0.7724785209
-2.240900278 -3.057321787 -0.7285715342
-2.253164768 -3.071805239 -0.5966926217
-1.787104368 -2.431958675 -0.1559622884
-2.076275826 -2.824439526 -0.06048824638
-2.077250481 -2.836125374 0.06066277251
-2.332609892 -3.18360877 0.2046347409
-2.34346962 -3.196089506 0.3430196047
-2.347919226 -3.199815512 0.4821716845
-2.343072891 -3.192042589 0.6204707026
-2.358003378 -3.210033417 0.7659701109
-2.356511831 -3.206829786 0.9087988734
-2.371969461 -3.225505114 1.061210155
-2.249805212 -3.051561594 -1.004269958
-2.012103558 -2.727157354 -0.7724785209
-2.253358364 -3.053032875 -0.7293347716
-2.265686274 -3.067494154 -0.5973183513
-2.267683029 -3.069077015 -0.4634037912
-2.267438412 -3.066505909 -0.3299462497
-1.79991138 -2.432441235 -0.1563809812
-2.083250284 -2.814324379 -0.06041843444
-2.078335524 -2.817955971 0.06041843444
-2.34552598 -3.179070234 0.2048440725
-2.346954584 -3.178683758 0.3419737518
-2.359696865 -3.193608284 0.4824154079
-2.365386724 -3.200140238 0.6235994101
-2.373305321 -3.208509684 0.7674965858
-2.376406193 -3.211529493 0.9123980403
-2.381503344 -3.216069221 1.060692549
-2.279488564 -3.070452929 -1.013069749
-2.013000965 -2.709520102 -0.7693291903
-2.304458618 -3.10069418 -0.7426914573
-2.28763485 -3.075814724 -0.6004470587
-2.294975758 -3.083436489 -0.4668161571
-2.286459923 -3.069757462 -0.3311664462
-1.79961431 -2.415247917 -0.1556482762
-2.112187386 -2.832685232 -0.06097691134
-2.082899809 -2.804626942 0.06027881801
-2.364948511 -3.182084799 0.2055767924
-2.361048937 -3.175680161 0.3424966633
-2.366719484 -3.180987597 0.4816842079
-2.381262064 -3.198201895 0.6248508692
-2.374550343 -3.188025951 0.7644436955
-2.38993144 -3.206339598 0.9132978916
-2.398490191 -3.215478659 1.063280702
-2.333543777 -3.119313478 -1.03222239
-2.025949717 -2.707157373 -0.7706789374
-2.34993577 -3.137798548 -0.7537583113
-2.348649502 -3.133799314 -0.6135875583
-2.35933876 -3.144629717 -0.3402306139
-1.808454633 -2.408635616 -0.1556482762
-2.144880056 -2.855674267 -0.06164010614
-2.114238262 -2.826161623 0.06090710312
-2.370056868 -3.16581583 0.2050534338
-2.379840374 -3.176572323 0.343542546
-2.375427961 -3.169529915 0.4811967313
-2.384114742 -3.178807974 0.6226608157
-2.393290043 -3.18872261 0.766733408
-2.396986008 -3.191326141 0.9114983082
-2.408539057 -3.205542564 1.062763095
-2.350231647 -3.118862391 -1.034810543
-2.035858393 -2.699713707 -0.7706789374
-2.357328415 -3.124874353 -0.7526135445
-2.361954451 -3.128734827 -0.6142132878
-2.364845276 -3.130291224 -0.4765656888
-2.379911184 -3.149091005 -0.3416251242
-1.81323719 -2.397529602 -0.155334264
-2.14986062 -2.851926804 0.06164010614
-2.378036022 -3.1523242 0.2047394067
-2.394514799 -3.173016787 0.3440654874
-2.394207001 -3.170306921 0.4826591909
-2.404086828 -3.181080103 0.6248508692
-2.404406309 -3.180348873 0.766733408
-2.406935453 -3.18138504 0.9110483527
-2.427268982 -3.205934763 1.065868974
-2.036400795 -2.682859898 -0.890907228
-2.026409149 -2.667762041 -0.7634804845
-2.361094475 -3.107248306 -0.7503237724
-2.37883997 -3.128332853 -0.6157776713
-2.378162146 -3.125176907 -0.4770531654
-2.380028009 -3.126496553 -0.34005633
-1.821595192 -2.391185522 -0.155334264
-2.398030519 -3.145586729 -0.06834182888
-2.382313013 -3.137443781 0.06806258857
-2.39748311 -3.155136347 0.2054721117
-2.403164625 -3.161466599 0.3437168598
-2.406459808 -3.163510561 0.4829029143
-2.405603886 -3.160094023 0.6223478913
-2.422629833 -3.181307793 0.7690230608
-2.420388222 -3.176064014 0.911948204
-2.436101675 -3.194369793 1.064833641
-2.265171766 -2.96272254 -0.9877055883
-2.065313101 -2.699364662 -0.7747280002
-2.379086494 -3.108340979 -0.7526135445
-2.389744759 -3.120010853 -0.6157776713
-2.39630127 -3.126309872 -0.4785155952
-2.3909266 -3.1181705 -0.34005633
-1.834794283 -2.391150475 -0.155752942
-2.404795885 -3.132858515 -0.06823711842
-2.400538683 -3.138639688 0.06827201694
-2.407932758 -3.147168636 0.2054721117
-2.408128738 -3.145149469 0.3428452909
-2.425940037 -3.166120529 0.4846090674
-2.42448163 -3.16307497 0.6245380044
-2.431330204 -3.169716358 0.7682598829
-2.43501997 -3.172233105 0.9132978916
-2.444328547 -3.183209419 1.063798428
-1.925423026 -2.500213146 -0.83396703
-2.247888565 -2.917889833 -0.8404137492
-2.394716263 -3.106237173 -0.7541399598
-2.392839909 -3.102683306 -0.613900423
-2.40665555 -3.118346214 -0.4785155952
-2.401797056 -3.109804869 -0.34005633
-1.854924083 -2.400858164 -0.1567996591
-2.419386387 -3.129190922 -0.06834182888
-2.409713745 -3.129077435 0.06823711842
-2.429876328 -3.152981997 0.2064141631
-2.42517662 -3.144612789 0.3437168598
-2.43157506 -3.151772261 0.4836341441
-2.439129353 -3.159283161 0.6254765391
-2.43702817 -3.155421257 0.766733408
-2.446717978 -3.165683031 0.9137477875
-2.457787991 -3.177714109 1.064833641
-1.870963573 -2.412901163 -0.8065322638
-1.857847452 -2.39425993 -0.6896964908
-2.421200514 -3.112410545 -0.3412764966
-1.878013253 -2.413282633 -0.1580557227
-2.436437368 -3.128615856 -0.06851635128
-2.423072815 -3.123806953 0.06830692291
-2.429845572 -3.130281448 0.2054721117
-2.43803525 -3.139700651 0.3440654874
-2.43769002 -3.136995316 0.4826591909
-2.453780651 -3.155427933 0.6264151931
-2.450437784 -3.149994612 0.7674965858
-2.455358744 -3.154048204 0.9128480554
-2.467679024 -3.167591095 1.064316034
-1.854817867 -2.374058723 -0.7956618071
-1.85779345 -2.377012253 -0.6865472198
-1.847873926 -2.362620115 -0.5747795105
-1.864661813 -2.38236928 -0.4724836349
-1.853189349 -2.366861582 -0.3639584184
-1.86433208 -2.379380226 -0.2607446015
-1.894239664 -2.415813923 -0.158683762
-2.442407608 -3.113797903 -0.06837673485
-2.438886642 -3.121632814 0.06844653934
-2.441987514 -3.123353958 0.2055767924
-2.454437494 -3.13702035 0.3447627425
-2.458414078 -3.140971899 0.4846090674
-2.457472086 -3.137512684 0.6245380044
-2.469233274 -3.150263071 0.7697862983
-2.468105793 -3.146560192 0.9132978916
-2.484683037 -3.16655755 1.066904187
-1.860704303 -2.364533424 -0.794626534
-1.874932885 -2.380904198 -0.6896964908
-1.856109858 -2.356155396 -0.5747795105
-1.880303502 -2.385154009 -0.4743608534
-1.874961853 -2.377524137 -0.3666395545
-1.878797174 -2.380678177 -0.2616161406
-1.882855773 -2.384108067 -0.1570090055
-2.448302746 -3.098977327 -0.06823711842
-2.46020627 -3.125243425 0.06872577965
-2.454111099 -3.116379976 0.2056814581
-2.460439444 -3.12217474 0.3440654874
-2.469909191 -3.131940603 0.4846090674
-2.470856667 -3.13201642 0.625163734
-2.485080957 -3.147788048 0.7713127732
-2.484565735 -3.146004677 0.9155473709
-2.495721102 -3.157865047 1.066904187
-1.860137343 -2.347750664 -0.7910030484
-1.882817864 -2.374673367 -0.6896964908
-1.867573142 -2.35460186 -0.5759243369
-1.884518623 -2.374263763 -0.4734222293
-1.881601095 -2.369738579 -0.3663958013
-1.884202719 -2.371315002 -0.2612675428
-1.884535551 -2.370035172 -0.156485647
-2.463545322 -3.097101212 -0.06837673485
-2.465588331 -3.110799313 0.06858616322
-2.470636129 -3.116049528 0.2062048167
-2.469540834 -3.112437725 0.3438911736
-2.482750416 -3.12684226 0.4850965738
-2.486142397 -3.129993677 0.6264151931
-2.493062735 -3.136456251 0.7705495954
-2.499835253 -3.143850088 0.9173470736
-2.500165224 -3.142013311 1.064316034
-1.879959583 -2.356671095 -0.7961794138
-1.877308488 -2.351664543 -0.6847476363
-1.886396766 -2.362202406 -0.5793588758
-1.889914751 -2.364915609 -0.4727964997
-1.893580675 -2.367807865 -0.3671270311
-1.894958496 -2.367834568 -0.2616161406
-1.87366128 -2.340385437 -0.1549155712
-2.478092194 -3.093164682 -0.06848144531
-2.473395824 -3.099479914 0.06851635128
-2.487730026 -3.115209818 0.2067281753
-2.483579159 -3.108901024 0.344414115
-2.488147736 -3.112389803 0.4841216207
-2.497053862 -3.121295929 0.6264151931
-2.50099659 -3.125105858 0.7697862983
-2.514448881 -3.139668226 0.9186967611
-2.517158508 -3.140804052 1.066904187
-2.326692343 -2.894856691 -0.983564496
-2.325098276 -2.891838312 -0.8467124104
-2.488246918 -3.092545033 -0.7632988095
-2.478353739 -3.078047037 -0.6192191839
-2.482105017 -3.081606388 -0.4807092845
-1.898527741 -2.353711605 -0.1562763005
-2.500175714 -3.098501921 -0.06879559159
-2.48545289 -3.092385769 0.06855125725
-2.49608469 -3.103394985 0.2065188289
-2.503702879 -3.110641479 0.3456343114
-2.501486778 -3.106777668 0.4846090674
-2.521567345 -3.1294806 0.6298567653
-2.514898062 -3.118975878 0.7705495954
-2.521044254 -3.124364614 0.9168970585
-2.531746626 -3.136508226 1.068457127
-2.325843334 -2.873203039 -0.9789056778
-2.324640989 -2.869669199 -0.8426632285
-2.597911119 -3.205863714 -0.793828249
-2.593596697 -3.198258162 -0.6455001831
-2.576637983 -3.17621088 -0.4970397949
-2.546847582 -3.137251377 -0.3498177826
-1.881545186 -2.316066504 -0.1541828662
-2.524848461 -3.106827021 -0.06917954236
-2.503062725 -3.091025829 0.06872577965
-2.505645275 -3.093111038 0.2064141631
-2.51831007 -3.106526375 0.3461572528
-2.517859221 -3.103754759 0.4855840206
-2.521273375 -3.106854916 0.6270409226
-2.530721188 -3.116273403 0.7720760107
-2.530162811 -3.114474773 0.9164472222
-2.548773289 -3.135146379 1.07104528
-2.321933746 -2.849002123 -0.9732117057
-2.332912922 -2.860434532 -0.8422133923
-2.603563309 -3.191147089 -0.792301774
-2.617930651 -3.206471205 -0.6489417553
-2.616037369 -3.203011274 -0.5026457906
-2.629106283 -3.216720343 -0.3597535193
-1.909447193 -2.334550381 -0.1558576226
-2.637707472 -3.223798037 -0.07200683653
-2.557526112 -3.136953354 0.06994745135
-2.529774427 -3.101810455 0.2075655609
-2.534896612 -3.105875254 0.3470287919
-2.540694237 -3.110763073 0.4880214036
-2.529062271 -3.095417261 0.6264151931
-2.559681416 -3.130662203 0.777800262
-2.542944431 -3.109083891 0.9173470736
-2.55548501 -3.122192383 1.06949234
-2.319114208 -2.826351881 -0.9680352807
-2.332492352 -2.840633869 -0.8386141658
-2.617180109 -3.185072422 -0.7930650711
-2.626040697 -3.194720507 -0.6483160257
-2.632246971 -3.199991465 -0.5036206841
-2.637786627 -3.204447269 -0.3594049215
-1.917584062 -2.327871323 -0.1558576226
-2.651488066 -3.217657089 -0.07207664102
-2.646574497 -3.224288225 0.07211155444
-2.654680967 -3.231862068 0.2169860303
-2.650168896 -3.22521925 0.3614966273
-2.653120995 -3.226516962 0.5077642798
-2.655326366 -3.226902485 0.6551991105
-2.642977476 -3.209609985 0.7999341488
-2.638034821 -3.202469826 0.9479403496
-2.593401909 -3.146047831 1.080880523
-2.318380117 -2.804432631 -0.9633765817
-2.329223633 -2.815549374 -0.8336651921
-2.631339312 -3.178483486 -0.793828249
-2.635212183 -3.182031155 -0.6476902962
-2.649023533 -3.196436405 -0.5045956373
-2.649513721 -3.194757462 -0.3594049215
-2.659525871 -3.204551697 -0.216043964
-2.665818453 -3.21099472 -0.07214645296
-2.660923481 -3.217647552 0.07218135893
-2.671602011 -3.228265047 0.2174047083
-2.667053699 -3.221624136 0.3621939123
-2.677592993 -3.23205781 0.510201633
-2.677222729 -3.229314089 0.6577020884
-2.67854023 -3.228610516 0.807184875
-2.69455862 -3.246763706 0.9641367793
-2.695015907 -3.245010614 1.118668079
-2.324933529 -2.791463614 -0.9618236423
-2.320813179 -2.784538269 -0.8269166946
-2.649961948 -3.178326607 -0.7961179614
-2.654450655 -3.181452036 -0.6495674849
-2.658176661 -3.183658123 -0.5041081309
-2.668312788 -3.194664478 -0.3604507446
-2.675818443 -3.201378822 -0.2164626569
-2.682141542 -3.207805872 -0.07228606939
-2.673979044 -3.209409475 0.07221625745
-2.679018259 -3.214316845 0.2170906812
-2.686500311 -3.221007109 0.3632397354
-2.685605288 -3.217650175 0.5094704032
-2.712533236 -3.248759985 0.6636466384
-2.699864149 -3.23129344 0.8102378249
-2.705189705 -3.235371351 0.9636869431
-2.719961405 -3.25188303 1.124361992
-2.32473135 -2.771490097 -0.95768255
-2.325024128 -2.770855665 -0.8251171112
-2.658515215 -3.166049957 -0.7953546643
-2.664986134 -3.172631979 -0.6495674849
-2.668719769 -3.174825907 -0.5041081309
-2.684578657 -3.191429853 -0.3611480296
-2.686419964 -3.192487955 -0.2164626569
-2.690746546 -3.195364714 -0.07221625745
-2.684606552 -3.200525045 0.07221625745
-2.687654495 -3.201886654 0.2168813646
-2.705416203 -3.220763206 0.3642856181
-2.701368809 -3.214805603 0.5104453564
-2.71241498 -3.225664377 0.6608307958
-2.718147516 -3.231336832 0.8125275373
-2.715903759 -3.226382732 0.9636869431
-2.735028982 -3.246801615 1.125914931
-2.318952322 -2.746054173 -0.9514709115
-2.33342433 -2.761234283 -0.8246671557
-2.66646409 -3.154218674 -0.7945914865
-2.686250687 -3.175374508 -0.6520704031
-2.682350874 -3.168520927 -0.5045956373
-2.69257164 -3.17946887 -0.3607993722
-2.707877874 -3.19528079 -0.2173000425
-2.701328039 -3.186424017 -0.07221625745
-2.708667517 -3.206409693 0.07256531715
-2.70728159 -3.203634739 0.2176140547
-2.712222338 -3.207210064 0.3637626767
-2.717703342 -3.211418629 0.5114203691
-2.715438604 -3.2076056 0.6589535475
-2.731948614 -3.224825144 0.8132907748
-2.737230778 -3.228774071 0.9672861099
-2.740782976 -3.231820822 1.123844385
-2.307247162 -2.712925196 -0.9426710606
-2.337517262 -2.74754405 -0.8228675723
-2.68509531 -3.153860569 -0.7968811989
-2.692923784 -3.161937475 -0.6511318088
-2.697993994 -3.16565156 -0.5055705905
-2.702360153 -3.168535233 -0.3606250882
-2.721051693 -3.189321995 -0.2175093889
-2.715030432 -3.180017471 -0.07228606939
-2.714102507 -3.191317081 0.07242568582
-2.72233057 -3.198728323 0.2179280818
-2.722109556 -3.196206331 0.3635883629
-2.741211176 -3.217499018 0.5138577223
-2.744560719 -3.219151974 0.663333714
-2.745174646 -3.218735695 0.8140539527
-2.741597652 -3.212268353 0.9650366306
-2.753302097 -3.223702669 1.124361992
-2.308692455 -2.696454287 -0.9395651817
-2.325538158 -2.714210987 -0.8152192235
-2.698093653 -3.147920609 -0.7976444364
-2.698799849 -3.146521091 -0.6498803496
-2.714199543 -3.162240028 -0.5065456033
-2.716746569 -3.164091349 -0.3611480296
-2.723056793 -3.169200182 -0.216776669
-2.737848997 -3.184166908 -0.07260021567
-2.722625256 -3.178785563 0.07235588133
-2.737379074 -3.193755627 0.2182420939
-2.735287428 -3.190186977 0.3639370203
-2.744670153 -3.198871374 0.5123953223
-2.745486259 -3.19756341 0.6608307958
-2.751277685 -3.203175783 0.8125275373
-2.766765833 -3.21893549 0.9699855447
-2.768317461 -3.218465805 1.125914931
-2.310522079 -2.6796 -0.9364593625
-2.31972146 -2.688371897 -0.8098204136
-2.707783461 -3.136996508 -0.7972627878
-2.714931965 -3.143060684 -0.6511318088
-2.72262454 -3.149743557 -0.5060580969
-2.731684446 -3.159110069 -0.3616709709
-2.731488228 -3.156655788 -0.2165673375
-2.747637987 -3.173078537 -0.07256531715
-2.73370409 -3.169262886 0.07235588133
-2.743290901 -3.178132296 0.2178233862
-2.749010086 -3.183635712 0.3642856181
-2.753224611 -3.186266661 0.5119078159
-2.774719954 -3.208879471 0.6652109623
-2.765011072 -3.196522236 0.8132907748
-2.774159193 -3.204838037 0.9686357975
-2.784593582 -3.214624166 1.127985477
-2.317327738 -2.668601751 -0.9354240894
-2.3201437 -2.669961452 -0.806671083
-2.722580671 -3.131971121 -0.7984076738
-2.733666658 -3.142506599 -0.653009057
-2.729692698 -3.135728836 -0.5053268671
-2.751854897 -3.160072327 -0.3628911376
-2.73199296 -3.135055304 -0.2157299519
-2.763401747 -3.169979334 -0.07270493358
-2.757864237 -3.174798012 0.07270493358
-2.760364532 -3.17655611 0.2183467597
-2.767951012 -3.183041573 0.3653315008
-2.772148132 -3.185621977 0.5133702159
-2.782752037 -3.196680546 0.6645852327
-2.781309843 -3.192773104 0.8148172498
-2.786610603 -3.19660306 0.9690858126
-2.797778606 -3.208284855 1.12902081
-2.316455126 -2.6488626 -0.9312829971
-2.323852539 -2.656385899 -0.8048714995
-2.733496904 -3.122448444 -0.7984076738
-2.754483223 -3.145313263 -0.6555120349
-2.7492342 -3.137109756 -0.5070330501
-2.75761342 -3.144456148 -0.3621939123
-2.742374182 -3.12597847 -0.2157299519
-2.77181077 -3.157308817 -0.07263512164
-2.769693375 -3.167139769 0.0727398321
-2.772751808 -3.168404341 0.2184514254
-2.775107145 -3.168863535 0.3648085594
-2.790545225 -3.185370445 0.5148326755
-2.786080122 -3.178035021 0.6627080441
-2.800943613 -3.193864584 0.8174885511
-2.804908037 -3.196132421 0.9717851281
-2.806410551 -3.195595741 1.127985477
-2.30863142 -2.62231636 -0.9245536923
-2.326669216 -2.640947342 -0.8026219606
-2.742537975 -3.111893654 -0.7980260253
-2.760219097 -3.129752874 -0.6542605162
-2.768049479 -3.136424065 -0.50849545
-2.766706944 -3.133800268 -0.3620195687
-2.781039476 -3.147819281 -0.2179280818
-2.781490564 -3.146116018 -0.07260021567
-2.780731916 -3.157452583 0.0727398321
-2.787755966 -3.163201571 0.2187654376
-2.790870667 -3.165621519 0.3655057847
-2.806900501 -3.181564331 0.5158076286
-2.807615519 -3.180136919 0.6652109623
-2.810775757 -3.182596445 0.8171069622
-2.813466072 -3.183402538 0.970885396
-2.821388006 -3.190121412 1.129538417
-2.310081482 -2.605568647 -0.9214478731
-2.3203547 -2.615316391 -0.7972231507
-2.759899855 -3.109642982 -0.7999341488
-2.765880346 -3.114191294 -0.653009057
-2.78161788 -3.129710913 -0.5089829564
-2.78689599 -3.13454628 -0.3632397354
