# .PCD v0.7 - Point Cloud Data file format
VERSION 0.7
FIELDS x y z
SIZE 4 4 4
TYPE F F F
COUNT 1 1 1
WIDTH 1265
HEIGHT 1
VIEWPOINT 0 0 0 1 0 0 0
POINTS 1265
DATA ascii
7.213990211 -5.320556164 0.4675706029
7.206864834 -5.317243099 0.7798442245
7.094222546 -5.237960339 1.077625394
7.134274006 -5.271381378 1.398262978
7.149990082 -5.2849226 1.720015287
6.82007885 -5.04475069 1.948522687
5.898052216 -4.365921497 1.954653502
7.031387329 -5.218161583 -2.334599733
7.070084095 -5.250707626 -2.023206472
7.115432262 -5.290169239 -1.397637248
7.146644592 -5.317249775 -1.088593483
7.157357216 -5.327160358 -0.7768809199
7.160006046 -5.333016872 -0.4656865001
7.176412582 -5.349133015 -0.1555340588
7.178641319 -5.329385281 0.1553595215
7.184151649 -5.337368011 0.4668379128
7.185061932 -5.339989662 0.7794955373
7.061559677 -5.252029419 1.075431705
7.112661362 -5.293893337 1.397637248
7.122051239 -5.302814007 1.717725515
6.802427769 -5.068526745 1.948522687
5.885873795 -4.388793468 1.955688834
7.011582851 -5.241517544 -2.334082127
7.047031879 -5.271853447 -2.021856785
7.08706665 -5.303731918 -1.712382913
7.060555458 -5.287738323 -1.390441179
7.118510723 -5.335020542 -1.087131262
7.138718128 -5.352112293 -0.7768809199
7.146138668 -5.361573696 -0.4660004973
7.154498577 -5.371748924 -0.155464232
7.149486542 -5.350444794 0.4657911658
7.159998417 -5.360262394 0.7787983418
7.033650875 -5.269505978 1.073969245
7.090976238 -5.316318989 1.397011399
7.100355148 -5.325286388 1.716962218
6.778459072 -5.087561131 1.946722984
5.873607635 -4.411632061 1.956724048
6.985527039 -5.260149956 -2.331493855
7.028586864 -5.296419621 -2.021856785
7.05283165 -5.31662035 -1.708566666
7.079903126 -5.340904236 -1.397950053
6.917646408 -5.222290993 -1.059101224
7.096144199 -5.358987808 -0.774266243
7.117819309 -5.379259586 -0.465372473
7.091046333 -5.36291647 -0.1544869095
6.681255817 -5.032859325 0.1453069299
7.124385834 -5.370559692 0.465372473
7.128517151 -5.37562561 0.7774038911
7.018383026 -5.296417236 1.074456811
7.056612968 -5.329133987 1.393882751
7.078590393 -5.347671986 1.71619904
6.757549763 -5.108840942 1.945823312
5.861253738 -4.434439659 1.95775938
6.975907803 -5.306524754 -0.7631103396
7.01954031 -5.343585014 -0.4601388872
6.88776207 -5.247067928 -0.1504379511
6.756043434 -5.12625742 0.1473314166
7.102415085 -5.392980099 0.4651631415
7.097016811 -5.390833855 0.7760093212
6.993531704 -5.316078663 1.073481798
7.028534889 -5.346557617 1.392005563
7.053631306 -5.367592812 1.714672685
6.745876789 -5.137121201 1.947623014
5.839592457 -4.45018816 1.955688834
6.980603695 -5.33707428 -2.018707514
6.854921818 -5.242879868 -1.669259906
6.275378704 -4.803097725 -1.244957089
7.044917583 -5.395994186 -1.084450006
7.07216835 -5.422744274 -0.4648491442
7.062952042 -5.419593811 -0.1546963304
7.079699993 -5.410881519 0.1548359543
7.081960201 -5.416526318 0.4650584757
7.074991226 -5.413153172 0.7756607533
6.967051506 -5.334424019 1.072263122
7.009829044 -5.371059418 1.392005563
7.016153812 -5.377849579 1.710093141
6.743366718 -5.172497272 1.952121854
5.820958138 -4.468192577 1.954653502
6.916282177 -5.322408676 -2.326835155
6.950113773 -5.354240417 -1.697118163
6.261703968 -4.827385902 -1.245582938
7.01818037 -5.414488792 -1.08323133
7.033327579 -5.428133965 -0.7735689878
7.031066418 -5.430305958 -0.4633837342
7.051902771 -5.450329781 -0.1548708677
7.054430485 -5.430681705 0.1546963304
7.053516865 -5.433900356 0.4644304216
7.057631016 -5.439032555 0.7758350372
6.934241295 -5.347800732 1.070069432
6.992601871 -5.396702766 1.392318368
6.98956871 -5.396308899 1.708185077
6.719102383 -5.191239357 1.95032239
5.816023827 -4.4967556 1.958276987
6.208685398 -4.815949917 -1.80410409
6.245809555 -4.84649229 -1.52844286
6.24481535 -4.849214077 -1.245582938
6.986697674 -5.429210186 -1.081281424
7.014337063 -5.452651978 -0.7735689878
7.008914948 -5.452362537 -0.4631743729
7.024944305 -5.468770027 -0.1546963304
7.035430431 -5.455273628 0.1546963304
7.023460388 -5.449917316 0.4636977315
7.030732155 -5.457527161 0.7749634385
6.906125546 -5.364666462 1.068606973
6.962803364 -5.412591934 1.390128374
6.975338459 -5.424289227 1.709329844
6.694788933 -5.20987463 1.948522687
5.80181551 -4.518217087 1.958794594
6.185694695 -4.832794666 -1.802304626
6.221625805 -4.866114616 -1.24433136
6.989840031 -5.476795673 -0.4631743729
6.988502502 -5.479685783 -0.1543123722
7.014770031 -5.478566647 0.1546614319
7.001246929 -5.471941471 0.4634884
7.00536108 -5.477127552 0.774266243
6.884230614 -5.386294842 1.068119526
6.931425571 -5.427121639 1.387625456
6.950179577 -5.443762779 1.707803488
6.670426369 -5.228403091 1.946722984
5.792089462 -4.543210506 1.960865259
6.887028694 -5.419557571 -2.013308764
4.405408859 -3.467959881 -1.081568241
6.190636635 -4.876801014 -1.241515517
6.477828979 -5.106708527 -1.00767231
6.494251251 -5.121492863 -0.7198810577
6.97067976 -5.501161098 -0.4631743729
6.969332218 -5.50404644 -0.1543123722
6.987744808 -5.496838093 0.1544869095
6.978964329 -5.49387598 0.4632790387
6.972112179 -5.49045229 0.7726973891
6.871623039 -5.415205956 1.069094419
6.912438869 -5.451283932 1.387625456
6.917262077 -5.457046509 1.70436883
6.664371967 -5.261315346 1.95032239
5.777710915 -4.56459856 1.961382866
4.353279591 -3.451603889 -1.071646214
6.182859898 -4.90574789 -1.243392825
6.466182232 -5.134227276 -1.008647323
6.484135151 -5.150326729 -0.7207525969
6.942053318 -5.51800251 -0.4625463188
6.944781303 -5.522149086 -0.1541727632
6.951274395 -5.507537365 0.1541029662
6.956012249 -5.51326704 0.4629650414
6.945099831 -5.50856638 0.7718259096
6.848014355 -5.435457706 1.068363309
6.891229153 -5.471719742 1.386999607
6.885874748 -5.471387863 1.70131588
6.64596653 -5.284546375 1.95032239
5.764053822 -4.584935665 1.961900473
4.319726467 -3.449626923 -1.066303492
6.14803791 -4.911428928 -1.239638448
6.45687294 -5.161838531 -1.009865999
6.473896503 -5.179152966 -0.7216241956
6.90812397 -5.528513908 -0.4614996314
6.925462723 -5.546358109 -0.1541727632
6.928282738 -5.526816368 0.1539982408
6.932042122 -5.533775806 0.4626509845
6.92738533 -5.53401947 0.7720001936
6.815995216 -5.446982861 1.06616962
6.865917206 -5.490806103 1.385748267
6.866160393 -5.492966175 1.700934291
6.622320175 -5.301684856 1.948522687
4.271542072 -3.434408188 -1.057144761
6.132395267 -4.934097767 -1.239951253
6.437269688 -5.183101177 -1.009622216
6.464444637 -5.206841946 -0.7224957943
6.888783455 -5.552594662 -0.4614996314
6.898278236 -5.564221382 -0.1539982408
6.915183544 -5.555976391 0.1541378647
6.904900551 -5.551682472 0.4621276557
6.910548687 -5.558209419 0.7721745372
6.78611517 -5.46202898 1.064463377
6.845170498 -5.51350069 1.385435343
6.846944332 -5.516900063 1.700934291
6.597705364 -5.31987524 1.946722984
5.838650227 -4.711196423 1.998652816
4.204601288 -3.404819012 -1.043406487
6.110530376 -4.951743126 -1.239012599
6.420679569 -5.206790447 -1.009865999
6.444682121 -5.228119373 -0.7223213911
6.866257191 -5.574088573 -0.4612902403
6.860188007 -5.573135376 -0.1535793841
6.895747662 -5.580081463 0.1541378647
6.876166821 -5.568210125 0.4614996314
6.878719807 -5.572265148 0.7707800269
6.767007828 -5.485683441 1.064463377
6.810542107 -5.524915695 1.382306576
6.827645302 -5.540766716 1.700934291
6.576069355 -5.340416431 1.945823312
5.807177067 -4.719364643 1.99347651
4.186604977 -3.414511919 -1.041880012
6.085556507 -4.966796398 -1.237448215
6.411690235 -5.23670435 -1.01132834
6.420222282 -5.245541573 -0.7216241956
6.837481499 -5.590438366 -0.4606622756
6.839145184 -5.595782757 -0.1535444707
6.863826275 -5.594011307 0.1538586169
6.856688499 -5.592178822 0.4614996314
6.84070158 -5.581128597 0.7686882615
6.74320507 -5.505505562 1.063732266
6.785096169 -5.543656349 1.381055236
6.796102047 -5.554625988 1.697881341
6.566439152 -5.370741367 1.948522687
5.786183357 -4.735936642 1.991923451
4.180729389 -3.434089422 -1.043406487
6.042240143 -4.966685295 -1.232129455
6.391839027 -5.25779295 -1.011084676
6.414180279 -5.278048515 -0.7230186462
6.811758518 -5.609191895 -0.4602435529
6.819570541 -5.619621277 -0.1535444707
6.828801155 -5.605249405 0.1535095721
6.830952644 -5.611007214 0.4610809088
6.818099022 -5.602443218 0.7683396935
6.72241354 -5.527749538 1.063488483
6.765703678 -5.567306995 1.381055236
6.767576218 -5.570828915 1.695591688
6.547651768 -5.393630028 1.948522687
5.775579453 -4.76102066 1.993994117
6.015739441 -4.976652622 -1.509361982
6.006607533 -4.972630024 -1.228375077
6.376503468 -5.282604694 -1.011572123
6.404922009 -5.30803299 -0.7240645289
6.779838085 -5.6227355 -0.4594061971
6.79991293 -5.643391609 -0.1535444707
6.806111813 -5.626503944 0.1534397751
6.802091122 -5.627179146 0.4604528844
6.798501015 -5.626208305 0.7683396935
6.683201313 -5.534720898 1.060319901
6.746229172 -5.590888977 1.381055236
6.742043495 -5.589405537 1.694065094
6.525784492 -5.413963795 1.947623014
5.782707214 -4.800896168 2.002276182
5.987772942 -4.988824368 -1.506690741
5.986178398 -4.991036892 -1.227749348
6.364122391 -5.309918404 -1.012547135
6.390943527 -5.334188461 -0.7245874405
6.755570889 -5.64252615 -0.4590921402
6.77096653 -5.659398556 -0.1533350497
6.783355713 -5.647667885 0.1533699483
6.770131588 -5.64066124 0.4596155286
6.778820992 -5.649904728 0.7683396935
6.663840771 -5.558016777 1.060319901
6.714539528 -5.604277134 1.378552198
6.722491264 -5.612905979 1.694065094
6.500864983 -5.431711674 1.945823312
5.81926775 -4.865662575 2.020911217
4.164268017 -3.492997169 -1.244875789
3.177635431 -2.668243408 -0.6505061388
6.734305859 -5.664787769 -0.4589874744
6.738930702 -5.672697067 -0.1530558169
6.760535717 -5.668743134 0.1533001363
6.750400543 -5.66425848 0.4596155286
6.749901295 -5.665847301 0.7672938108
6.650479317 -5.586351395 1.061294794
6.676790714 -5.612429142 1.374797821
6.696848869 -5.631284237 1.692538738
6.481864929 -5.454370499 1.945823312
5.684030533 -4.786397934 1.979500175
3.133806705 -2.647334576 -0.9371427298
3.15018487 -2.662112474 -0.79344666
3.160760403 -2.672940969 -0.6489417553
3.161412954 -2.675386429 -0.5033769608
3.166252375 -2.680430651 -0.3592305779
6.714490414 -5.688260555 -0.4589874744
6.716038704 -5.693600178 -0.1529860049
6.737651825 -5.689727306 0.1532303393
6.727537155 -5.685209274 0.4594061971
6.717910767 -5.679084301 0.7658993602
6.624876499 -5.604403019 1.060319901
6.651128769 -5.630596161 1.373546362
6.671157837 -5.649550915 1.691012263
6.479140282 -5.490823269 1.950772285
5.695282459 -4.829949856 1.989335179
0.7675625086 -0.652554214 -0.2583534718
3.124546528 -2.658257246 -0.9371427298
3.133397818 -2.666730404 -0.7915384769
3.146899223 -2.680115461 -0.6480031013
3.16565156 -2.697993994 -0.5055705905
3.156876564 -2.691466808 -0.3592305779
6.682439327 -5.701292992 -0.4581501186
6.699164391 -5.719604969 -0.1530558169
6.702516556 -5.700254917 0.1528812796
6.706130505 -5.707363605 0.4593015313
6.691977024 -5.697333813 0.7652020454
6.599228859 -5.622344971 1.059344888
6.63143301 -5.65377903 1.373546362
6.639446735 -5.662611485 1.687959313
6.448075294 -5.503284931 1.94717288
5.704829216 -4.872384548 1.998652816
0.7652800083 -0.6552295089 -0.2583534718
5.88551569 -5.042715549 -1.77935946
5.889212608 -5.047665119 -1.499440074
5.872426987 -5.036835194 -1.21867609
6.65037775 -5.714171886 -0.4573127627
6.67612648 -5.740347385 -0.1529860049
6.673465252 -5.715811729 0.1526718438
6.678584099 -5.724238396 0.4587781727
6.669024467 -5.718064785 0.7648534775
6.567511082 -5.635004997 1.057395101
6.617652893 -5.682038784 1.374797821
6.616661072 -5.683194637 1.687196136
6.427348614 -5.524489403 1.946722984
5.78152132 -4.972893238 2.031781435
0.7103177905 -0.6124811172 -0.2397184968
5.823615074 -5.025036812 -1.765862465
5.870070457 -5.066908836 -1.499058366
5.851819515 -5.054720402 -1.21805048
6.295368195 -5.443609715 -0.7244131565
6.630391598 -5.737350941 -0.4573127627
6.651512623 -5.759689331 -0.1528812796
6.653473377 -5.739072323 0.1526718438
6.643443108 -5.734465599 0.4577314258
6.652040005 -5.743913174 0.7652020454
6.540290833 -5.651405334 1.056176305
6.585824013 -5.694767475 1.372294784
6.593812466 -5.703687668 1.686432719
6.399184227 -5.539237976 1.944023609
5.77288866 -5.00063324 2.034887314
5.826633453 -5.063229084 -1.772161126
5.841976643 -5.078352451 -1.496387005
5.831158638 -5.072523117 -1.217424631
6.256015301 -5.445943832 -1.013278246
6.291353703 -5.478637218 -0.7261562943
6.607311249 -5.757835388 -0.4571033716
6.614788532 -5.768415451 -0.1524973363
6.636418819 -5.764885426 0.1527416706
6.620371342 -5.755000591 0.4575220942
6.622929096 -5.759253979 0.7641561627
6.522020817 -5.675504208 1.056420088
6.551008224 -5.704749584 1.369166136
6.573863506 -5.726668835 1.686432719
6.37687254 -5.558981419 1.943123817
5.71754837 -4.987734795 2.021428823
0.758376658 -0.6632074714 -0.2583534718
5.825690269 -5.100007057 -1.496768594
5.810444832 -5.090242863 -1.216798902
6.236967087 -5.467747688 -1.013278246
6.267697811 -5.496623039 -0.7256333232
6.587172508 -5.780864716 -0.4571033716
6.58860302 -5.78619194 -0.1523577124
6.613244534 -5.785381794 0.1526718438
6.600241661 -5.778075218 0.4575220942
6.587796211 -5.769210339 0.7624130249
6.497691154 -5.694311142 1.055688858
6.528085232 -5.72497654 1.368540287
6.54202652 -5.73922348 1.683379889
6.363286972 -5.586349964 1.94492352
5.691394806 -5.000011921 2.018322945
0.7038650513 -0.6198858619 -0.2397184968
5.801962852 -5.11511755 -1.495242238
5.783753395 -5.102653503 -1.214921713
6.231236935 -5.501310349 -1.015472054
6.239512444 -5.51055479 -0.7245874405
6.557975292 -5.795887947 -0.4564754069
6.57285881 -5.813128948 -0.1524624228
6.575004578 -5.792568207 0.1522530019
6.583028793 -5.803719521 0.4577314258
6.564629078 -5.789535522 0.7620644569
6.476286888 -5.71564436 1.055445194
6.508060932 -5.747729301 1.368540287
6.516067505 -5.75682497 1.681853294
6.343748569 -5.608528137 1.94492352
5.69705677 -5.04033041 2.026605129
0.7537281513 -0.6684857607 -0.2583534718
5.788476467 -5.139249802 -1.496387005
5.761476517 -5.118875504 -1.213983178
6.209029198 -5.520390511 -1.014984608
6.22321701 -5.534949303 -0.7249361277
6.519800663 -5.802808762 -0.4552193284
6.547571659 -5.829575062 -0.1523228139
6.545769691 -5.807520866 0.152043581
6.551796436 -5.814912319 0.4568940401
6.541400909 -5.809769154 0.7617158294
6.441458702 -5.725027561 1.053007722
6.486012936 -5.766653538 1.367914677
6.492999077 -5.776925564 1.681090117
6.321220398 -5.628045082 1.944023609
5.622606277 -5.007799149 2.005899668
0.6995202899 -0.6247845888 -0.2397184968
5.763184547 -5.152881145 -1.49447906
5.750359535 -5.143220901 -1.215234637
6.183292866 -5.534330368 -1.013765812
6.197920799 -5.55132103 -0.7242388725
6.503496647 -5.827063084 -0.4554286599
6.527183056 -5.852394581 -0.1523228139
6.532440186 -5.834524155 0.15218319
6.518056393 -5.825768471 0.4559520185
6.524050713 -5.835224152 0.7620644569
6.415041447 -5.739739418 1.051789165
6.457013607 -5.781352997 1.366037369
6.473806381 -5.798424721 1.681090117
6.296718597 -5.643774033 1.942224145
0.7204294205 -0.647767365 -0.2480006814
0.7694072723 -0.6922912598 -0.2289967537
5.748983383 -5.174591064 -1.495242238
5.738242149 -5.168550014 -1.216486096
6.162462234 -5.554550648 -1.013522148
6.477185249 -5.844376564 -0.4550099373
6.491872311 -5.861741066 -0.1519737542
6.51500845 -5.859965324 0.1522530019
6.493227959 -5.844476223 0.4556379914
6.501703262 -5.854160309 0.7617158294
6.397916317 -5.764754772 1.052276492
6.427990913 -5.795920372 1.36416018
6.450612545 -5.818357944 1.680326939
6.274086952 -5.663108349 1.941324353
0.7468046546 -0.6762116551 -0.2583534718
0.7958678603 -0.7211428285 -0.2379947752
5.730885506 -5.194627285 -1.495242238
5.718702793 -5.187222004 -1.216173172
6.151854992 -5.584033966 -1.014984608
6.047889709 -5.491589546 -0.7109912038
6.465614319 -5.875010014 -0.4556379914
6.468412876 -5.881676674 -0.1519039571
6.482656479 -5.871931553 0.1519737542
6.472786903 -5.867106438 0.4556379914
6.470897675 -5.867451191 0.7604956627
6.380694866 -5.789720535 1.052763939
6.4047966 -5.815667152 1.363534451
6.424449444 -5.835559368 1.678800464
6.257164001 -5.687595844 1.942224145
5.635595322 -5.126199722 2.029711008
0.7073246241 -0.6449711919 -0.2448948622
0.8048619032 -0.7344248295 -0.2415940166
5.706917763 -5.209305763 -1.493715763
5.693268299 -5.200490952 -1.214608788
6.038975716 -5.522078514 -0.7122113705
6.433279514 -5.886757851 -0.4548006058
6.443418503 -5.900168419 -0.1517992467
6.45325613 -5.886438847 0.1517643183
6.45816803 -5.895051003 0.4560566843
6.445962906 -5.8859725 0.7599726915
6.357514858 -5.809279919 1.052276492
6.384456635 -5.837988377 1.363534451
6.391002655 -5.846023083 1.675365925
6.245898247 -5.717297077 1.94492352
5.601997375 -5.131486416 2.024016857
0.7735950351 -0.7108587623 -0.2325959653
5.691072941 -5.235043526 -1.21805048
6.393140793 -5.88497448 -1.06178236
6.016731262 -5.540424824 -0.7118626833
6.398004055 -5.895643234 -0.4537539184
6.422783375 -5.922624588 -0.1517992467
6.42972374 -5.906224251 0.1516945213
6.425787926 -5.906745434 0.4552193284
6.425377369 -5.908437252 0.7599726915
6.322589874 -5.817993641 1.049839139
6.364039421 -5.860239029 1.363534451
6.369114399 -5.866965771 1.674984336
6.217305183 -5.73113966 1.942224145
5.562751293 -5.131361961 2.016252279
0.7396825552 -0.6839949489 -0.2583534718
0.7882726192 -0.7294374704 -0.2379947752
5.651681423 -5.231682777 -1.488754749
5.794493675 -5.367638588 -1.24433136
6.363823891 -5.899158001 -1.060319901
6.004659653 -5.568167686 -0.712734282
6.377385139 -5.917940617 -0.4537539184
6.399139404 -5.942285061 -0.1517294198
6.406131744 -5.925915718 0.1516247094
6.393404007 -5.918284893 0.4543819129
6.404713631 -5.930830479 0.7599726915
6.299331665 -5.837330818 1.049351692
6.337749958 -5.877045155 1.362282991
6.348596096 -5.889163017 1.674984336
6.191548824 -5.747503281 1.940424442
5.536313534 -5.142859459 2.0131464
0.6666010022 -0.6207459569 -0.2324715555
0.7885729671 -0.734841764 -0.2388945967
5.787277699 -5.398612022 -1.246834278
6.3402915 -5.918626308 -1.059832454
5.982274532 -5.586374283 -0.7123857141
6.356688976 -5.94016552 -0.4537539184
6.362291813 -5.949563026 -0.1513454765
6.385407925 -5.948241234 0.1516247094
6.368324757 -5.936480999 0.4540679157
6.37231493 -5.942279816 0.7585781813
6.283270836 -5.863346577 1.050082803
6.305647373 -5.888346672 1.359780073
6.32369566 -5.90726757 1.673839331
6.171448708 -5.769081116 1.940424442
5.49716568 -5.142357826 2.005382061
0.7348893285 -0.6891421676 -0.2583534718
0.7774767876 -0.7295888066 -0.2361951619
5.791433811 -5.440421104 -1.251840353
6.321039677 -5.942081928 -1.060076237
5.949675083 -5.594937801 -0.7108168602
6.338824749 -5.965055943 -0.4539632499
6.337118149 -5.967622757 -0.1512407511
6.361688614 -5.967757702 0.1515548974
6.351931572 -5.962774277 0.4543819129
6.345724583 -5.959032536 0.7578809857
6.256979465 -5.879805565 1.049107909
6.282176495 -5.907615185 1.359154344
6.300177097 -5.926614761 1.673076153
6.156949043 -5.795931816 1.942224145
0.6819149852 -0.6439538002 -0.2397184968
0.7862563729 -0.7430059314 -0.2397943884
6.265703201 -5.923110008 -1.66773355
5.769537449 -5.457888126 -1.251214504
6.291609287 -5.955922604 -1.058613777
5.930108547 -5.615672112 -0.7108168602
6.309265614 -5.978903294 -0.4533352256
6.322052002 -5.995210648 -0.1513803899
6.326282024 -5.976196289 0.1512058526
6.328176498 -5.982167244 0.4541725814
6.316199303 -5.972932339 0.7568351626
6.230649471 -5.896152973 1.048132896
6.267254353 -5.934941292 1.360405922
6.270899296 -5.940469265 1.6707865
6.139508724 -5.820069313 1.943123817
0.6880626082 -0.654317677 -0.242824316
6.246411324 -5.946298599 -1.668115139
5.74186945 -5.469819546 -1.249337435
5.914795876 -5.640462875 -0.7113398314
6.279686928 -5.992617607 -0.4527071714
6.299641132 -6.015861511 -0.1513454765
6.299586773 -5.992729187 0.1510662287
6.300023079 -5.99733448 0.453649193
6.298197269 -5.997691154 0.7571837306
6.192785263 -5.901432514 1.045208097
6.239351749 -5.949965477 1.358841538
6.243021965 -5.955546379 1.668878317
6.113517284 -5.836082935 1.941324353
5.493303299 -5.247680187 2.024016857
0.6774027944 -0.6486986279 -0.2397184968
0.7472822666 -0.7161173224 -0.2289967537
6.214279175 -5.957198143 -1.665062308
5.705635548 -5.473419189 -1.245582938
5.877545834 -5.642273903 -0.995241642
5.897944927 -5.663835049 -0.7116883993
6.25729084 -6.013117313 -0.4526025057
6.268512726 -6.028110981 -0.1511011273
6.284406662 -6.020215988 0.1512058526
6.268956661 -6.009613991 0.452916503
6.280098915 -6.022397518 0.7575323582
6.175012589 -5.92576313 1.045695662
6.217119694 -5.970340252 1.358528614
6.223610878 -5.978662491 1.669259906
6.081869125 -5.846582413 1.937724948
5.463813782 -5.256109238 2.019875765
0.6751343012 -0.6510592699 -0.2397184968
6.182147503 -5.967944622 -1.662009358
5.689335823 -5.49604702 -1.246208668
5.898771763 -5.700357914 -1.002066255
5.875274181 -5.681618214 -0.7113398314
6.240568638 -6.039088726 -0.452916503
6.236994743 -6.0377388 -0.1508218944
6.260476112 -6.039339542 0.1511360556
6.246120453 -6.027595997 0.4527071714
6.256171703 -6.04151535 0.7571837306
6.158572197 -5.951419353 1.046426773
6.188766003 -5.982686996 1.356651425
6.204114914 -6.001716137 1.669641733
6.065248966 -5.869429111 1.938624978
5.440802574 -5.268823147 2.017805338
0.670199275 -0.6506032944 -0.2386832088
5.682408333 -5.525900841 -1.248711586
5.980861664 -5.818164349 -1.019371748
5.843552589 -5.68856287 -0.7097710371
6.216216564 -6.055569649 -0.4526025057
6.214073658 -6.055596828 -0.1507520974
6.231806755 -6.051708221 0.1509266198
6.227530003 -6.049666405 0.4528118372
6.221817493 -6.048340321 0.7554405928
6.14022541 -5.973193169 1.046670556
6.166060925 -6.000421047 1.356025577
6.178552151 -6.016777039 1.668115139
6.048543453 -5.892230034 1.939524651
5.41638422 -5.280094624 2.015217066
5.520069599 -5.403764725 -1.216798902
5.926483154 -5.8056674 -1.013522148
5.833194256 -5.716275215 -0.7108168602
6.191823006 -6.07195425 -0.4522884786
6.195753098 -6.080052376 -0.1508218944
6.205984592 -6.066748619 0.1507869959
6.209229946 -6.07416153 0.4530211687
6.203150749 -6.070333004 0.7556149364
6.109038353 -5.982411385 1.04472065
6.143666744 -6.020524979 1.355712771
6.145947933 -6.024864674 1.664680719
6.027938366 -5.913307667 1.939524651
5.389648914 -5.290848732 2.012111187
0.7180794477 -0.70664078 -0.2583534718
5.431902885 -5.350976944 -1.473871589
5.450530052 -5.373076439 -1.20553565
5.862371922 -5.783102512 -1.005966187
5.808950901 -5.732404709 -0.7102939487
6.159221172 -6.082304478 -0.451451093
6.178759098 -6.105860233 -0.1509266198
6.181920052 -6.085568905 0.1507171839
6.178030014 -6.085988045 0.4522884786
6.180503368 -6.090550423 0.7554405928
6.076810837 -5.992549419 1.042770743
6.125426292 -6.044709682 1.35633862
6.126277924 -6.047660351 1.665062308
6.007260799 -5.934312344 1.939524651
5.332678795 -5.271601677 1.997617364
5.413191319 -5.369905472 -1.473871589
5.426134109 -5.38650322 -1.204284191
5.811166763 -5.772753239 -1.000604033
5.793553829 -5.75927496 -0.7109912038
6.137952328 -6.103767395 -0.451451093
6.14890337 -6.118927002 -0.1507171839
6.160639763 -6.107110977 0.1507171839
6.151076317 -6.101890087 0.4518698156
6.163449287 -6.116297722 0.7559635639
6.054447174 -6.012325764 1.04252696
6.10288763 -6.064661503 1.356025577
6.103737354 -6.067623615 1.664680719
5.980983257 -5.949748516 1.937724948
5.387918949 -5.384158134 -1.472345114
5.409148693 -5.409148693 -1.204909921
5.764316082 -5.766327858 -0.9959728718
5.769190311 -5.775234699 -0.7104682326
6.118362427 -6.129049778 -0.4516604841
6.111968994 -6.124782562 -0.1503332257
6.139284134 -6.128578663 0.1507171839
6.125501156 -6.11908865 0.4515557587
6.128308296 -6.126168728 0.7543947101
6.041844845 -6.041844845 1.04398942
6.070509434 -6.07474947 1.353522658
6.078682899 -6.087174892 1.663917303
5.959136009 -5.971629143 1.937724948
5.339405537 -5.352468491 2.014181852
5.335878849 -5.369511127 -1.463186264
5.359611988 -5.397160053 -1.198026776
5.736150742 -5.780371189 -0.9947541952
5.739566803 -5.787852287 -0.7094223499
6.094118118 -6.147532463 -0.451451093
6.095108509 -6.152826309 -0.1504728645
6.111140251 -6.145366669 0.1505775601
6.104440212 -6.142916203 0.4516604841
6.09986639 -6.140456676 0.7535232306
6.018261433 -6.062539577 1.043745637
6.0454216 -6.094153881 1.352896929
6.05878067 -6.109751701 1.66429913
5.943741322 -5.997931957 1.939524651
5.310236931 -5.362393379 2.010558367
5.291345596 -5.363873959 -1.456317186
5.312058926 -5.388633251 -1.191769361
5.710365295 -5.794703007 -0.9937791824
5.716532707 -5.80501318 -0.709073782
6.065942287 -6.164133072 -0.4510324597
6.07359457 -6.174064159 -0.1504728645
6.078410149 -6.155278206 0.1502983272
6.084362984 -6.165608883 0.4517651498
6.075920582 -6.161353588 0.753348887
5.994275093 -6.080683708 1.04325819
6.026884556 -6.118032932 1.353522658
6.023950577 -6.119326115 1.660864353
5.929918289 -6.028010845 1.942224145
5.290132046 -5.379519939 2.01004076
0.7246777415 -0.7389837503 -0.2289967537
5.282714367 -5.388883114 -1.458606839
5.30063343 -5.410939217 -1.193020821
5.773047447 -5.89730072 -1.008159757
5.698644638 -5.825362206 -0.7092480659
6.038167953 -6.174591541 -0.4504044056
6.054483891 -6.195600986 -0.150507763
6.057965279 -6.175400734 0.1502983272
6.061086655 -6.182898998 0.4515557587
6.05653429 -6.180411816 0.753348887
5.962966919 -6.089180946 1.041308284
6.009326935 -6.140809059 1.354148388
6.006069183 -6.139623165 1.661245942
5.902778149 -6.038249969 1.939524651
5.270913601 -5.395650864 2.009522915
0.7029972076 -0.7216468453 -0.2583534718
5.280727863 -5.426499844 -1.463567853
5.286273956 -5.435995102 -1.194272399
6.011178017 -6.183588028 -1.053738952
6.012849808 -6.189630508 -0.7512571812
6.01967001 -6.200980186 -0.4507184029
6.024465084 -6.208086967 -0.1502983272
6.036372185 -6.196509838 0.1502983272
6.031108379 -6.195431232 0.4509277344
6.036619663 -6.205424309 0.7536975145
5.941675186 -6.109958649 1.041308284
5.979594707 -6.15324831 1.352271318
5.982158184 -6.160187244 1.660864353
5.875178337 -6.05425024 1.937724948
5.242630959 -5.404310703 2.005899668
5.257659912 -5.440664291 -1.462423086
5.267267227 -5.454414368 -1.194272399
5.976066589 -6.192722797 -1.051545262
5.987056732 -6.206278324 -0.7507341504
5.99382925 -6.217641354 -0.4504044056
5.997207642 -6.223319054 -0.1501587033
6.019181728 -6.224342823 0.1504379511
6.006669998 -6.213573933 0.4507184029
6.012154102 -6.223592281 0.753348887
5.920620441 -6.133123875 1.041552067
5.947105408 -6.162712097 1.349768162
5.964707851 -6.185270786 1.662009358
5.859417915 -6.080334663 1.939524651
5.182186604 -5.379447937 1.989853024
5.253589153 -5.474565506 -1.466620803
5.254620552 -5.477553368 -1.195523858
5.960992813 -6.218237877 -1.052520275
5.955708981 -6.217068195 -0.7495139837
5.978703499 -6.243253231 -0.4508230686
5.975448132 -6.244215012 -0.1501587033
5.98742485 -6.232731342 0.1501587033
5.987709522 -6.237384796 0.4509277344
5.982116699 -6.23591423 0.7523030639
5.904371738 -6.157021999 1.042283297
5.92555809 -6.183433056 1.349768162
5.934657097 -6.195092678 1.659337997
5.839222908 -6.099731445 1.939524651
5.235405922 -5.491957188 -1.466620803
5.240918636 -5.501583099 -1.196775317
5.939250946 -6.23900795 -1.052520275
5.937807083 -6.239670753 -0.7498626709
5.94999218 -6.256848335 -0.4502997398
5.956086159 -6.265445709 -0.1501936167
5.960111618 -6.247806072 0.1500190943
5.966992378 -6.257206917 0.4509277344
5.957281113 -6.25138998 0.7517800331
5.880105495 -6.17471838 1.041795731
5.910468578 -6.208772659 1.35101974
5.903522968 -6.205812931 1.656666517
5.825950623 -6.128551483 1.942224145
5.192027092 -5.463610649 2.007970095
0.6079360247 -0.6415271759 -0.2252246141
5.227001667 -5.521605015 -1.469673753
5.203637123 -5.4988451 -1.19239521
5.910345554 -6.250014782 -1.051057816
5.914621353 -6.258911133 -0.7496883273
5.914124966 -6.260574341 -0.4491483271
5.936925411 -6.289106846 -0.1502634287
5.936608791 -6.264632702 0.1499492675
5.939621925 -6.272196293 0.4505090714
5.938162327 -6.27504158 0.7521287203
5.844591141 -6.178321838 1.039114714
5.888759613 -6.229366302 1.35101974
5.888305187 -6.231063366 1.658193111
5.797568321 -6.139336109 1.939524651
5.155687332 -5.46343565 2.00124073
0.6428818107 -0.6829257011 -0.2397184968
5.203661442 -5.535525322 -1.468528986
5.417081833 -5.76457262 -1.246208668
5.893870831 -6.285121918 -0.4493576586
5.910832882 -6.305415154 -0.1501587033
5.917446136 -6.288230419 0.1500190943
5.906745911 -6.281251431 0.4496717155
5.920050144 -6.297602177 0.7524773479
5.820271015 -6.195790768 1.038627148
5.861570835 -6.244122505 1.349768162
5.864085197 -6.251171589 1.657811522
5.77610302 -6.159536362 1.939524651
5.137906075 -5.482809067 2.001758575
0.6219084859 -0.6655165553 -0.2324715555
5.40130806 -5.790166378 -1.247460127
5.87079525 -6.30668211 -0.4493576586
5.882234097 -6.321181297 -0.1500190943
5.897088051 -6.312798977 0.1500889063
5.88640976 -6.30577898 0.449881047
5.891491413 -6.313430786 0.7517800331
5.804292202 -6.224341393 1.039845824
5.829218864 -6.255448341 1.347578168
5.842471123 -6.274059296 1.658193111
5.750832558 -6.177813053 1.938624978
5.12567091 -5.510089874 2.004864454
0.6851559877 -0.7386071682 -0.2583534718
5.801769257 -6.260955811 -1.650942326
5.385416985 -5.815721989 -1.248711586
5.486118793 -5.926543713 -0.986467123
5.430945396 -5.871050358 -0.6960004568
5.85959053 -6.338869095 -0.4501950443
5.854703903 -6.335800171 -0.1498794705
5.871191978 -6.331438065 0.1500190943
5.864363194 -6.326287746 0.449881047
5.853417873 -6.318903923 0.7498626709
5.777394772 -6.241202831 1.039114714
5.808689594 -6.277207375 1.347890973
5.816536903 -6.290091038 1.657048345
5.734523773 -6.203572273 1.940424442
5.090674877 -5.510919571 1.998652816
5.783634663 -6.283049107 -1.651705503
5.35807848 -5.824825764 -1.246834278
5.43687439 -5.912555695 -0.9811047912
5.403357506 -5.880225182 -0.6949545741
5.830432415 -6.34943819 -0.4495669901
5.839070797 -6.361073971 -0.1500190943
5.839324951 -6.33910656 0.1497398615
5.846057892 -6.348638535 0.4500903785
5.839176655 -6.345609665 0.7507341504
5.752635479 -6.255943298 1.038383365
5.786504745 -6.29498148 1.347578168
5.786349297 -6.299224377 1.654376984
5.719192982 -6.22829628 1.942224145
5.00706625 -5.456600666 1.972770929
5.757693768 -6.298853397 -1.650560737
5.341398716 -5.845478535 -1.247460127
5.418879986 -5.934430599 -0.9815923572
5.374740601 -5.890220165 -0.6939086914
5.79477644 -6.35499382 -0.4485203028
5.816830635 -6.381417274 -0.1500190943
5.815571785 -6.355484962 0.1496700346
5.82251358 -6.367531776 0.4499857128
5.814069271 -6.360527039 0.7502112985
5.726502895 -6.269123077 1.037408471
5.767159462 -6.318059921 1.348204017
5.768294811 -6.32373476 1.65552175
5.689539433 -6.239582539 1.939524651
0.6957756281 -0.7662578821 -0.2289967537
2.461242199 -2.713419914 -0.5735403299
5.354431152 -5.907186031 -0.9737926722
5.361141682 -5.918739319 -0.6949545741
5.774125576 -6.379151821 -0.4487296343
5.788035393 -6.396762371 -0.1498794705
5.796272278 -6.381197929 0.14977476
5.788396835 -6.376999855 0.4491483271
5.794734478 -6.386219501 0.7507341504
5.702153206 -6.288598537 1.037164688
5.738658428 -6.333299637 1.346952438
5.743761063 -6.343379974 1.655140162
5.66401577 -6.25750494 1.938624978
4.886249065 -5.402029991 1.940159798
2.445414782 -2.714002609 -0.7018583417
2.449958324 -2.720954657 -0.5732274652
5.755829811 -6.403725147 -0.4490436912
5.75765276 -6.408002853 -0.1496700346
5.775523663 -6.405370235 0.1498445719
5.760752678 -6.391230583 0.4487296343
5.768621922 -6.404454708 0.7503855824
5.705945969 -6.341545105 1.34444952
5.72814703 -6.370689392 1.657048345
5.636928082 -6.271439552 1.936825275
4.85187149 -5.401806355 1.93394804
2.431164026 -2.716245413 -0.7003318071
2.44618988 -2.734953642 -0.5744789839
5.718975544 -6.396326065 -1.048376679
5.732246399 -6.41567421 -0.7489911318
5.727910995 -6.415327072 -0.4485203028
5.739034653 -6.430044651 -0.1497398615
5.748914242 -6.418528557 0.1497049481
5.742192268 -6.413276196 0.4489390254
5.742037773 -6.417610168 0.7496883273
5.708390713 -6.384487629 1.046426773
5.684885025 -6.360431671 1.34444952
5.695218563 -6.376471996 1.653613687
5.623888016 -6.298820019 1.939524651
4.827501297 -5.41065836 1.931359768
2.424752235 -2.727226734 -0.7010950446
2.429234505 -2.734189749 -0.5726017356
5.654439449 -6.368748188 -1.040577173
5.691305161 -6.414779663 -0.7465507388
5.709255219 -6.437274933 -0.4487296343
5.719207287 -6.453032017 -0.1498096585
5.716963291 -6.425605774 0.1494257003
5.722424984 -6.436265945 0.4491483271
5.715430737 -6.430659294 0.7489911318
5.674005508 -6.388539791 1.04398942
5.66789341 -6.386146545 1.34570086
5.663619041 -6.383573532 1.650560737
5.623843193 -6.34320116 1.94717288
4.816271782 -5.436152458 1.934465647
0.7496445775 -0.8488104343 -0.2514918447
2.412142038 -2.733151913 -0.7003318071
2.411357403 -2.734185934 -0.5707244873
5.676781178 -6.443576813 -0.7475966215
5.675065041 -6.446164131 -0.4478922784
5.699289322 -6.47595787 -0.1498794705
5.6997962 -6.451516628 0.1495653391
5.694635391 -6.450211525 0.4487296343
5.697095394 -6.457539558 0.7496883273
5.645105839 -6.400863647 1.042770743
5.648179054 -6.408856869 1.346326709
5.654457092 -6.420495987 1.654758573
5.57352066 -6.333050251 1.937724948
4.795990467 -5.451480865 1.93394804
0.6006972194 -0.6847227812 -0.2324715555
0.7156972289 -0.8163836002 -0.2406942248
2.397411108 -2.73564887 -0.6988053918
2.401798725 -2.742586374 -0.5707244873
5.641403675 -6.446392059 -1.046670556
5.658189297 -6.467851639 -0.7481195331
5.65252924 -6.465934753 -0.4478922784
5.667621613 -6.487767696 -0.1496700346
5.680066586 -6.476874828 0.1496700346
5.674519062 -6.477387428 0.7496883273
5.633375168 -6.434953213 1.044964314
5.616847992 -6.420594692 1.34444952
5.622963905 -6.429850101 1.652087331
5.54368639 -6.343662262 1.935025573
4.778519154 -5.471932411 1.934983253
2.377537012 -2.732152462 -0.6957524419
2.39221096 -2.750953436 -0.5707244873
5.621471405 -6.469042778 -1.047158003
5.627737999 -6.478538036 -0.7470736504
5.631233692 -6.48713398 -0.4479969442
5.638389111 -6.499958992 -0.1494955122
5.657423019 -6.496662617 0.1496700346
5.641413212 -6.48513031 0.748293817
5.614786148 -6.45907259 1.045695662
5.587924004 -6.432705402 1.342885137
5.604346752 -6.453885078 1.653232098
5.526617527 -6.368862629 1.936825275
4.756858349 -5.485660553 1.93394804
0.6590945721 -0.7619538307 -0.2583534718
2.362850904 -2.734493256 -0.6942259073
2.374847651 -2.75031662 -0.5688472986
5.597393513 -6.484642982 -1.046670556
5.59728241 -6.489090919 -0.7460277677
5.611163616 -6.509777069 -0.4482062757
5.608971596 -6.509532452 -0.1492860913
5.626863956 -6.507294655 0.1494606137
3.465173244 -4.008780003 0.2754976153
2.784730434 -3.223865509 0.3689920008
5.593502522 -6.480135441 1.045939326
5.563981533 -6.448209763 1.342259407
5.577939034 -6.468948841 1.652087331
5.508012295 -6.390106678 1.937724948
4.736119747 -5.498476982 1.932912707
0.6565642357 -0.7641352415 -0.2583534718
0.7072527409 -0.823710084 -0.2406942248
2.355425596 -2.746181488 -0.5663443804
5.581027985 -6.509197235 -1.04764545
5.578325272 -6.510642529 -0.7463763952
5.586946964 -6.525314808 -0.4479969442
5.584753513 -6.525057316 -0.1492162794
5.597436428 -6.516816616 0.1492511779
3.468774319 -4.039947987 0.2768583596
2.772727489 -3.231570244 0.3688177168
5.569399357 -6.495635033 1.04545188
5.542568207 -6.466624737 1.342259407
5.546238899 -6.475480556 1.649034142
5.491860867 -6.41425848 1.939524651
4.716603756 -5.512684822 1.932395101
0.6540266275 -0.7663083076 -0.2583534718
0.7045173645 -0.826050818 -0.2406942248
1.689966917 -1.982197165 -0.4980743229
2.343743801 -2.750969887 -0.5657186508
5.550551414 -6.519570351 -1.046183109
5.555564404 -6.530074596 -0.7463763952
5.557514191 -6.534677029 -0.44736889
5.576188087 -6.561273098 -0.1496002376
5.578391075 -6.538385391 0.1493210047
3.472792387 -4.073309898 0.2783237398
2.768458128 -3.248329639 0.3696892858
5.540105343 -6.504999638 1.04398942
5.527643204 -6.494958401 1.344136715
5.531095505 -6.50131321 1.650942326
5.461864471 -6.424480438 1.936825275
4.69983387 -5.532059669 1.933430433
0.6512135863 -0.768700242 -0.2583534718
1.691568136 -1.998868108 -0.5007455945
2.331094265 -2.756525278 -0.5650929213
5.52007103 -6.529809475 -1.04472065
5.537879944 -6.555515289 -0.7470736504
5.536103725 -6.558055401 -0.4475782812
5.551960945 -6.57916975 -0.1495653391
5.555533886 -6.557817936 0.1493210047
5.549125195 -6.554891586 0.4478922784
2.759106874 -3.261496544 0.3700378835
5.513519287 -6.519751072 1.04325819
5.499836922 -6.508178234 1.342885137
5.505963326 -6.520042896 1.650560737
5.43702364 -6.442967415 1.93637538
4.687968254 -5.557291031 1.936536193
0.5863474011 -0.697050333 -0.2324715555
1.687106371 -2.007766724 -0.501508832
2.32399869 -2.76767087 -0.5657186508
5.496100903 -6.549997807 -1.04472065
5.50613451 -6.566608906 -0.7460277677
5.510611534 -6.574278355 -0.44736889
5.516252995 -6.585677147 -0.1492511779
5.534035206 -6.581196785 0.1493908018
5.525063515 -6.575186253 0.4478922784
5.531084538 -6.584684372 0.7486424446
5.492138386 -6.542955875 1.043745637
5.470868111 -6.522238255 1.341633558
5.489477634 -6.546744347 1.65246892
5.411997795 -6.458919048 1.935475707
4.667568684 -5.574435711 1.936536193
0.5837886333 -0.6991947293 -0.2324715555
0.7081701159 -0.8484655023 -0.245193243
1.68853879 -2.024490595 -0.5041801333
2.306250334 -2.767065525 -0.5638414025
5.128849983 -6.155837536 -0.978667438
5.482646465 -6.58982563 -0.4470548928
5.484280586 -6.594130039 -0.1490068436
5.50846529 -6.597404003 0.1493210047
3.39084363 -4.064044476 0.2751835883
5.470536709 -6.563612461 1.04398942
5.435427189 -6.526117325 1.33850503
5.454142094 -6.553239346 1.649034142
5.3932724 -6.484704494 1.937275171
4.636966228 -5.577325344 1.931877494
0.5814668536 -0.7011268139 -0.2324715555
0.7027171254 -0.847931385 -0.2442934215
1.699350595 -2.051244736 -0.5095227957
2.286984444 -2.762525082 -0.5613384247
5.104800701 -6.17064333 -0.9781799912
5.09943676 -6.166350842 -0.6963490248
5.44931221 -6.594113827 -0.4461128116
5.463657856 -6.61382246 -0.149041757
5.467534542 -6.595040321 0.1488323361
5.468710423 -6.59880209 0.446950227
5.436201572 -6.5689044 1.041795731
5.409977913 -6.53953886 1.337566257
5.426127434 -6.563724518 1.647126198
5.377944469 -6.510066032 1.939524651
4.623365879 -5.598629951 1.93394804
0.5790159106 -0.7031522393 -0.2324715555
0.6776084304 -0.8231748939 -0.2361951619
1.709641099 -2.078390837 -0.5148655176
2.275301933 -2.767042398 -0.5607126951
5.069186211 -6.169132233 -0.9752551317
5.075352669 -6.181035042 -0.6960004568
5.435019016 -6.621411324 -0.4467408657
5.454487324 -6.649860859 -0.1494257003
5.448176861 -6.616221905 0.1489021331
5.443104744 -6.614766121 0.4467408657
5.421951771 -6.596096039 1.04325819
5.40341711 -6.57822752 1.341633558
5.404331207 -6.581682682 1.647126198
5.352618217 -6.52334404 1.938174844
4.607470036 -5.619215965 1.935500979
0.6549990177 -0.8013931513 -0.2289967537
1.713918686 -2.097731829 -0.5183000565
2.265629053 -2.774968147 -0.5607126951
5.050130844 -6.189866066 -0.9757425785
5.056263447 -6.201800823 -0.6963490248
5.419443607 -6.649631977 -0.44736889
5.414825916 -6.648704052 -0.148971945
5.435174465 -6.647584915 0.149181366
5.432618141 -6.64919281 0.4477876127
5.400149345 -6.616519928 1.043501854
5.379173279 -6.595518112 1.341320753
5.385045528 -6.605070591 1.648270965
5.322429657 -6.532924175 1.935475707
4.587827206 -5.635264397 1.935500979
0.6349723339 -0.7821696401 -0.2583534718
0.6841247678 -0.8430171609 -0.2406942248
1.713638067 -2.113148689 -0.5205897689
2.255443096 -2.783253193 -0.5607126951
2.675142288 -3.299990892 0.3679461777
5.374521255 -6.632245541 1.043014407
5.347415924 -6.603509426 1.33913064
5.364505291 -6.629342079 1.64941597
5.300900459 -6.555418491 1.93637538
4.566913605 -5.649742126 1.934983253
0.5885937214 -0.7302341461 -0.2397184968
0.6688061953 -0.8303422332 -0.2361951619
1.72472012 -2.142055273 -0.5263140202
2.240760803 -2.784953117 -0.559461236
3.299123526 -4.103281975 -0.6413331032
3.282883644 -4.084543228 -0.4547532797
3.304355383 -4.114198685 -0.2743462324
3.288824081 -4.096324921 -0.09099505097
3.293459177 -4.087464333 0.09092524648
3.288233042 -4.085354328 0.4551019073
5.358885288 -6.662727833 1.04472065
5.326808453 -6.625213146 1.33975637
5.33641386 -6.641906261 1.647889376
5.282865047 -6.579959869 1.938174844
4.544745922 -5.66263628 1.93394804
0.5860410929 -0.7322843075 -0.2397184968
0.6709184647 -0.8386424184 -0.2379947752
1.738072872 -2.174131393 -0.5328015089
2.221647501 -2.780023098 -0.5569583178
2.069065809 -2.590946436 -0.4019816518
4.974886894 -6.234164715 -0.6940829754
5.420506954 -6.795014381 -0.4533352256
5.347398281 -6.708169937 -0.149041757
5.354019165 -6.690083981 0.1488672346
5.358949661 -6.701037407 0.4474735558
5.352385521 -6.697621822 0.7463763952
5.334284306 -6.677360058 1.044233203
5.298720837 -6.637592316 1.33850503
5.307011127 -6.650358677 1.645599723
5.263445854 -6.600490093 1.939074874
4.526156425 -5.67997694 1.934465647
0.6873799562 -0.8653944135 -0.245193243
1.754049182 -2.209096193 -0.5400522947
2.055076122 -2.591931105 -0.4010067284
2.603651047 -3.289705515 -0.07253040373
5.339342117 -6.71969223 0.1491115689
5.28742218 -6.67345953 1.646744609
5.240374088 -6.618822575 1.939074874
4.511096478 -5.7018013 1.936536193
0.5786494613 -0.7332233787 -0.2386832088
0.6650474072 -0.8433057666 -0.2379947752
1.764558792 -2.238332272 -0.545776546
2.064053774 -2.620120525 -0.5216041207
2.041104555 -2.592849731 -0.4000317454
2.617202044 -3.325870037 -0.3665516675
2.597614527 -3.303351402 -0.2180327475
2.58473897 -3.289339781 -0.07232097536
2.612123966 -3.31465292 0.3655057847
5.275020123 -6.705761909 1.650179148
5.21242094 -6.630946159 1.937275171
4.492359161 -5.719032288 1.937053919
0.5760865808 -0.7352387905 -0.2386832088
0.6620996594 -0.8456221223 -0.2379947752
1.772465825 -2.264576197 -0.5507375598
1.986744642 -2.540174246 -0.5040834546
2.055267572 -2.629675865 -0.4046627879
2.584723711 -3.30829525 -0.3635883629
2.588526011 -3.315547228 -0.2182420939
2.559710979 -3.280998945 -0.07193702459
2.594365358 -3.312286854 0.0727398321
2.588881969 -3.307663441 0.2179280818
2.591943502 -3.312766552 0.3642856181
2.559474707 -3.273622274 0.5050831437
2.574037552 -3.294617414 0.6555120349
5.24674654 -6.717946053 1.648652554
5.194038391 -6.655245781 1.939074874
4.467616558 -5.728585243 1.934983253
0.5592824817 -0.7189475894 -0.2324715555
0.6639278531 -0.854082346 -0.2397943884
1.795870662 -2.311055183 -0.560659647
1.890634775 -2.434758186 -0.4815568328
4.884796143 -6.297440529 -0.6935600042
5.251690388 -6.775319576 -0.4470548928
5.263012409 -6.794824123 -0.1493210047
5.273592472 -6.781549454 0.1492511779
5.262414932 -6.772052765 0.4472642243
5.250976562 -6.759768009 0.7451562285
5.214004517 -6.721853256 1.340695024
5.21845293 -6.730014324 1.647126198
5.173163414 -6.676416397 1.939974546
4.445227146 -5.741090775 1.93394804
0.5756630301 -0.7453584671 -0.2407537699
0.6918990016 -0.8965054154 -0.2514918447
1.869340062 -2.423010349 -0.5866096616
2.021109581 -2.623517036 -0.4014941752
4.868862152 -6.32234621 -0.694431603
5.225572109 -6.790444851 -0.4468455613
5.242889404 -6.815410137 -0.1493908018
5.23829937 -6.792256355 0.7467250824
5.216935635 -6.769438744 1.044233203
5.203739643 -6.75475502 1.343823671
5.188940525 -6.740409851 1.645218134
5.154579639 -6.700613022 1.941774249
4.426165104 -5.755800247 1.93394804
0.5636536479 -0.7350988984 -0.2366126478
0.6296468377 -0.821461916 -0.2289967537
1.974893332 -2.579319 -0.507837832
2.108898401 -2.756330013 -0.4209932685
4.85402441 -6.348799706 -0.6954774857
5.20181179 -6.806149483 -0.4467408657
5.216639996 -6.830490589 -0.1493210047
5.221226692 -6.809355259 0.1490766704
5.224700451 -6.818812847 0.4479969442
5.216980934 -6.813663483 0.7470736504
5.184806347 -6.774090767 1.042283297
5.167752743 -6.759139538 1.645599723
5.132331371 -6.71766901 1.941774249
4.411907673 -5.77889204 1.936536193
0.5682353973 -0.74618572 -0.2397184968
0.6550979614 -0.8608736992 -0.2397943884
1.964534283 -2.582557917 -0.6224817634
1.971854687 -2.594059706 -0.5094022155
2.117275238 -2.787386179 -0.4246493578
4.854721069 -6.395858288 -0.6987893581
5.175608635 -6.821083546 -0.4465315342
5.192765236 -6.848658085 -0.1493210047
5.198637009 -6.829129219 0.1491115689
5.186356068 -6.817934513 0.4467408657
5.194356918 -6.830925941 0.7470736504
5.161128998 -6.79214859 1.042283297
5.154067516 -6.787771702 1.343197942
5.148875713 -6.783392906 1.647126198
5.099428654 -6.723121643 1.938174844
4.39754343 -5.801956177 1.939124465
0.5585080385 -0.7390159369 -0.2366126478
0.6614864469 -0.8755944371 -0.2433936298
1.943226695 -2.574071884 -0.618665576
1.959954381 -2.598115921 -0.5087764859
2.112313509 -2.801099539 -0.425624311
4.941478729 -6.557564259 -0.7146517634
5.152975559 -6.843197823 -0.4467408657
5.15800333 -6.852363586 -0.1490068436
5.17717886 -6.850425243 0.149181366
5.164933205 -6.839184284 0.446950227
5.170485973 -6.851508617 0.7472479343
5.142169476 -6.816460609 1.04325819
5.114884377 -6.785215855 1.33913064
5.128703117 -6.808490753 1.648652554
5.077097416 -6.744880676 1.939074874
4.373779774 -5.81264019 1.937571526
0.5373748541 -0.7162366509 -0.2283304334
0.6512589455 -0.8686578274 -0.2406942248
1.940116525 -2.588694334 -0.6205736399
1.949689269 -2.603360176 -0.5084635615
2.106790304 -2.815180063 -0.4265992641
4.919752121 -6.576367855 -0.7148260474
5.133840561 -6.867542267 -0.4471595585
5.135250568 -6.871929169 -0.149041757
5.149636269 -6.866154671 0.1491115689
5.148216724 -6.866759777 0.4475782812
5.142953873 -6.864732265 0.7467250824
5.119530678 -6.838439941 1.043745637
5.089984417 -6.801447392 1.338817835
5.101378918 -6.821635246 1.647507787
5.058188438 -6.768805504 1.940874338
4.351150513 -5.824776173 1.936536193
0.5579511523 -0.749094367 -0.2386832088
0.6600127816 -0.8864433169 -0.245193243
1.93106854 -2.595450878 -0.6205736399
1.93397212 -2.600301266 -0.5065863729
2.100995541 -2.826930523 -0.4273304641
4.686506271 -6.310385227 -0.6839728951
5.106276512 -6.8781147 -0.4467408657
5.113613605 -6.893024445 -0.1491115689
5.122060776 -6.876779556 0.148971945
5.128985405 -6.891097069 0.4479969442
5.118960381 -6.882642269 0.7467250824
5.09445715 -6.852193356 1.04325819
5.074458122 -6.830272675 1.341007948
5.07053566 -6.827481747 1.644836545
5.038037777 -6.788672447 1.941774249
4.330791473 -5.839929104 1.936536193
0.5554639697 -0.7509404421 -0.2386832088
0.6383811235 -0.8636679053 -0.2379947752
1.921284318 -2.600261211 -0.6201920509
1.922537208 -2.603857756 -0.5059606433
2.088757753 -2.831052542 -0.4268430173
4.212617874 -5.711768627 -0.6172116399
5.086975574 -6.902328014 -0.4471595585
5.087151051 -6.907612324 -0.149041757
5.095646858 -6.891401291 0.1489021331
5.100152969 -6.902534008 0.4475782812
5.10084343 -6.905989647 0.7474222779
5.063434124 -6.860351562 1.041795731
5.047067642 -6.843174934 1.340069413
5.049002171 -6.84829998 1.645599723
5.014309883 -6.80621767 1.941774249
4.316106796 -5.862789631 1.939124465
0.5391183496 -0.7341892123 -0.2324715555
0.649196744 -0.8847448826 -0.2433936298
1.909873962 -2.603785992 -0.6194288135
1.9204427 -2.620112181 -0.507837832
2.074171066 -2.831920385 -0.4258680642
5.078660011 -6.918818474 0.1491115689
5.068940163 -6.91063118 0.446950227
5.081418514 -6.930180073 0.7481195331
5.039456367 -6.877985001 1.041795731
5.026650906 -6.865531921 1.341007948
5.029705048 -6.872220039 1.647126198
4.981317997 -6.811094761 1.938174844
4.299035549 -5.882499218 1.940677285
0.5365522504 -0.7360666394 -0.2324715555
0.6323360801 -0.8681036234 -0.2379947752
5.055655479 -6.938119888 0.1491464674
5.049489021 -6.934741497 0.44736889
5.051334381 -6.939821243 0.7472479343
5.022422791 -6.905165672 1.04325819
4.998008728 -6.876644611 1.33975637
4.9629879 -6.830966949 1.633006334
4.9620924 -6.834749222 1.939974546
4.27620697 -5.894341946 1.939642072
0.5679549575 -0.7848874331 -0.2480006814
0.6544229388 -0.9050469995 -0.247892648
5.029063225 -6.952485085 0.1490766704
5.027591705 -6.955563068 0.4475782812
5.024744987 -6.954181671 0.7468993664
4.99945116 -6.924264908 1.043501854
4.973974228 -6.894049168 1.33975637
4.986199379 -6.913534641 1.648652554
4.940482616 -6.855190277 1.940874338
