# .PCD v0.7 - Point Cloud Data file format
VERSION 0.7
FIELDS x y z
SIZE 4 4 4
TYPE F F F
COUNT 1 1 1
WIDTH 1292
HEIGHT 1
VIEWPOINT 0 0 0 1 0 0 0
POINTS 1292
DATA ascii
4.711921215 2.827852011 0.6696067452
4.690196991 2.812587738 0.8595025539
4.684238434 2.80790329 1.053328514
4.682900906 2.804880142 1.250274658
4.667127132 2.793216228 1.445815325
3.899162531 2.327136755 -1.205113649
4.09913063 2.444540739 -1.091909051
4.704575539 2.804491758 -1.056381464
4.301395416 2.562110901 -0.7862912416
4.312855721 2.566900969 -0.6111094952
4.319075584 2.568561316 -0.4359276295
4.769405842 2.835247278 -0.2885816097
4.770968437 2.833922625 -0.09616096318
4.763802052 2.842052221 0.09612605721
4.757360935 2.835958242 0.2880582511
4.753280163 2.832401514 0.4803770781
4.731997013 2.817481279 0.6710692048
4.703382492 2.798217773 0.8601283431
4.697385788 2.7935431 1.054091811
4.699365139 2.792497396 1.252074242
4.670202255 2.772965908 1.443744779
3.917640686 2.3187325 -1.20821929
4.104282379 2.428235531 -1.091009259
4.718204021 2.789227009 -1.057144761
4.307354927 2.544319868 -0.7856655121
4.32349968 2.552838564 -0.6113532186
4.321151257 2.549418449 -0.4352304041
4.779766083 2.817746162 -0.2885816097
4.780832291 2.81725049 -0.09616096318
4.758206844 2.816237926 0.09581191838
4.767232418 2.819333315 0.2880582511
4.773922443 2.821041107 0.4814229608
4.738385201 2.798925877 0.6705816984
4.719924927 2.78579998 0.8613798022
4.694064617 2.768327713 1.051038861
4.716283321 2.77921319 1.253873825
4.683182716 2.758606434 1.444779992
3.925710201 2.305044174 -1.20821929
4.116518021 2.415145397 -1.091909051
4.732991219 2.775721073 -1.058289647
4.299167633 2.519280672 -0.7825368047
4.329400539 2.534970045 -0.6108657718
4.33862257 2.539350271 -0.4361019135
4.772331715 2.790962934 -0.2875348926
4.800996304 2.80659914 -0.09637039155
4.787466526 2.809914827 0.0961958617
4.789103985 2.809748888 0.288790971
4.800927639 2.814437151 0.4831660688
4.738333702 2.775521278 0.6691192389
4.734734058 2.772302628 0.8623183966
4.710476875 2.755892277 1.052565336
4.72932148 2.764698982 1.254773617
4.702790737 2.748091221 1.447885752
3.935402632 2.292298317 -1.208737016
4.134607315 2.407367468 -1.094608545
4.751137257 2.764117718 -1.060197592
4.314328194 2.508983374 -0.7837882638
4.330918312 2.516608953 -0.609890759
4.350905895 2.52619195 -0.4364505708
4.790198326 2.780133486 -0.2880582511
4.815953255 2.792833805 -0.09647510946
4.801942825 2.797041655 0.09630057961
4.791976929 2.788996935 0.2883722484
4.814167976 2.799663305 0.4835146666
4.754377842 2.763782263 0.6700942516
4.740966797 2.753772736 0.861692667
4.722986698 2.742226839 1.053328514
4.728349209 2.74313426 1.252074242
4.722383499 2.737470627 1.450991631
3.944654465 2.280202866 -1.209254622
4.132861137 2.387071133 -1.091909051
4.756876469 2.746385098 -1.059434414
4.326481342 2.495883226 -0.784414053
4.336236477 2.499494076 -0.6094033122
4.357532501 2.510756254 -0.436276257
4.8085289 2.768376589 -0.2885816097
4.820471764 2.773015738 -0.09637039155
4.822064877 2.786266327 0.09651000798
4.799953461 2.771255493 0.2882675827
4.828601837 2.786672592 0.4840376079
4.77431345 2.753120422 0.6715566516
4.745414734 2.734249353 0.8607540131
4.742736816 2.731603861 1.055618286
4.741273403 2.728557587 1.252974033
4.725212574 2.717116594 1.448921084
3.947561741 2.263537407 -1.207701683
4.137787342 2.370691538 -1.091009259
4.763025761 2.727813244 -1.058671236
4.328310013 2.476840496 -0.7831625938
4.348381996 2.486311913 -0.609890759
4.350702286 2.486630917 -0.4347074628
4.821631432 2.753556967 -0.288790971
4.837068558 2.760137558 -0.09651000798
4.824822903 2.765438557 0.09637039155
4.825195312 2.763417959 0.2892096341
4.821009636 2.75990057 0.4822944999
4.789062977 2.739396095 0.6722878814
4.761791229 2.721587658 0.8620054722
4.752242565 2.715033054 1.055618286
4.757539272 2.715854168 1.254773617
4.727955341 2.696778297 1.446850657
3.957118511 2.25069809 -1.20821929
4.14264822 2.354308605 -1.090109348
4.77934742 2.715048313 -1.060197592
4.324903488 2.454891682 -0.7809724808
4.357034206 2.471119165 -0.609890759
4.366287708 2.475360394 -0.4354046881
4.832950592 2.737694979 -0.288895607
4.844934464 2.742249966 -0.09647510946
4.830968857 2.746603966 0.09630057961
4.838285446 2.748529434 0.2894189656
4.830613136 2.743056297 0.4822944999
4.796870708 2.721681595 0.672044158
4.778135777 2.708847523 0.8632570505
4.754859924 2.694555283 1.054091811
4.777164459 2.704992771 1.257473111
4.740703106 2.682159424 1.447885752
3.973364592 2.241616964 -1.210807562
4.154236794 2.341746569 -1.091009259
4.783665657 2.695456266 -1.059052825
4.340332508 2.443655252 -0.7822239399
4.360442162 2.452976227 -0.6091595888
4.371429443 2.458150148 -0.4350560904
4.835512161 2.716895819 -0.288476944
4.861452579 2.729235411 -0.09661472589
4.844010353 2.73168993 0.09637039155
4.844370842 2.72966218 0.2892096341
4.850574493 2.732045174 0.4833403528
4.801152229 2.701998711 0.6713129282
4.791006565 2.694087267 0.8638827205
4.767659187 2.679863691 1.054854989
4.786578178 2.688299656 1.257473111
4.756773949 2.66937995 1.449956298
3.995945692 2.236923933 -1.21546638
4.151774406 2.322250843 -1.088309765
4.766871929 2.665210009 -1.053328514
4.34841156 2.429249763 -0.7822239399
4.361619949 2.434631348 -0.608184576
4.388256073 2.44849515 -0.4359276295
4.849729538 2.703762054 -0.288790971
4.8704772 2.713098049 -0.09661472589
4.86351347 2.721468925 0.09657981992
4.848164558 2.71066165 0.288895607
4.866565228 2.719831944 0.4840376079
4.815285206 2.688967228 0.672044158
4.799913406 2.678185701 0.8638827205
4.781664371 2.666906357 1.055999875
4.783549786 2.6657722 1.254323721
4.768976688 2.655469656 1.450991631
3.991907835 2.21639657 -1.211842895
4.159854412 2.307745218 -1.088309765
4.693733692 2.602851868 -1.035010815
4.358592033 2.415014267 -0.7825368047
4.370092392 2.419390678 -0.608184576
4.381085873 2.424480677 -0.4343588054
4.873121262 2.694547415 -0.2896283269
4.881666183 2.69705081 -0.09664962441
4.883475304 2.710296631 0.09678925574
4.862838268 2.696626663 0.2892096341
4.879515648 2.704758406 0.4843862355
4.831587315 2.675990582 0.6730191112
4.805775642 2.659502745 0.8632570505
4.799532413 2.654953957 1.057908058
4.801354885 2.653770685 1.2565732
4.781599522 2.640673161 1.452026963
3.992851496 2.198719978 -1.209772229
4.202032566 2.311997652 -1.097307801
4.836152077 2.657598257 -0.8673243523
4.37555027 2.401503086 -0.4329643548
4.891251564 2.682325602 -0.2901516855
4.891051769 2.679992914 -0.09664962441
4.891152382 2.692272663 0.09675434232
4.882721901 2.685409069 0.2898376882
4.878448963 2.68195343 0.4833403528
4.85133934 2.66484189 0.6744815111
4.818493843 2.644610882 0.8638827205
4.805328846 2.636294365 1.057144761
4.817423344 2.640742302 1.258372784
4.784008503 2.620257378 1.449956298
4.010674477 2.190325499 -1.212878108
4.846226692 2.643347502 -1.064777136
4.862745285 2.650152445 -0.8704530001
4.887224197 2.661284208 -0.67813766
4.880892754 2.656728983 -0.4824687839
4.902339935 2.666188478 -0.2902563512
4.912675858 2.669588089 -0.0968939662
4.88472414 2.666558266 0.09644020349
4.897325993 2.67121911 0.2901516855
4.891280651 2.666814327 0.4836890101
4.855381489 2.645043373 0.6737502813
4.831166744 2.629662752 0.8645085096
4.811052322 2.617628813 1.056381464
4.826612949 2.623908997 1.258372784
4.796521664 2.605385065 1.450991631
4.026789665 2.180911303 -1.21546638
4.853698254 2.62547946 -1.064395547
4.871964455 2.633165359 -0.8704530001
4.892991066 2.642320395 -0.6776501536
4.902407646 2.646303654 -0.4836890101
4.902828217 2.644317865 -0.2897329926
4.934287548 2.659062862 -0.09713830054
4.906312943 2.656154156 0.09668453783
4.906620979 2.654106617 0.2901516855
4.911076069 2.655408621 0.4847348332
4.854106426 2.622416258 0.6722878814
4.847267628 2.61653924 0.8657599688
4.820160866 2.600817919 1.056381464
4.839171886 2.608898163 1.259272695
4.815792561 2.594121933 1.454097509
4.030973911 2.165014505 -1.214431047
4.232881546 2.271554708 -1.099107504
4.868022919 2.61130619 -1.065540314
4.87590313 2.613342047 -0.8695144057
4.900434494 2.624288559 -0.6774064302
4.915129185 2.631054163 -0.4840376079
4.915550709 2.629072905 -0.2899423242
4.940012455 2.639936209 -0.0970684886
4.915554047 2.639012575 0.09668453783
4.912335396 2.635076046 0.2899423242
4.9273386 2.642016888 0.4854321182
4.864981651 2.606392622 0.6725316644
4.856372356 2.599601746 0.8657599688
4.84305954 2.591385365 1.059434414
4.841375351 2.588314056 1.257473111
4.828225613 2.579117298 1.455132723
4.031685829 2.147299051 -1.212360501
4.202937126 2.236625671 -1.089209676
4.873641491 2.592454672 -1.064777136
4.893716812 2.600942612 -0.8710787296
4.909565449 2.607165337 -0.6774064302
4.924282551 2.613882303 -0.4840376079
4.929991722 2.61470437 -0.2902563512
4.945662975 2.62080431 -0.09699867666
4.947683811 2.63405323 0.09713830054
4.925029755 2.619789839 0.2901516855
4.933012962 2.622929096 0.4850834906
4.884566307 2.594985723 0.6739940047
4.858437538 2.578930616 0.8645085096
4.859010696 2.578147888 1.060960889
4.857268333 2.575048447 1.259272695
4.840614319 2.564055204 1.456168056
4.039157391 2.133211613 -1.212360501
4.224507332 2.229215622 -1.092808843
4.927418232 2.594637394 -0.6786250472
4.928088188 2.593891859 -0.4835146666
4.949694633 2.603058577 -0.2908844054
4.958321095 2.605386496 -0.0970684886
4.948005199 2.612099648 0.09696377069
4.93767786 2.604444504 0.290361017
4.935088634 2.601978064 0.4843862355
4.90413332 2.583469868 0.6754564643
4.86741066 2.561954498 0.8645085096
4.864506245 2.559341669 1.060197592
4.873126507 2.561705589 1.261072278
4.842693329 2.543550253 1.454097509
4.053423882 2.122684956 -1.214431047
4.30133009 2.250592232 -1.110804915
4.955209255 2.583916664 -0.2906750441
4.972705364 2.59083581 -0.09717320651
4.953549385 2.59295845 0.0968939662
4.957357407 2.592747688 0.2909890711
4.94767189 2.586582422 0.4847348332
4.907842159 2.563579082 0.6747252345
4.88683176 2.550431013 0.8663856983
4.866447449 2.538714647 1.058671236
4.888951778 2.548281193 1.262871861
4.85839653 2.530199051 1.456168056
4.067667484 2.112082958 -1.216501594
4.280067921 2.219524622 -0.9289210439
4.203329563 2.177868843 -0.7431153059
4.30901432 2.230719805 -0.5906354189
4.378063202 2.265496969 -0.4275607169
4.964198112 2.566605091 -0.2906750441
4.992379189 2.578967333 -0.09738263488
4.969669819 2.579334736 0.09703358263
4.962831974 2.573587179 0.2907797098
4.967284203 2.5747962 0.4857807159
4.914999008 2.545517921 0.6744815111
4.902721405 2.53698945 0.8676371574
4.882255554 2.525318623 1.060197592
4.901279449 2.532990694 1.263771653
4.874064445 2.51677084 1.458238602
4.081885338 2.101408958 -1.21857214
4.209496021 2.165243864 -1.082911015
4.176045418 2.147118807 -0.9044974446
4.235505581 2.17581892 -0.7474954724
4.369756222 2.242859602 -0.5979475975
4.37530899 2.244742393 -0.4265148342
4.976681709 2.551084518 -0.2908844054
5.001351833 2.561523676 -0.09738263488
4.976864815 2.561057568 0.09699867666
4.971785069 2.556249142 0.2907797098
4.979785442 2.559263945 0.4861293435
4.920323372 2.526530743 0.6739940047
4.911548138 2.519858837 0.8676371574
4.892787933 2.509155512 1.0605793
4.90315485 2.512310743 1.26197207
4.893137455 2.50502491 1.461344361
4.085755348 2.085390329 -1.217536926
4.251748085 2.168246031 -1.091909051
4.148532867 2.114695311 -0.8968650699
4.257155418 2.168195724 -0.7499984503
4.377559185 2.227591753 -0.5979475975
4.358254433 2.216813326 -0.424074471
4.990898609 2.53641057 -0.2911984026
4.997781277 2.537713766 -0.09713830054
4.994681358 2.54821229 0.09717320651
4.977119446 2.53706336 0.2905703783
4.995790005 2.545482397 0.4868265986
4.94503355 2.517446756 0.6761876941
4.916791439 2.500911236 0.8670114279
4.913766861 2.498290777 1.063250661
4.911893845 2.495181084 1.26197207
4.891516209 2.48268199 1.458238602
4.082667351 2.065881014 -1.214431047
4.180421352 2.112597227 -0.9022077918
4.250591755 2.146198511 -0.7474954724
4.385307789 2.212298632 -0.5979475975
4.348176003 2.192614555 -0.4223313332
5.013990402 2.526163578 -0.2920357883
5.019113064 2.526545286 -0.09738263488
5.01068306 2.534373045 0.09731282294
5.003771782 2.528681517 0.2916170955
4.993974209 2.522639513 0.4857807159
4.966196537 2.506429434 0.677893877
4.932547092 2.487289906 0.8682629466
4.929470539 2.484656572 1.064777136
4.931015491 2.483280182 1.264671445
4.90015173 2.465593338 1.458238602
4.095033169 2.054219007 -1.215983987
4.194789886 2.101512432 -0.9037342668
4.258058071 2.131346941 -0.7474954724
4.393003941 2.196976185 -0.5979475975
4.36649704 2.182767153 -0.4233771861
5.019204617 2.506859779 -0.291826427
5.038635254 2.51437068 -0.09759206325
5.012349606 2.51328063 0.09717320651
5.014351845 2.512097597 0.2917217612
5.009876251 2.508758783 0.4864779413
4.971363544 2.487306118 0.6774064302
4.9518013 2.47535491 0.8701400757
4.924062252 2.460417509 1.061724186
4.946629047 2.469533205 1.266471148
4.912187099 2.450196981 1.459273934
4.116016865 2.046792269 -1.220125079
4.205616951 2.088602304 -0.9044974446
4.265471458 2.116471529 -0.7474954724
4.40026474 2.182397366 -0.5979475975
4.388370991 2.174590111 -0.4247717261
5.027925491 2.489323139 -0.291826427
5.046946049 2.497646809 -0.09759206325
5.022882938 2.49665761 0.09720810503
5.028021336 2.498120546 0.2920357883
5.02931118 2.496569872 0.487523824
4.96934557 2.464644194 0.6759439707
4.968832493 2.463306189 0.8717044592
4.946695805 2.450184107 1.064777136
4.951298714 2.45138526 1.265571237
4.934137344 2.440747499 1.463414907
4.131445885 2.037402868 -1.222713232
4.212520599 2.074643373 -0.9044974446
4.272466183 2.102315903 -0.7474954724
4.371852875 2.150270224 -0.5930728316
4.391981125 2.158269167 -0.4244230688
5.041530609 2.475277901 -0.2921404541
5.05161047 2.479135752 -0.09752225131
5.040101528 2.484411478 0.09738263488
5.03448534 2.480551481 0.2919311225
5.041135788 2.481641769 0.4878724515
4.98461771 2.451654911 0.6769189239
4.978745937 2.447687864 0.872017324
4.95831871 2.435496807 1.065540314
4.959400177 2.43495369 1.265571237
4.949142456 2.427773952 1.465485573
4.134707451 2.021994591 -1.221677899
4.20879221 2.055494308 -0.9022077918
4.279414654 2.088135004 -0.7474954724
4.379331589 2.134997368 -0.5930728316
4.431354046 2.159402132 -0.4275607169
5.047915459 2.457672834 -0.2920357883
5.049444199 2.456237316 -0.09731282294
5.057294369 2.472076178 0.09755715728
5.039525032 2.461208344 0.2917217612
5.05291748 2.466659784 0.4882210493
5.005208492 2.441204071 0.6786250472
4.976604462 2.425102949 0.8701400757
4.980487347 2.425919533 1.068593264
4.971374035 2.419333935 1.266471148
4.950637817 2.407103062 1.463414907
4.134787083 2.004179955 -1.219607472
4.215941429 2.040791273 -0.9022077918
4.286677837 2.073183298 -0.7474954724
4.422503948 2.136971712 -0.5979475975
4.399394989 2.124855757 -0.4237258434
5.078048229 2.450454712 -0.293291837
5.072397232 2.445545435 -0.09759206325
5.069493294 2.456150532 0.09762696922
5.060668945 2.449694633 0.2924544513
5.047150135 2.44206357 0.4868265986
5.033358574 2.433222771 0.6813062429
4.990375996 2.410292625 0.8710787296
4.985388279 2.406813622 1.067830086
4.993831158 2.408737421 1.270070314
4.962488651 2.391488075 1.46445024
4.141757965 1.989733577 -1.219607472
4.233660221 2.03115654 -0.9044974446
4.293888092 2.058208466 -0.7474954724
4.429936886 2.121519804 -0.5979475975
4.356829643 2.084639311 -0.4188450873
5.081166267 2.430127382 -0.2929778397
5.089924812 2.432133675 -0.09776658565
5.070825577 2.434975863 0.09748735279
5.070990562 2.432877302 0.2925591469
5.062829971 2.427875519 0.487523824
5.034661293 2.412205696 0.6803312302
5.007668018 2.397124052 0.8726431131
4.984905243 2.385158539 1.065921903
5.00572443 2.392973185 1.270970106
4.970807076 2.374149799 1.46445024
4.15599966 1.977861285 -1.221677899
4.237529755 2.013941288 -0.9037342668
4.301403522 2.042455435 -0.7474954724
4.376340866 2.077105045 -0.5896604657
4.454092979 2.11210084 -0.4275607169
5.082818508 2.408068419 -0.2925591469
5.105613708 2.417773962 -0.09790620208
5.082904816 2.418980122 0.09755715728
5.083059788 2.416875124 0.2927684784
5.086091995 2.416143656 0.4889183342
5.035878181 2.391209602 0.679356277
5.019573689 2.381323814 0.8732687831
5.006031513 2.372759104 1.068593264
5.025029659 2.379613161 1.2736696
4.986048222 2.360090971 1.466520786
4.173363209 1.968285441 -1.224783778
4.240982056 1.997462988 -0.9029709697
4.308506489 2.027429104 -0.7474954724
4.445004463 2.089765787 -0.5979475975
4.425374031 2.07959342 -0.424074471
5.098425388 2.393705368 -0.2929778397
5.112211227 2.39908886 -0.09787129611
5.09535408 2.40204072 0.09762696922
5.084238052 2.395712852 0.2923497856
5.098099709 2.40007329 0.489266932
5.044608116 2.372737169 0.679356277
5.031431675 2.36546731 0.8738945723
5.024946213 2.360276937 1.070883036
5.015663624 2.35378027 1.269170523
5.011746407 2.350874901 1.471697211
4.178457737 1.952888846 -1.224266171
4.324124336 2.020049572 -1.091909051
4.240811825 1.979326606 -0.9014445543
4.329526424 2.019812584 -0.7499984503
4.451909542 2.075015068 -0.5979475975
4.468728542 2.080955982 -0.4275607169
5.117198944 2.381842852 -0.293605864
5.115114212 2.378700495 -0.09776658565
5.117784977 2.391902924 0.09790620208
5.096189022 2.379642248 0.2925591469
5.113668919 2.385630846 0.4899641871
5.066841602 2.36270833 0.6813062429
5.036076069 2.346222639 0.8732687831
5.043423176 2.348574162 1.073172688
5.034041882 2.342067719 1.271869898
5.009411812 2.32847929 1.468591332
4.193674564 1.943083167 -1.226854324
4.329312801 2.003176928 -0.9189989567
4.318621159 1.996397495 -0.7468698025
4.376226902 2.021173716 -0.5867356062
5.10149765 2.355062008 -0.4878724515
5.129109859 2.365637779 -0.2938151956
5.128422737 2.364235401 -0.09787129611
5.126103878 2.374022484 0.09790620208
5.111302376 2.366084337 0.2929778397
5.107086182 2.361968279 0.4885697067
5.084067345 2.349171638 0.6825249195
5.051002979 2.332821131 0.8745203018
5.048025131 2.329311371 1.072409391
5.052805424 2.329375267 1.274569273
5.013595104 2.310241222 1.467556119
4.205698967 1.930849671 -1.228407264
4.465297222 2.049088717 -1.12430203
5.003732681 2.294058323 -1.061724186
5.117163181 2.344982147 -0.8848450184
5.139164925 2.352894306 -0.6888620853
5.129617214 2.346357822 -0.4897898734
5.144191742 2.351938725 -0.2942338884
5.140282154 2.347982407 -0.0979411155
5.13031292 2.355343103 0.09783639759
5.130422115 2.353225231 0.293605864
5.122544289 2.347448111 0.489266932
5.090025425 2.331471205 0.6822811961
5.066299915 2.318464756 0.8757717609
5.05215168 2.310924053 1.071646214
5.071137905 2.317465305 1.277268767
5.028658867 2.295934439 1.469626665
4.221540451 1.919421077 -1.230995536
4.483778 2.036762714 -1.127001405
5.035346031 2.286256075 -1.0666852
5.106341362 2.316338539 -0.8814033866
5.146354198 2.332323551 -0.6886184216
5.136368275 2.326717377 -0.4896155894
5.140447617 2.326403379 -0.2935011685
5.150675297 2.329949141 -0.09797601402
5.13931942 2.33562541 0.09783639759
5.135376453 2.332752228 0.2933965027
5.145628452 2.335242987 0.4906614423
5.08809185 2.306992769 0.6808187366
5.089157581 2.306401968 0.8782746792
5.068140507 2.294748306 1.073172688
5.072896004 2.294764996 1.275469184
5.044080734 2.28067255 1.471697211
4.235260487 1.907845974 -1.233065963
4.501167774 2.026686192 -1.12970078
5.093428612 2.29121542 -1.077370524
5.126605034 2.305066586 -0.8835934401
5.143195152 2.3103652 -0.687155962
5.1480937 2.310406685 -0.4899641871
5.15360117 2.311797857 -0.2938151956
5.160601616 2.312774658 -0.09801091999
5.154328823 2.321856022 0.09797601402
5.132559776 2.309895039 0.2927684784
5.153747082 2.317270517 0.4906614423
5.099336147 2.291733265 0.6813062429
5.100781918 2.290240526 0.8789004683
5.079305172 2.279535294 1.073935866
5.084034443 2.279523134 1.276368856
5.062590122 2.267788887 1.474802971
4.241564751 1.893789768 -1.233065963
4.501096725 2.00778532 -1.127901196
5.104585648 2.275909901 -1.078133702
5.140033722 2.289567232 -0.884532094
5.142159462 2.288363695 -0.6859372258
5.166648865 2.298181534 -0.49101004
5.165288925 2.295417309 -0.2940245569
5.164587498 2.294026375 -0.0979411155
5.162401676 2.303851128 0.09797601402
5.15295887 2.298558712 0.2935011685
5.165043354 2.301787853 0.49101004
5.11455965 2.277147532 0.6822811961
5.104737759 2.271710396 0.8782746792
5.097995758 2.266575575 1.076225638
5.099083424 2.264930725 1.278168559
5.070083141 2.250986814 1.474802971
4.232247353 1.871942282 -1.228407264
4.514859676 1.995998621 -1.12970078
5.114293098 2.258874416 -1.078515291
5.149405956 2.273306131 -0.8848450184
5.160617352 2.276106596 -0.6873996854
5.165524483 2.276114464 -0.4901385307
5.180183411 2.28149724 -0.2944432199
5.178055286 2.278399467 -0.09804582596
5.184643269 2.293191433 0.09825524688
5.168259621 2.283785343 0.2939198911
5.173047066 2.283743143 0.49101004
5.14024353 2.26818943 0.6847185493
5.112637043 2.253876209 0.8782746792
5.109076977 2.251241922 1.076988935
5.113700867 2.251148224 1.279968143
5.070834637 2.230167866 1.472732544
4.24020195 1.858672023 -1.22892499
4.68959713 2.053708553 -1.171991587
5.138335228 2.248089552 -1.081949949
5.162740231 2.257690668 -0.8857836127
5.183084488 2.264435291 -0.6893495917
5.178915501 2.260461807 -0.4906614423
5.18162775 2.270263433 0.09804582596
5.179858685 2.267333746 0.2941292226
5.184242249 2.26817441 0.4913586974
5.144491196 2.248643637 0.6842310429
5.133145809 2.2415483 0.8804647923
5.110095501 2.229362011 1.075462461
5.128673553 2.236398697 1.281767726
5.089215755 2.217081785 1.475838304
4.70424366 2.03960824 -1.173791289
5.153746128 2.232363939 -1.083476424
5.161915779 2.234829903 -0.8842192292
5.184060574 2.242272139 -0.6883746386
5.199968815 2.246995687 -0.4918816388
5.201570511 2.244456768 -0.09818544239
5.193582058 2.252849102 0.09811563045
5.191799641 2.249920368 0.2943385541
5.20166111 2.253118515 0.4922302365
5.145411491 2.226618528 0.6832561493
5.146766186 2.225071907 0.8814033866
5.121836185 2.212175608 1.076225638
5.136835098 2.217587233 1.281767726
5.104403019 2.201472759 1.47790885
4.676154613 2.009035349 -1.352122784
4.709896564 2.021584988 -1.173341393
5.138052464 2.204296589 -1.078515291
5.182781219 2.221343994 -0.8864092827
5.179083347 2.218689442 -0.6866684556
5.200453281 2.225696087 -0.4911843836
5.19906044 2.22295022 -0.2941292226
5.209372997 2.226287127 -0.09818544239
5.21282959 2.23853159 0.09832505882
5.197785378 2.230997086 0.2942338884
5.219040871 2.237963438 0.4931018054
5.164485931 2.212435961 0.6847185493
5.165398121 2.211756945 0.8832806349
5.140357971 2.198915005 1.078515291
5.140961647 2.19810915 1.280867934
5.119163036 2.18667841 1.479979396
4.665016651 1.985949397 -1.346946359
4.704021454 2.000617504 -1.170192003
5.132687092 2.181868315 -1.075844049
5.181027412 2.200285435 -0.8848450184
5.191895008 2.203828335 -0.6873996854
5.22247982 2.214659691 -0.4925788641
5.210080147 2.207259178 -0.2943385541
5.201996326 2.202760935 -0.09790620208
5.231264114 2.225931644 0.09853449464
5.208830833 2.215312719 0.2944432199
5.219098091 2.217528582 0.4924045801
5.182758331 2.19994998 0.6861810088
5.159973621 2.189218521 0.8810905218
5.151237011 2.183387756 1.079278588
5.155398846 2.184093475 1.282667637
5.129944801 2.17119503 1.481014729
4.639536381 1.956955314 -1.337628841
4.703446388 1.981979012 -1.16839242
5.127604961 2.158607244 -1.073172688
5.170088768 2.175429821 -0.881716311
5.197725773 2.184923649 -0.687155962
5.19527626 2.181760311 -0.489266932
5.225120068 2.192148447 -0.294757247
5.218873978 2.188456535 -0.09808073193
5.234931469 2.207016706 0.0984646827
5.223895073 2.200216532 0.2948619127
5.211732864 2.194023132 0.49101004
5.201004028 2.187369823 0.6876434684
5.173048019 2.173487663 0.8820291758
5.162446976 2.166913986 1.080041766
5.173773289 2.170606375 1.285366893
5.130364418 2.15028882 1.478944063
4.63598156 1.935472846 -1.334523082
4.685499191 1.954225659 -1.162093759
5.139107227 2.141308069 -1.073935866
5.170732021 2.153429031 -0.8804647923
5.19653511 2.162044048 -0.6859372258
5.225316048 2.171879053 -0.4913586974
5.225741386 2.169920206 -0.2943385541
5.232401371 2.171612024 -0.09818544239
5.224531651 2.180112839 0.09811563045
5.237455368 2.183359623 0.2951759398
5.245488644 2.185633659 0.493450433
5.207154274 2.167528391 0.6873996854
5.195569992 2.160582066 0.884532094
5.16672945 2.146470547 1.079278588
5.188893318 2.154619455 1.287166595
5.14178133 2.132950068 1.479979396
4.630546093 1.913302898 -1.330899596
4.669213295 1.927371979 -1.156244993
4.756356239 1.962371469 -0.9918879867
4.785930157 1.972618699 -0.8131979704
4.816771984 1.984347463 -0.6345083714
4.857004166 1.998938918 -0.4557991624
4.976521015 2.046095848 -0.2797891796
4.877426147 2.004358292 -0.09134409577
5.258362293 2.17163682 0.09860429913
5.254274845 2.168875694 0.2956992984
5.264514446 2.170951843 0.4944962859
5.216898441 2.149185896 0.6876434684
5.206734657 2.143935919 0.8851578236
5.177821159 2.129916906 1.080041766
5.192778587 2.135010242 1.286266804
5.163490772 2.120861769 1.484120607
4.624350071 1.892815113 -1.327276111
4.655737877 1.90376544 -1.151296139
4.890049934 1.99858129 -1.018601298
4.7613554 1.944044232 -0.8078792095
4.773701191 1.948113084 -0.6279274225
4.791653633 1.953485966 -0.4490009844
4.800155163 1.954998255 -0.2694266438
4.828483105 1.965553164 -0.09029695392
5.276640415 2.158729076 0.0988137275
5.26143837 2.151440859 0.2956992984
5.28275156 2.158001423 0.4955421686
5.233185768 2.135625362 0.6888620853
5.217473984 2.128148317 0.8857836127
5.195764065 2.117181063 1.082331538
5.199830055 2.117777109 1.286266804
5.181231022 2.108096838 1.487226248
4.628811836 1.876742601 -1.326758504
4.656605721 1.886122108 -1.149946451
5.175078392 2.095071077 -1.076988935
4.989360332 2.017861605 -0.8457363844
4.832008839 1.952258468 -0.6347521544
4.853527069 1.959969997 -0.4542303383
5.045548439 2.035461664 -0.2829293311
5.221099854 2.104163647 -0.09755715728
5.29488945 2.145726681 0.09902315587
5.272618771 2.134559393 0.2959086299
5.293572426 2.141967058 0.4958907962
5.249442101 2.121978283 0.6900808215
5.224869251 2.109926701 0.8857836127
5.20639801 2.101408005 1.083094835
5.210804462 2.101074696 1.287166595
5.184975147 2.08855319 1.486191034
4.653263569 1.867768645 -1.331934929
4.664970875 1.870580077 -1.150396347
5.196938515 2.082835197 -1.080041766
4.912016869 1.966657043 -0.8313444257
4.840636253 1.936117649 -0.6349958777
4.856639862 1.941535592 -0.4538817406
5.056331635 2.019319534 -0.2831386626
5.22469902 2.084442377 -0.09748735279
5.298634529 2.125742912 0.09895334393
5.2948699 2.122084141 0.2967460155
5.293619156 2.120513439 0.4951935709
5.269718647 2.108802557 0.6917870045
5.2395401 2.094607353 0.8870350718
5.217348099 2.084676981 1.083858013
5.228966713 2.087206125 1.28986609
5.188643932 2.069011211 1.485155821
4.767472267 1.894318938 -1.362993121
5.204176426 2.064685583 -1.080041766
4.902324677 1.94294703 -0.828528583
4.858439922 1.923592329 -0.6364583373
4.878208637 1.930434585 -0.455276221
5.072637558 2.005327463 -0.2836620212
5.085009098 2.008169174 -0.09472987056
5.302306652 2.10575676 0.09888353944
5.317095757 2.109484673 0.2975833714
5.304692745 2.103489876 0.4955421686
5.27335453 2.088936329 0.6912994981
5.254167557 2.079211235 0.888286531
5.224592209 2.066455841 1.083858013
5.243470669 2.071803808 1.291665673
5.203023434 2.053722858 1.487226248
4.788439274 1.883321404 -1.367134333
4.775859833 1.876449227 -1.174691081
5.220489502 2.050093889 -1.081949949
4.89988184 1.922216892 -0.8269641995
4.852187634 1.901549935 -0.6347521544
4.888627052 1.914849043 -0.4556248486
5.06472683 1.981784821 -0.2828246355
5.065913677 1.980213165 -0.09424119443
5.317067623 2.090165377 0.09902315587
5.324427128 2.090910196 0.2975833714
5.326840878 2.090782404 0.4969366491
5.278767109 2.069790125 0.6910557747
5.270589352 2.064461708 0.8898509145
5.235430717 2.049636126 1.084621191
5.250670433 2.05348897 1.291665673
5.224555969 2.041171074 1.491367459
4.812985897 1.87360394 -1.372310638
4.775115967 1.85694015 -1.172891378
5.218463421 2.028303146 -1.080041766
4.924976826 1.912249923 -0.8300928473
4.869898319 1.888911486 -0.6362145543
4.906759739 1.901236176 -0.4566707015
5.090237141 1.971309781 -0.2838713527
5.272349358 2.039718151 -0.09797601402
5.331786156 2.074491739 0.0991627723
5.327970028 2.070866108 0.2973740697
5.337820053 2.073622227 0.4972852767
5.291511059 2.053506851 0.6917870045
5.279605865 2.046763659 0.8901637793
5.253537178 2.035603046 1.086910963
5.254171848 2.033740044 1.290765762
5.238855362 2.025712013 1.493438005
4.810806751 1.852478743 -1.369722486
4.796116829 1.8458637 -1.176490664
5.211204052 2.003525734 -1.076988935
4.972520828 1.909768462 -0.8369759917
4.869050026 1.86905396 -0.6352396011
4.909645557 1.882671118 -0.4563221037
5.104889393 1.95549643 -0.2842900753
5.279437065 2.021302938 -0.09797601402
5.35019207 2.060177803 0.09937220812
5.335166931 2.052253962 0.2973740697
5.352823734 2.056901455 0.4979825318
5.306059837 2.037868977 0.6927619576
5.275651932 2.024077415 0.888286531
5.268295288 2.019145727 1.088437438
5.268869877 2.017256975 1.292565346
5.242286682 2.006030321 1.492402673
4.80641222 1.831548214 -1.366616607
4.810136318 1.83104229 -1.178290248
5.243854046 1.995097756 -1.082331538
4.97177124 1.889590979 -0.8357245326
4.89999342 1.86035645 -0.6384081841
4.916187763 1.865520597 -0.4563221037
5.126624107 1.943329692 -0.2851274312
5.185482502 1.964603066 -0.09609115869
5.363313198 2.042690754 0.09947691858
5.35723114 2.039301157 0.2982114255
5.356246471 2.03678894 0.4976339042
5.320915699 2.021228313 0.6937369108
5.293765545 2.009857893 0.8901637793
5.278982639 2.002137423 1.089200735
5.286813736 2.002994061 1.29526484
5.245643139 1.986351967 1.491367459
4.823622704 1.818847775 -1.369722486
4.819828987 1.816456556 -1.17919004
5.265485764 1.982313395 -1.085384488
4.996498108 1.880051374 -0.83885324
4.909852505 1.845492601 -0.6388956904
4.930130005 1.85115087 -0.4570193291
5.288244247 1.984561563 -0.2938151956
5.108047485 1.914903879 -0.09452044219
5.364444733 2.022776127 0.09937220812
5.368054867 2.02199769 0.2984207869
5.370782852 2.020884991 0.4983311594
5.336880207 2.007065058 0.6949555874
5.308146477 1.994144201 0.8914152384
5.278241158 1.981858492 1.087674141
5.297076225 1.986821294 1.296164632
5.263399601 1.972094655 1.494473338
4.8422966 1.807572246 -1.373345852
4.815184593 1.795536995 -1.176490664
5.279388428 1.967585087 -1.086910963
5.036352634 1.875005603 -0.8444848657
4.918125629 1.829033494 -0.6391394138
4.95304966 1.841040373 -0.4585881531
5.323225498 1.976516724 -0.2953852713
5.127824783 1.90193069 -0.09476476908
5.373345375 2.004738331 0.09940710664
5.382565498 2.006038189 0.2988394499
5.384923458 2.005843878 0.4990283549
5.332690239 1.984271049 0.6934931874
5.322480202 1.978357077 0.8926666975
5.296168804 1.967525363 1.089963913
5.307632446 1.969675899 1.297064424
5.2811203 1.957737207 1.497579098
4.85944891 1.794675231 -1.376451731
4.821423054 1.778716683 -1.176490664
5.293591976 1.951862454 -1.088437438
5.016916275 1.847854495 -0.8401046991
4.930068493 1.813912272 -0.6398706436
4.957576275 1.823050857 -0.4584138095
5.337591171 1.960679054 -0.2958039641
5.14569664 1.888151407 -0.0949742049
5.397194862 1.992200375 0.09972125292
5.38203907 1.984474778 0.2984207869
5.406847954 1.992547631 0.5004229546
5.348897934 1.969074249 0.6947118044
5.333062649 1.961128473 0.8932924271
5.310376167 1.951733828 1.091490269
5.314476013 1.951135516 1.297064424
5.295176983 1.941952825 1.499649644
4.865684509 1.777700305 -1.376451731
4.845908642 1.768558025 -1.180989623
5.292996407 1.930680156 -1.086910963
5.008487701 1.824921846 -0.8376017809
4.934504986 1.79601419 -0.6396269202
4.969526291 1.807778835 -0.4589367509
5.357542992 1.946808696 -0.2965366542
5.295113087 1.922033787 -0.09762696922
5.4116292 1.976093292 0.09986086935
5.392686844 1.967043281 0.2986300886
5.413769722 1.973663092 0.5004229546
5.368795872 1.955144644 0.6964179873
5.338019371 1.941826582 0.8929796219
5.328226566 1.937211394 1.093780041
5.324917793 1.93390429 1.297964215
5.309187412 1.926091313 1.50172019
4.875494957 1.762017131 -1.377487063
4.859384537 1.754277349 -1.182789207
5.303397179 1.913523436 -1.087674141
5.076153755 1.829529285 -0.8479264379
4.955685139 1.784159064 -0.6415768266
4.970182896 1.788395882 -0.4584138095
5.369943619 1.930125952 -0.2968506813
5.362016201 1.925160646 -0.09874392301
5.42789793 1.960589051 0.1000353992
5.418307304 1.954984307 0.2996768057
5.41687727 1.953402758 0.5000742674
5.394265175 1.943118215 0.6988554597
5.354058266 1.926523924 0.8945438862
5.327567101 1.915941596 1.092253566
5.340806007 1.918597817 1.300213814
5.304967403 1.903635859 1.498614311
4.883433819 1.745638847 -1.37800467
4.872818947 1.739926577 -1.184588909
5.321138382 1.898959994 -1.089963913
5.093673706 1.81577754 -0.8498036861
4.971233845 1.770177722 -0.6427955031
4.978272915 1.771702766 -0.4585881531
5.37288475 1.910030127 -0.29664132
5.387214184 1.914062381 -0.09909296781
5.429059029 1.939610243 0.09993068129
5.428522587 1.93835032 0.299886167
5.43116951 1.937158346 0.5007715225
5.395404816 1.922279358 0.6981242299
5.365999699 1.910747647 0.8954825401
5.345320702 1.901281953 1.094543338
5.363997459 1.905813575 1.304262877
5.329455853 1.892496347 1.503790736
4.898605347 1.731800318 -1.380592942
4.87488699 1.722460628 -1.183689117
5.342545986 1.885599971 -1.093016863
5.092214584 1.796248555 -0.8485521674
4.975204945 1.753021717 -0.6425517201
4.99570179 1.758286715 -0.459634006
5.390494347 1.89617753 -0.2972693741
5.390088081 1.89392364 -0.09902315587
5.435461998 1.921594858 0.09993068129
5.435255051 1.919390559 0.299886167
5.449172974 1.922163486 0.5018174052
5.399876595 1.903717995 0.6978804469
5.385680199 1.896596789 0.8976725936
5.355298996 1.884850502 1.095306516
5.366611004 1.886723876 1.303363085
5.343321323 1.876440525 1.505861282
4.915262222 1.719374657 -1.383698821
4.891908169 1.709289193 -1.186388493
5.352475643 1.869168639 -1.093780041
5.130161285 1.789524198 -0.8538709879
4.988790512 1.738260388 -0.6435266733
5.01655817 1.746950984 -0.4610284865
5.393308163 1.876035929 -0.2970600426
5.400444984 1.876408577 -0.09909296781
5.45723629 1.907892942 0.1002099216
5.438150883 1.899087787 0.2996768057
5.470564365 1.909338951 0.5032119155
5.406489372 1.884855747 0.6978804469
5.397863865 1.879735708 0.8986111879
5.374825478 1.870661378 1.097977877
5.3731637 1.867980599 1.303363085
5.353488922 1.859043598 1.506896615
4.921233654 1.702207685 -1.383698821
4.883110046 1.687110543 -1.182789207
5.351543903 1.847911596 -1.092253566
5.112101078 1.763231039 -0.8498036861
4.998582363 1.722127676 -0.6440141797
5.018857956 1.728130579 -0.4606798589
5.414931774 1.862398624 -0.2978973985
5.414525986 1.860145926 -0.09923259169
5.477093697 1.893404245 0.1004542559
5.452298164 1.882702351 0.3000955284
5.48096323 1.891529799 0.5035604835
5.43180275 1.872442722 0.7003178
5.400657177 1.859594464 0.8979854584
5.394317627 1.856361508 1.100649238
5.387023449 1.851745844 1.305162668
5.367252827 1.842858076 1.508967161
4.921662331 1.683142424 -1.382145882
4.914785862 1.678877473 -1.189087868
5.369110584 1.833024383 -1.094543338
5.136919498 1.751754999 -0.8529323339
5.015838146 1.708507776 -0.6454766393
5.024858475 1.710604548 -0.4606798589
5.427073479 1.845413327 -0.2982114255
5.424773693 1.842519283 -0.09930240363
5.487454414 1.875566006 0.1005240604
5.473958492 1.868819594 0.3009328842
5.483762264 1.871098042 0.5032119155
5.442064285 1.854750156 0.7008053064
5.408984661 1.841371894 0.8982983232
5.398906231 1.836886644 1.100267529
5.411904335 1.839204431 1.309661746
5.369995117 1.822868347 1.507931948
4.940318584 1.670282245 -1.385769248
4.905846596 1.656722188 -1.185488701
5.377336979 1.814897895 -1.094924927
5.148619175 1.73570478 -0.8538709879
5.034939766 1.695424318 -0.6471828222
5.034576416 1.694323659 -0.4610284865
5.435374737 1.827095389 -0.2983160913
5.438755512 1.826116443 -0.09944202006
5.492073059 1.855760813 0.1004891619
5.495587826 1.854808688 0.3017702699
5.497810841 1.854493141 0.5039091706
5.4522686 1.837008834 0.7012928128
5.426612854 1.826258659 0.9001755714
5.401564121 1.816776633 1.099504352
5.425680637 1.822783113 1.311461329
5.383650303 1.80657196 1.510002494
4.964439869 1.6591537 -1.390945673
5.296080589 1.767935991 -1.279068351
5.398536682 1.801090717 -1.097977877
5.15652132 1.718345404 -0.8541837931
5.048361778 1.680345058 -0.6481577158
5.049913883 1.679882646 -0.4619000554
5.44361496 1.808739781 -0.2984207869
5.456167698 1.81185329 -0.09965144843
5.506104469 1.839111209 0.1006287783
5.505496502 1.83784318 0.3019796014
5.511811256 1.837810159 0.5046063662
5.460529327 1.818596482 0.7015365362
5.447633743 1.813242674 0.9026784897
5.415324688 1.800389171 1.101030827
5.435709953 1.805059791 1.312361121
5.411614418 1.796009541 1.516214013
4.995882511 1.650296569 -1.398192525
5.346326828 1.765024424 -1.28986609
5.410384178 1.78407824 -1.099122643
5.23160696 1.724113941 -0.8657599688
5.052020073 1.662975192 -0.6479139924
5.068994999 1.666602135 -0.4631202519
5.447685242 1.790055752 -0.2983160913
5.462459087 1.792797804 -0.09965144843
5.523565292 1.824606657 0.1008382067
5.504292011 1.816109419 0.3015609384
5.533330441 1.823549151 0.5060008764
5.47595787 1.803582072 0.7027552128
5.468941212 1.799155474 0.9051814079
5.445509911 1.790393949 1.10599184
5.434260845 1.78459084 1.310561538
5.421521664 1.778314114 1.517249346
2.721003056 0.8872585297 -0.5480661988
2.679392576 0.8726556301 -0.4396324158
5.074782372 1.648896456 -0.4631202519
5.434904099 1.764861345 -0.2972693741
5.464879513 1.772483945 -0.09958163649
5.539404869 1.808418751 0.1010127291
5.518193722 1.799360037 0.3019796014
5.546925068 1.80766058 0.5066981316
5.495434284 1.788756013 0.7044613957
5.45452404 1.773334503 0.9017398953
5.45172739 1.771373153 1.10599184
5.455284595 1.770424366 1.314160705
5.431371689 1.760571122 1.518284678
2.604301691 0.8401629925 -0.7216395736
2.665459871 0.8593794703 -0.6366081238
2.656961918 0.8556158543 -0.5343280435
2.675050497 0.8604104519 -0.4383809268
2.680403233 0.8616158962 -0.3405595124
5.080506802 1.631173253 -0.4631202519
5.448944092 1.747367859 -0.297688067
5.478650093 1.755839348 -0.09972125292
5.549490452 1.790298104 0.101082541
5.545351028 1.786826015 0.3031309843
5.542133331 1.783654213 0.5056522489
5.516762257 1.774426222 0.7064113021
5.479487419 1.760326862 0.9048685431
5.469398975 1.754980087 1.108281612
5.480294704 1.756366491 1.318659782
5.43012476 1.739242673 1.516214013
2.638881445 0.840144515 -0.6294096708
2.658061504 0.8457400799 -0.5339463949
5.086170197 1.613427639 -0.4631202519
5.422642231 1.718082786 -0.2959086299
5.499997616 1.741532564 -0.1000004932
5.548393726 1.767519593 0.1009429246
5.559167862 1.769880414 0.3035497069
5.554022312 1.766110182 0.50617522
5.509985447 1.749986768 0.7047051191
5.489364147 1.742385745 0.9054943323
5.46987772 1.734096289 1.107136726
5.49010849 1.738401175 1.319559574
5.45089817 1.724938989 1.520355225
2.626687527 0.8271835446 -0.7262982726
2.643511772 0.8319746852 -0.6298595667
2.681599617 0.8429331779 -0.5381441712
2.665768623 0.8374457359 -0.435877949
2.697716951 0.8464478254 -0.3420219123
5.105079174 1.599835277 -0.4643404186
5.430216312 1.700686574 -0.2960133255
5.513676643 1.724712491 -0.1001401171
5.514169693 1.736495256 0.1002099216
5.521491051 1.736685514 0.3011422455
5.524038315 1.735365152 0.5028632879
5.493030548 1.72457099 0.7017802596
5.4633708 1.71316433 0.9001755714
5.486838818 1.719471574 1.109426379
5.507000923 1.723679423 1.322258949
5.471636295 1.710513711 1.524496198
2.64417243 0.8230624199 -0.7304394245
2.65012145 0.8238996267 -0.6307593584
2.69000411 0.835784018 -0.5392889977
2.678108692 0.831063211 -0.4374423027
2.69496727 0.8352621794 -0.3412907422
5.119871616 1.585845947 -0.4652119577
5.462832928 1.689983606 -0.2974787056
5.523483753 1.706637263 -0.1002099216
5.531655312 1.720799327 0.10041935
5.523705006 1.716214538 0.3009328842
5.535471439 1.718808174 0.5033861995
5.489536762 1.702447414 0.700561583
5.478751659 1.697006702 0.9017398953
5.509685516 1.705534458 1.112860918
5.516708374 1.705595613 1.323158741
5.481266499 1.692542195 1.52553153
2.647029638 0.8138267994 -0.7304394245
2.664158583 0.8180754781 -0.6334587336
2.696659327 0.8275403976 -0.5400522947
2.703657627 0.8286554813 -0.4411967695
2.705458403 0.8281759024 -0.3422656655
5.13871336 1.5720433 -0.4664321244
5.472517967 1.672075391 -0.297688067
5.521757603 1.685010195 -0.1000702977
5.552918911 1.706182122 0.1006985903
5.529662132 1.696921349 0.3009328842
5.552865028 1.702984214 0.5044320822
5.504936218 1.686180353 0.7017802596
5.480864048 1.67671454 0.9011141062
5.526870728 1.689734221 1.11515069
5.518899918 1.685191154 1.322258949
5.498226643 1.676783681 1.528637409
2.653551102 0.8057051301 -0.731474638
2.681917191 0.8132942915 -0.63705796
2.699531317 0.8181227446 -0.5400522947
2.708424568 0.8197844625 -0.4415096045
2.727334738 0.8244705796 -0.3447030485
5.127004623 1.548909187 -0.4648633599
5.491706371 1.656999707 -0.2984207869
5.539093494 1.669188619 -0.1002797335
5.566495419 1.689109445 0.1008382067
5.554666042 1.683402777 0.3019796014
5.551148891 1.681279302 0.503734827
5.533589363 1.673852563 0.7047051191
5.492356777 1.659284949 0.9020527601
5.52897644 1.669297934 1.114387512
5.535943985 1.669290543 1.324958324
5.496647358 1.655351281 1.526566744
2.6711514 0.8008753657 -0.7356157899
2.694073439 0.8067246675 -0.6393074989
2.717417717 0.8131967187 -0.5431052446
2.716947079 0.8120241761 -0.4424482286
2.74541378 0.8194868565 -0.3466529846
5.151471615 1.536702037 -0.466606468
5.489800453 1.635537505 -0.2980020642
5.556386471 1.653263569 -0.1004891619
5.568526745 1.66851902 0.1007683948
5.575815678 1.66858232 0.302816987
5.568437099 1.665315509 0.5047807097
5.539399147 1.654524922 0.7047051191
5.51325798 1.644624233 0.904555738
5.538532734 1.651108265 1.11515069
5.556678295 1.654408932 1.328557611
5.513503075 1.63945663 1.529672623
2.690601587 0.7964834571 -0.7402745485
2.696873426 0.7973149419 -0.6393074989
2.735301495 0.8081582785 -0.5461581349
2.734922171 0.8070070148 -0.4449511766
2.74064064 0.8076546192 -0.3456780016
5.166360855 1.521523476 -0.4674780071
5.480147362 1.611857057 -0.2971647084
5.577186108 1.639341354 -0.1007683948
5.585822105 1.652475953 0.1009778306
5.585148811 1.651216745 0.3030263186
5.608611107 1.656024694 0.5079182982
5.539429188 1.633492827 0.703973949
5.533840179 1.630798101 0.9070586562
5.555562973 1.635089517 1.117440343
5.562419415 1.635000944 1.328557611
5.530030727 1.624429345 1.532778502
2.710054398 0.791962862 -0.7449332476
2.706985235 0.7905518413 -0.641107142
2.74187541 0.7997041345 -0.546921432
2.747065544 0.8006962538 -0.4465155005
2.750927687 0.8007817864 -0.3466529846
5.181206226 1.506262422 -0.468349576
5.355041027 1.555785656 -0.2900469899
5.586716652 1.620976448 -0.1008382067
5.648853302 1.650772095 0.1020249724
5.633058548 1.644022465 0.3053291142
5.654526711 1.64814353 0.5115788579
5.600084782 1.631217718 0.7110423446
5.588814735 1.625816107 0.9151932597
5.600542545 1.62817049 1.125454307
5.575297356 1.618718147 1.330357194
5.546798706 1.608347774 1.53588438
2.723802567 0.7861853242 -0.7480391264
2.73032546 0.7870357633 -0.6460559964
2.753945351 0.7933238149 -0.5488294959
2.768827438 0.7965643406 -0.449644208
2.761337996 0.7933662534 -0.347627908
5.191917896 1.490720868 -0.4688725173
5.337400913 1.530475974 -0.288790971
5.592060566 1.602442503 -0.1008382067
5.671874046 1.636030316 0.1023391187
5.653832436 1.629757524 0.3061664701
5.673362732 1.633242846 0.5127990246
5.617192268 1.614949465 0.7125048041
5.594175339 1.607275128 0.9151932597
5.62128973 1.612941504 1.128507257
5.579039574 1.598711252 1.329907298
5.557674408 1.591539145 1.537437201
2.730246305 0.7777304649 -0.7490743995
2.755411625 0.7843805552 -0.6514548659
2.756697893 0.7837052345 -0.5488294959
2.779054165 0.7895380855 -0.4508956671
2.78687048 0.7907062173 -0.3505527973
5.187504768 1.469873786 -0.4680009484
5.605316162 1.585090399 -0.1009778306
5.671498775 1.615567565 0.1022344008
5.663328648 1.611106277 0.3063758314
5.654114246 1.606351852 0.5105329752
5.63015461 1.598482966 0.7134797573
5.590249538 1.58504498 0.9136289358
5.613384724 1.59054637 1.125836015
5.586185455 1.580733418 1.330357194
5.550182819 1.56845057 1.533813834
2.732809782 0.7686741948 -0.7490743995
2.756256819 0.7742297649 -0.6510049701
2.768732548 0.7772129178 -0.5507375598
2.781793356 0.7798318863 -0.4508956671
2.80490613 0.7852553129 -0.3525027037
5.211791992 1.457120299 -0.4697440565
5.343847275 1.493034959 -0.2885816097
5.622372627 1.568737626 -0.101187259
5.669403076 1.593597293 0.1020947844
5.672764301 1.592405677 0.3065851629
5.669002056 1.59028244 0.5114045143
5.633789062 1.57828331 0.7132359743
5.614771843 1.570842505 0.9167576432
5.628356457 1.573583841 1.127744079
5.602931499 1.564367175 1.333056569
5.570510387 1.553219318 1.537954807
2.752363443 0.7632985115 -0.7537331581
2.764576435 0.7661659122 -0.6523546576
2.784807205 0.7707260251 -0.5534089208
2.796056986 0.7727889419 -0.4527728856
2.811456919 0.7765170932 -0.3529901803
5.22452879 1.441038966 -0.4704412818
5.399348736 1.487227321 -0.2913030684
5.631669998 1.550164938 -0.1012570709
5.690346718 1.578073978 0.1023740172
5.678287506 1.572595596 0.3065851629
5.701676369 1.576930404 0.5138449073
5.652657509 1.562311172 0.7149421573
5.646879673 1.558590055 0.9211377501
5.653012753 1.558162332 1.131560206
5.621778965 1.547442317 1.336205959
5.587074757 1.536837816 1.541060686
2.762464046 0.7557259202 -0.7558037043
2.756087065 0.7529460192 -0.6496552229
2.783692598 0.7599670291 -0.5526456833
2.80636096 0.76510185 -0.4540243745
2.810453653 0.7651637197 -0.3525027037
5.249001503 1.427108884 -0.4721844196
5.54520607 1.506599307 -0.2989441156
5.652753353 1.533700824 -0.1015363038
5.711524487 1.561424613 0.102653265
5.699427605 1.555982471 0.3074225485
5.71483469 1.559114218 0.5145421028
5.662175179 1.542627335 0.7154296041
5.644929886 1.535809755 0.919886291
5.667889595 1.540996909 1.13346839
5.629027367 1.528318286 1.336655736
5.615044117 1.522417665 1.547272444
2.754024267 0.7425776124 -0.7526978254
2.76998806 0.7463634014 -0.6523546576
2.782667637 0.7487382293 -0.5518824458
2.828223228 0.7599374056 -0.4571530819
2.822693825 0.7579219937 -0.35372141
5.259724617 1.410324335 -0.4727073312
5.579629898 1.494015336 -0.3005142212
5.650345802 1.511893511 -0.1013966873
5.732385635 1.545644045 0.1029324979
5.716395855 1.539192438 0.3080506027
5.728207588 1.540228724 0.5152394176
5.679028988 1.525942683 0.7168920636
5.652163982 1.516608953 0.9201991558
5.684878349 1.523257256 1.135758042
5.642120838 1.509692669 1.338455319
5.61659193 1.501808524 1.546237111
2.74887681 0.7319329381 -0.7506272793
2.78751421 0.7411803603 -0.6559538841
2.80018568 0.7440249324 -0.5549353361
2.838233709 0.7530754805 -0.458404541
2.844379902 0.7536422014 -0.356158793
5.277855873 1.396440625 -0.4739275575
5.741344929 1.527652979 0.1030023098
5.733050346 1.52330339 0.3086785972
5.725315094 1.520178318 0.5145421028
5.703246117 1.512187839 0.7193294764
5.66479969 1.499880791 0.9214506149
5.69912529 1.507902145 1.137666106
5.658140182 1.494947791 1.341154814
5.621541023 1.483176112 1.546237111
2.764621019 0.7252850533 -0.7542507648
2.793854713 0.7324331999 -0.6568536758
2.812389851 0.7362433672 -0.5568434596
2.840975523 0.7426656485 -0.458404541
2.862358332 0.7477232814 -0.3581086993
5.276915073 1.376498818 -0.4734046161
5.657316685 1.473621726 -0.3041777015
5.681794167 1.478935957 -0.1017806381
5.73890543 1.505574226 0.1028626934
5.74219656 1.504295468 0.3088879585
5.750123501 1.504227638 0.5162852407
5.712331772 1.493273258 0.7198169231
5.677646637 1.482092023 0.9227020741
5.697014332 1.485023975 1.136139631
5.674897671 1.477140903 1.343854189
5.641640663 1.467435837 1.550378084
2.791450262 0.7219175696 -0.7609800696
2.800293922 0.7231634259 -0.6577534676
2.830150843 0.7303456068 -0.5598964095
2.862678766 0.737675488 -0.4615332186
2.868924618 0.7382158041 -0.3585961759
5.295194149 1.361547351 -0.4746247828
5.654688358 1.451876879 -0.3037590384
5.671425343 1.455121994 -0.1015014052
5.767617226 1.49053514 0.1032815427
5.753213882 1.485741854 0.3092019856
