# .PCD v0.7 - Point Cloud Data file format
VERSION 0.7
FIELDS x y z
SIZE 4 4 4
TYPE F F F
COUNT 1 1 1
WIDTH 1195
HEIGHT 1
VIEWPOINT 0 0 0 1 0 0 0
POINTS 1195
DATA ascii
-1.908059597 -0.1971790344 -0.230389595
-1.902917147 -0.1963115185 -0.1636531055
-1.909416318 -0.1963089257 -0.09839273244
-1.921657801 -0.1968896836 -0.03301815689
-1.909343004 -0.19933258 0.03280872852
-1.909175158 -0.1986414343 0.09839273244
-1.906743169 -0.1980520189 0.1640017331
-1.866559863 -0.1932196915 0.2252710909
-1.871657848 -0.1930866987 0.2913325131
-1.884157181 -0.1940443218 0.3599285781
-1.884509325 -0.1934154034 0.427403599
-1.872819781 -0.1915550828 0.4928435087
-1.882662654 -0.1902380884 -0.4954317212
-1.888754964 -0.1901877373 -0.4283033907
-1.90806663 -0.1917959601 -0.3645080328
-1.899739981 -0.1902891994 -0.2957126498
-1.900835156 -0.1897283345 -0.2294146568
-1.915486217 -0.1908535361 -0.1646989733
-1.902140021 -0.1888528019 -0.09797404706
-1.914373636 -0.1893931031 -0.03287853673
-1.902068734 -0.1918641478 0.03266910836
-1.905882478 -0.1915764064 0.09818339348
-1.909405112 -0.1915939152 0.1641760319
-1.861297131 -0.1861104369 0.224539876
-1.866423488 -0.1859650612 0.290393889
-1.888730168 -0.1878547519 0.3606918156
-1.869658947 -0.1852988899 0.4238043725
-1.863864422 -0.1840672195 0.4902553558
-1.881360531 -0.1838060021 -0.4949140549
-1.883556485 -0.1833568364 -0.4269536734
-1.893059731 -0.1839484423 -0.3614550531
-1.90429306 -0.1843690425 -0.2963384092
-1.893550158 -0.1826618314 -0.2284397036
-1.912142038 -0.1841184944 -0.1643503457
-1.906732082 -0.1829258949 -0.09818339348
-1.911009789 -0.1826631427 -0.03280872852
-1.910655618 -0.1863314509 0.03280872852
-1.902531385 -0.1848687977 0.09797404706
-1.910030007 -0.1852609664 0.1641760319
-1.871783495 -0.1808918267 0.2257585675
-1.851299644 -0.1782600284 0.2878909409
-1.889342666 -0.1815903932 0.3606918156
-1.874142885 -0.1794693023 0.4247041643
-1.856772184 -0.1771514118 0.4881847799
-1.870450616 -0.1761508733 -0.4918082356
-1.89776659 -0.1780551076 -0.430103004
-1.893690348 -0.1773392558 -0.3614550531
-1.900991321 -0.1773536503 -0.2957126498
-1.906035781 -0.1771532148 -0.2299021333
-1.896902084 -0.1759704053 -0.1629558504
-1.911336541 -0.1766365767 -0.09839273244
-1.911635756 -0.1759912968 -0.03280872852
-1.907312512 -0.1792870015 0.0327389203
-1.911119342 -0.1789714396 0.09839273244
-1.898762465 -0.1774799824 0.1631301641
-1.876356721 -0.1747250408 0.2262460589
-1.857811332 -0.1723440588 0.288829565
-1.88605535 -0.1746321917 0.3599285781
-1.874757886 -0.1729261875 0.4247041643
-1.853531718 -0.1703158468 0.4871495068
-1.861434221 -0.1687490046 -0.4892200232
-1.884790659 -0.1702026725 -0.4269536734
-1.896253109 -0.1709045917 -0.3618366718
-1.897663832 -0.1703635603 -0.2950869203
-1.902688146 -0.170145154 -0.2294146568
-1.90147388 -0.169702068 -0.1633044779
-1.903983831 -0.1692562401 -0.09797404706
-1.906233311 -0.1691208929 -0.03270401433
-1.891994357 -0.1711860746 0.03245967999
-1.915680647 -0.1729921401 0.09860207886
-1.895401835 -0.1704939455 0.1627815366
-1.871023536 -0.1676432043 0.2255148292
-1.858372808 -0.1661823094 0.288829565
-1.880786896 -0.1675249636 0.3587837219
-1.883114576 -0.1670698076 0.4265037775
-1.861783504 -0.1648498476 0.4892200232
-1.890880466 -0.1647658199 -0.4969846606
-1.895051718 -0.1647956222 -0.4292031825
-1.939868569 -0.1680107266 -0.3702322841
-1.91002667 -0.1650902927 -0.2969641387
-1.928952813 -0.1660478711 -0.2325832546
-1.919920683 -0.1645957232 -0.1648732871
-1.918464661 -0.1641331613 -0.09870675206
-1.930721641 -0.1645034552 -0.03312287107
-1.900520205 -0.1656057984 0.03259930015
-1.914283156 -0.1661318392 0.0984974131
-1.913850307 -0.1654207855 0.1643503457
-1.875524759 -0.1617788672 0.2260023206
-1.870750308 -0.1607087702 0.2907067835
-1.912629485 -0.1639706343 0.3648896217
-1.889483333 -0.1613215208 0.4278534949
-1.879671812 -0.1598229706 0.4938787818
-1.943394184 -0.1628500223 -0.5109608173
-1.938339353 -0.1617451459 -0.4391010404
-1.950197577 -0.1623919308 -0.3721403778
-1.944057822 -0.1611974388 -0.3022829294
-1.945347667 -0.1606202722 -0.2345331609
-1.946297526 -0.1600147337 -0.1671393216
-1.938931465 -0.1590684652 -0.09975346923
-1.95121479 -0.1593905538 -0.0334719196
-1.928985 -0.1613031179 0.0330879651
-1.924803257 -0.1602773666 0.09902077168
-1.950128198 -0.1620430052 0.1674879491
-1.899817944 -0.1571953148 0.2289271802
-1.892955542 -0.1559622735 0.2941483259
-1.932756662 -0.1589014679 0.3687058091
-1.905572772 -0.1559974104 0.4314526916
-1.903323889 -0.1551440656 0.5000904799
-1.943977952 -0.1557260007 -0.5109608173
-1.958317637 -0.1565307528 -0.4436000884
-1.966436148 -0.1564889252 -0.3751933277
-1.976142764 -0.1565667987 -0.3072888255
-1.969643593 -0.1557064354 -0.2374580353
-1.958761811 -0.1541577727 -0.1681852043
-1.961404324 -0.153677389 -0.1009048671
-1.959733605 -0.1532019079 -0.03361153975
-1.967409134 -0.1576029956 0.03375115618
-1.943269491 -0.1549861431 0.09996281564
-1.970570326 -0.1564718485 0.1692310721
-1.930038452 -0.1529140174 0.2325832546
-1.901365399 -0.1499749422 0.295399785
-1.960727334 -0.1539686322 0.3740484715
-1.933331132 -0.1511378884 0.437751323
-1.925039768 -0.1501521617 0.505784452
-1.96377182 -0.1504146159 -0.5161372423
-1.986081481 -0.1514261365 -0.44989869
-1.994376779 -0.1517085284 -0.3805359602
-1.996374488 -0.151159659 -0.3104175031
-2.001872778 -0.1508727521 -0.241357848
-1.983129144 -0.1491125375 -0.1702769399
-1.989812493 -0.1489161402 -0.1023702696
-1.99019444 -0.1482466608 -0.03413511068
-1.977942944 -0.1511528343 0.03392568231
-1.969713807 -0.1498324722 0.101323545
-1.990971327 -0.1510995328 0.170974195
-1.952360034 -0.1474843323 0.2352643907
-1.925540209 -0.1447823942 0.299154222
-1.980830193 -0.1485920399 0.377864629
-1.96105361 -0.1464201659 0.4440499544
-1.939062953 -0.144097209 0.5094079375
-2.002819061 -0.1463750601 -0.5264900327
-2.009921312 -0.1461888403 -0.4552974999
-2.106506348 -0.1528442353 -0.4022881985
-2.061908245 -0.1488848031 -0.3207421601
-2.085546732 -0.1498599648 -0.2515948713
-2.035307169 -0.1458929032 -0.1748090386
-2.030164003 -0.1448119879 -0.1044637039
-2.052534819 -0.145687148 -0.0352171585
-2.002391338 -0.1459924728 0.03434453905
-2.006081343 -0.1455575973 0.1032076478
-2.029243469 -0.1468821764 0.1742860973
-2.014241934 -0.1450895965 0.2428202927
-1.95755887 -0.1403198242 0.3041601181
-2.024418354 -0.1447567642 0.3862602115
-2.015980005 -0.1434466094 0.4566472173
-1.983875751 -0.1404658258 0.5213136077
-2.130512476 -0.1482331753 -0.5606541038
-2.144561291 -0.1484579891 -0.4863407314
-2.171660423 -0.149953112 -0.414881587
-2.186571598 -0.1502158791 -0.3404529393
-2.214787483 -0.1513776183 -0.2674378753
-2.19283843 -0.1494929343 -0.1885796487
-2.176122904 -0.1475903094 -0.1121047512
-2.2046628 -0.1487524062 -0.03786992654
-2.116598129 -0.146893397 0.03633411601
-2.132105589 -0.1472218484 0.1098019779
-2.202672005 -0.1517082155 0.1894512028
-2.139503956 -0.1466072351 0.2581758201
-2.141321659 -0.1459808648 0.3332569599
-2.191403866 -0.14901039 0.4186977446
-2.16034627 -0.1461415589 0.4899399579
-2.150118351 -0.1446957588 0.5658305287
-2.140655279 -0.1414316297 -0.5632423162
-2.148955822 -0.1412272155 -0.4872405827
-2.152580261 -0.1410876065 -0.4110653996
-2.240304708 -0.146052599 -0.3489003778
-2.235111952 -0.1449300647 -0.2698752582
-2.247029066 -0.1453084797 -0.1932860464
-2.238412142 -0.1439672112 -0.1153495833
-2.243085623 -0.1434816569 -0.03853311762
-2.220856905 -0.1463412195 0.03814916313
-2.21033287 -0.1448729187 0.1138841808
-2.244939089 -0.1467476636 0.1931117475
-2.199429989 -0.1430018395 0.2654879689
-2.177300692 -0.1407993585 0.3388886154
-2.225216627 -0.1435085088 0.425185293
-2.18806982 -0.1403454095 0.4962386489
-2.196880579 -0.1401411146 0.5782538056
-2.123782873 -0.1328727454 -0.5585835576
-2.143600702 -0.1333615035 -0.4858908653
-2.156978607 -0.1338158995 -0.4118286371
-2.2782619 -0.1405418813 -0.3548449278
-2.275231361 -0.1395583153 -0.2747500539
-2.271386862 -0.1389240772 -0.1953777969
-2.272791862 -0.138214305 -0.1171290129
-2.275485754 -0.1379789859 -0.03909159452
-2.253287315 -0.1405808479 0.03870764375
-2.246682405 -0.1397746056 0.1157682762
-2.279243708 -0.1410023123 0.1960750371
-2.243505716 -0.1380048096 0.2708502412
-2.199443817 -0.1349096596 0.342330128
-2.266855955 -0.1382498443 0.4331992269
-2.231339931 -0.1353021115 0.506136477
-2.224329948 -0.1344874203 0.5855007768
-2.112663031 -0.1247756183 -0.5554777384
-2.149867296 -0.1265964359 -0.4872405827
-2.145673275 -0.1255979538 -0.4095389545
-2.314211607 -0.1350575984 -0.3604765534
-2.311353445 -0.1340818554 -0.2791373432
-2.295727015 -0.1323708147 -0.1974695325
-2.311123133 -0.1328544319 -0.1191177741
-2.315882206 -0.1323164403 -0.03978969157
-2.283684492 -0.1348762959 0.03923121467
-2.287033319 -0.134272486 0.1178617179
-2.299612045 -0.1342055649 0.1978181452
-2.279622078 -0.1326397657 0.2752375305
-2.243287086 -0.12973997 0.3492132723
-2.282981634 -0.1316359341 0.4362521768
-2.270687342 -0.1301318407 0.5151344538
-2.242144346 -0.1277109087 0.5901594758
-2.120780468 -0.1181990206 -0.5575482845
-2.140567303 -0.1185518429 -0.4849910736
-2.142157316 -0.1182654053 -0.4087756872
-2.346227646 -0.1287098527 -0.3654824495
-2.351450443 -0.1281737238 -0.2840121388
-2.335942507 -0.1269189715 -0.2009557486
-2.343482733 -0.1265082657 -0.1207925305
-2.368247509 -0.1270161271 -0.04069721699
-2.312093973 -0.1284568757 0.03971988335
-2.321389675 -0.1281605661 0.1196411327
-2.331874609 -0.1283312291 0.2006071359
-2.30385685 -0.1259827465 0.27816239
-2.283175707 -0.1240519956 0.3554706573
-2.308912516 -0.1250462085 0.4412132204
-2.313938141 -0.124508366 0.5250323415
-2.27344203 -0.1215335205 0.5984416604
-2.125038385 -0.1109968647 -0.5585835576
-2.127345085 -0.1103727892 -0.4818417132
-2.150399685 -0.1111926436 -0.410302192
-2.370336056 -0.1217355281 -0.3692368865
-2.391533852 -0.1219866946 -0.2888869047
-2.380147219 -0.120989427 -0.204790622
-2.371835709 -0.1197369248 -0.1222579256
-2.410617113 -0.1208517477 -0.04143021628
-2.35646224 -0.1226724163 0.04048778862
-2.351741791 -0.1216036156 0.1212112084
-2.372103214 -0.1222407967 0.2040933669
-2.318160057 -0.1186502352 0.279868573
-2.315160036 -0.1176859438 0.3604765534
-2.342667341 -0.1186748743 0.4477007091
-2.333821535 -0.1174095124 0.5295313597
-2.318229675 -0.1158139259 0.6103473902
-2.125412941 -0.1035783589 -0.5585835576
-2.123824358 -0.1027578935 -0.4809419215
-2.150774717 -0.1036856025 -0.410302192
-2.414155006 -0.1155381799 -0.3761200011
-2.411773682 -0.1145799011 -0.2913242877
-2.428318977 -0.1149417683 -0.2089740783
-2.412140608 -0.1133315936 -0.1243513823
-2.44498229 -0.1140193492 -0.04202359915
-2.404812098 -0.1167737171 0.04132550582
-2.37609148 -0.1145477742 0.1224672794
-2.422267675 -0.1163501441 0.2084511369
-2.364165306 -0.1127321869 0.2854745388
-2.358966351 -0.1116590425 0.367359668
-2.382288933 -0.1123457327 0.4553331137
-2.35757637 -0.1103561595 0.5349301696
-2.359144926 -0.109603785 0.6212177873
-2.118042469 -0.09580941498 -0.5565130115
-2.130010605 -0.09560581297 -0.4822916389
-2.135433197 -0.09547527134 -0.4072492421
-2.444144964 -0.1084235609 -0.3808130324
-2.455788612 -0.1080812216 -0.2966865301
-2.454581499 -0.1075989008 -0.2112401277
-2.466396332 -0.1072542891 -0.1271775216
-2.489317894 -0.1073799431 -0.04279150441
-2.4491539 -0.1103589013 0.04209340736
-2.416382074 -0.1080365032 0.1245607138
-2.458486795 -0.1094896793 0.2115887552
-2.406190872 -0.1063185632 0.2905930579
-2.384997368 -0.1045486033 0.3714269698
-2.437585592 -0.1064270437 0.4660184085
-2.392991543 -0.103643775 0.5430284142
-2.38267374 -0.1023636907 0.6274294257
-2.106782913 -0.08793205768 -0.5534071922
-2.132278442 -0.08825114369 -0.4827415645
-2.131830454 -0.08785939962 -0.4064860046
-2.491878271 -0.101827465 -0.3883219063
-2.503736258 -0.101873748 -0.302536279
-2.498739481 -0.1007962227 -0.2150750011
-2.516647339 -0.1006393731 -0.1297943145
-2.523628235 -0.1004768014 -0.04338488355
-2.49347949 -0.1036359221 0.04286131263
-2.458633423 -0.1017583907 0.1267588288
-2.480751753 -0.1018058732 0.2135061771
-2.456133604 -0.09993685037 0.2966865301
-2.416910887 -0.09791842848 0.3764328659
-2.461482048 -0.09886361659 0.4705978334
-2.447843313 -0.09788793325 0.5556256771
-2.413885593 -0.09568609297 0.6357116699
-2.11864543 -0.08139011264 -0.5565130115
-2.128664494 -0.08103142679 -0.4818417132
-2.13995719 -0.08108677715 -0.4080124497
-2.519837856 -0.09460095316 -0.3927020431
-2.551669598 -0.09534943104 -0.3083859682
-2.544853449 -0.09420523047 -0.2190841585
-2.556885481 -0.09375695884 -0.1318877488
-2.575904846 -0.09400420636 -0.04429240897
-2.527779341 -0.0966656357 0.04345469922
-2.492886305 -0.09489617497 0.1285382509
-2.506958246 -0.09455496818 0.2157722414
-2.482239723 -0.09275501221 0.2998551428
-2.47446847 -0.09203217179 0.3855060637
-2.489263296 -0.09171237797 0.4759404361
-2.494892836 -0.0914837867 0.5664233565
-2.445079327 -0.08880261332 0.6439938545
-2.11504221 -0.07422888279 -0.5554777384
-2.117236376 -0.07356597483 -0.479142338
-2.140227079 -0.07361637801 -0.4080124497
-2.571467638 -0.08800086379 -0.4008366466
-2.603569508 -0.08818902075 -0.3147231936
-2.592957258 -0.08692346513 -0.2232676297
-2.593128204 -0.08602306992 -0.1337718368
-2.622185469 -0.08652887493 -0.04509522021
-2.578047991 -0.0900273025 0.04432731867
-2.529131651 -0.08743585646 0.1304223388
-2.559029818 -0.08802174032 0.2203043401
-2.510308981 -0.08546867222 0.3032674789
-2.500440121 -0.08425890654 0.3895733654
-2.536660433 -0.08459302783 0.4850992858
-2.51272583 -0.08335585147 0.5704724789
-2.487851858 -0.08166137338 0.6553818583
-2.126885414 -0.06684041023 -0.5585835576
-2.121387243 -0.06592594087 -0.4800421298
-2.132633448 -0.06553085148 -0.4064860046
-2.623108625 -0.08014316112 -0.4089712501
-2.643558979 -0.07984503359 -0.3195979595
-2.645037651 -0.07896498591 -0.2277997285
-2.65132165 -0.07822635025 -0.1368073374
-2.664460421 -0.07814859599 -0.04582822323
-2.62632966 -0.08207736164 0.04516502842
-2.561376095 -0.07915193588 0.1320970953
-2.613104343 -0.08029460162 0.2250107378
-2.548304558 -0.07741254568 0.3078985214
-2.542196512 -0.07633884251 0.3961436152
-2.578163624 -0.07651818544 0.4931133091
-2.54223299 -0.07500772923 0.5772209764
-2.542203426 -0.07411874831 0.669875741
-2.119391918 -0.05883009732 -0.5565130115
-2.127458811 -0.05831087381 -0.4813918471
-2.136774302 -0.05819249526 -0.4072492421
-2.676700592 -0.07196241617 -0.4174186885
-2.675584316 -0.07099719346 -0.323497802
-2.69309783 -0.07099223137 -0.2319832146
-2.699496508 -0.07021737099 -0.1393194646
-2.698712587 -0.06925437599 -0.04642160237
-2.674587488 -0.07377345115 0.04600274563
-2.613558292 -0.07117713243 0.1348185539
-2.647239447 -0.07163206488 0.2279740423
-2.604134083 -0.06955605 0.3147231936
-2.56220603 -0.06754181534 0.3992722929
-2.631404638 -0.06890576333 0.5034168959
-2.585348845 -0.06679735333 0.5871188641
-2.577219963 -0.06568656117 0.6791932583
-2.098340034 -0.0509156324 -0.5508189797
-2.135442019 -0.0510706082 -0.4831914306
-2.136964321 -0.05073334649 -0.4072492421
-2.730256319 -0.06386573613 -0.4258661568
-2.733368397 -0.06298395246 -0.3305662274
-2.731174469 -0.06245585158 -0.2352951169
-2.751640558 -0.06196358055 -0.1420409232
-2.756914854 -0.06111892313 -0.0474338457
-2.708813667 -0.06525621563 0.04659612849
-2.667701721 -0.0633335039 0.1376447082
-2.67735076 -0.06309570372 0.2305887192
-2.663897514 -0.06184769049 0.3220353425
-2.61574769 -0.05981629714 0.4077197909
-2.668921471 -0.06056623533 0.5106676817
-2.642065525 -0.05903412029 0.6001659632
-2.619924068 -0.05762509629 0.6905812621
-2.094642401 -0.04351094738 -0.5497837067
-2.131710529 -0.04353606328 -0.4822916389
-2.133202791 -0.04319460317 -0.4064860046
-2.777862072 -0.05527746677 -0.433375001
-2.818914175 -0.05511073768 -0.341046989
-2.799104691 -0.05423409119 -0.241221711
-2.775000811 -0.05715918541 0.04774798453
-2.719824791 -0.05507293716 0.1403661817
-2.727354527 -0.05474922806 0.2349465042
-2.689898252 -0.05305806175 0.3252039552
-2.675190449 -0.05183319002 0.4171058536
-2.698559999 -0.05181549862 0.516391933
-2.696810722 -0.05083961785 0.612763226
-2.670328856 -0.04940799624 0.7040398717
-2.106370926 -0.03639923036 -0.5528895855
-2.116261959 -0.03583126888 -0.4786924124
-2.141192198 -0.03587957844 -0.4080124497
-2.799764395 -0.04593764618 -0.4368165731
-2.817104101 -0.04523792863 -0.3408032358
-2.817206144 -0.04474844411 -0.2427905053
-2.817907572 -0.04377509281 -0.1454951018
-2.837252855 -0.04308573157 -0.04883003607
-2.763933897 -0.04631474987 0.1426689625
-2.783308029 -0.04615285248 0.2398272157
-2.731748819 -0.04434478283 0.3303224742
-2.728683472 -0.04334235191 0.425553292
-2.755651712 -0.04328966886 0.5274589062
-2.728147745 -0.04190512374 0.619961679
-2.711049318 -0.04069534317 0.7149102688
-2.110343218 -0.02946791612 -0.5539248586
-2.116369009 -0.02881321125 -0.4786924124
-2.137373447 -0.02872608788 -0.4072492421
-2.803851843 -0.03670464456 -0.4374423027
-2.821208715 -0.03594697267 -0.3412907422
-2.825307846 -0.03550603986 -0.2434877604
-2.822031736 -0.03447902948 -0.1457044482
-2.823377371 -0.03400332853 -0.04858570173
-2.815315723 -0.03882041574 0.0484460853
-2.800012827 -0.03812064976 0.1445530504
-2.84122014 -0.0376897715 0.2448822558
-2.779519081 -0.03590093926 0.3361722231
-2.7762115 -0.03537362814 0.433062166
-2.808784008 -0.03480811045 0.5377625823
-2.771141052 -0.03337422386 0.6298595667
-2.765251875 -0.03282062709 0.7294041514
-2.102705956 -0.02202028409 -0.5518542528
-2.124247551 -0.0218756143 -0.4804920554
-2.1217556 -0.02110877819 -0.4041962922
-2.80198288 -0.02738712169 -0.4371294677
-2.809402704 -0.02647894621 -0.3398282826
-2.821429968 -0.02560741454 -0.2431391329
-2.832116365 -0.02521009929 -0.1462278068
-2.819479704 -0.02411341481 -0.04851589352
-2.823427439 -0.02956793271 0.04858570173
-2.852055073 -0.02887213044 0.147274524
-2.889149427 -0.0282391049 0.249065727
-2.843142986 -0.02729319036 0.3439718485
-2.811873198 -0.02601145394 0.4386937916
-2.865815878 -0.02601026371 0.5488294959
-2.823850393 -0.02464365587 0.6420069337
-2.817507505 -0.02360479347 0.7433803678
-2.091176748 -0.01496431511 -0.5487484336
-2.134054422 -0.01452622749 -0.4827415645
-2.141445637 -0.0142027922 -0.4080124497
-2.802061319 -0.01760613173 -0.4371294677
-2.815433025 -0.01670807227 -0.3405595124
-2.797591209 -0.01611326449 -0.2410473973
-2.822200775 -0.0152699044 -0.1457044482
-2.815547466 -0.01425112505 -0.0484460853
-2.81751442 -0.0196708627 0.04848098755
-2.922040939 -0.0193799641 0.1509380341
-2.917120218 -0.01883889735 0.2515060902
-2.902772427 -0.01773230918 0.3512839973
-2.863306046 -0.01649176143 0.4468283951
-2.913006306 -0.01626961865 0.557988286
-2.88043189 -0.01508225687 0.6550540924
-2.852345705 -0.01393957157 0.7526978254
-2.091216326 -0.007665094454 -0.5487484336
-2.110707283 -0.006999292877 -0.477342695
-2.141482353 -0.006728115026 -0.4080124497
-2.798155069 -0.00781389419 -0.4365036786
-2.813489199 -0.006874674931 -0.3403157592
-2.805599928 -0.006365754642 -0.2417446524
-2.828228712 -0.005429915618 -0.1460184604
-2.819579363 -0.004429819528 -0.04851589352
-2.803568363 -0.009786171839 0.04823665693
-2.964032888 -0.009312407114 0.153136149
-2.980924129 -0.008844522759 0.2570840418
-2.940533161 -0.007698996924 0.3559150398
-2.928533554 -0.006644684356 0.4571530819
-2.956237316 -0.006192315836 0.5663838983
-2.942826509 -0.005136340857 0.6694509387
-2.894877911 -0.004042208195 0.7640858889
-2.087366581 -0.0003646074038 -0.5477131605
-2.09902668 0.0003660102375 -0.4746433198
-2.133639812 0.0007444138173 -0.4064860046
-2.786313057 0.001944675809 -0.4346264899
-2.809525967 0.002942197723 -0.3398282826
-2.813574553 0.003436799394 -0.2424418926
-2.808257818 0.004411184229 -0.1449717432
-2.819578648 0.004920375533 -0.04851589352
-2.807584524 2.454468415e-07 0.04830646515
-3.011981726 0.0005252034753 0.1556482762
-3.038716078 0.00159123796 0.262139082
-2.982229471 0.002602590481 0.3610335588
-2.985825062 0.003126822179 0.4662262499
-3.017101526 0.004212680738 0.5782140493
-2.991544962 0.005220469553 0.6806984544
-2.968285561 0.005698622204 0.7837561369
-2.10474205 0.006979878992 -0.5523719192
-2.106808662 0.007353920024 -0.4764429033
-2.1296978 0.008177693933 -0.4057227671
-2.794192791 0.01121623721 -0.435877949
-2.809500694 0.01225901302 -0.3398282826
-2.813545465 0.0132580651 -0.2424418926
-2.816216946 0.01376282983 -0.1453904361
-2.819544315 0.01476326212 -0.04851589352
-2.81556797 0.009337165393 0.0484460853
-3.057898283 0.0112074241 0.1580557227
-3.102447987 0.01245361194 0.2677170634
-3.033816338 0.01270759199 0.3673707843
-3.039130688 0.01379066519 0.4746737182
-3.083821058 0.01453166362 0.5911890864
-3.034383059 0.01535786223 0.6905963421
-3.026202202 0.01637348905 0.7992852926
-2.095048189 0.01389493328 -0.5497837067
-2.106770277 0.01470806915 -0.4764429033
-2.121806145 0.01518336218 -0.4041962922
-2.79808712 0.02099944651 -0.4365036786
-2.797530413 0.02197179012 -0.3383658528
-2.809497356 0.02304715104 -0.2420932651
-2.816151619 0.0235925857 -0.1453904361
-2.813476801 0.02455294691 -0.04841117933
-2.823516607 0.01921912655 0.04858570173
-3.135731459 0.02243887633 0.1621379405
-3.170129299 0.02323830873 0.2736436427
-3.111169338 0.02389285155 0.3768765628
-3.086471558 0.02477982454 0.4821825624
-3.146573544 0.02581229061 0.6034008861
-3.100565434 0.02651644498 0.7058929801
-3.087943554 0.02748641372 0.8158497214
-2.071802378 0.02133489959 -0.5435720682
-2.114500761 0.0221436657 -0.4782425463
-2.117810011 0.02291761711 -0.4034330547
-2.790090322 0.0311665982 -0.4352522194
-2.80537653 0.03182701766 -0.339340806
-2.7934618 0.03266701847 -0.2406987846
-2.820040464 0.03396296129 -0.1455997676
-2.817372799 0.0344226025 -0.04848098755
-2.811434984 0.02895145305 0.04837627336
-3.211525679 0.03419258073 0.1661154628
-3.225806236 0.03547070175 0.278524369
-3.194435835 0.0356833227 0.387113601
-3.167351246 0.03648646548 0.4950101674
-3.224982262 0.03827616945 0.618665576
-3.186185837 0.0389287509 0.7256886959
-3.153506517 0.03907916322 0.8334493637
-2.054329872 0.0283270441 -0.5389133096
-2.102713823 0.02972829342 -0.4755431116
-2.129495382 0.0304786507 -0.4057227671
-2.778113604 0.04073196277 -0.433375001
-2.813180685 0.0422282517 -0.3403157592
-2.793330669 0.04241789505 -0.2406987846
-2.807922602 0.04362047091 -0.1449717432
-2.815236092 0.04422485456 -0.0484460853
-2.791315079 0.0389765352 0.04802722484
-3.325219154 0.04701214284 0.1720817685
-3.343201637 0.04843354598 0.2888087332
-3.319330692 0.04924657196 0.4024691284
-3.295589685 0.04946962371 0.5153467059
-3.319054127 0.05098061264 0.6369832158
-3.26591897 0.05130468309 0.7441346645
-3.275042295 0.05201971158 0.8660606146
-2.077397108 0.03589791805 -0.545124948
-2.094810009 0.03656501696 -0.4737434983
-2.160783052 0.03847051039 -0.4118286371
-2.78191328 0.05001542345 -0.4340007603
-2.805086136 0.05141146481 -0.339340806
-2.801133633 0.05231707916 -0.2413960099
-2.795781374 0.05270587653 -0.1443437189
-2.819063187 0.05412845314 -0.04851589352
-2.795169353 0.04830119386 0.04809703678
-3.480796814 0.06136516109 0.1802461743
-3.464528084 0.0622880049 0.2994417548
-3.398539782 0.06169493496 0.4122186899
-3.396123886 0.06283687055 0.5313030481
-3.389531851 0.06330665201 0.6507214904
-3.35730505 0.06387702376 0.7652801275
-3.346306086 0.06483698636 0.8852131963
-2.084992647 0.04294583574 -0.5471955538
-2.098566294 0.04395873472 -0.4746433198
-2.180271626 0.04605037346 -0.4156447947
-2.787646294 0.05985309184 -0.4349393547
-2.78504324 0.06076976284 -0.3369034231
-2.800944567 0.06160579249 -0.2413960099
-2.795580387 0.06246406212 -0.1443437189
-2.816857815 0.06392387301 -0.04848098755
-2.794983625 0.0580586046 0.04809703678
-3.542462587 0.07482174039 0.1834910065
-3.559915543 0.07581277937 0.3078086972
-3.497535229 0.07570484281 0.4244056046
-3.472904921 0.07638531923 0.5435049534
-3.505093575 0.07770448178 0.6732369661
-3.46226716 0.07796497643 0.7895748615
-3.492841482 0.07987324893 0.9245536923
-2.080967665 0.05013057217 -0.5461602807
-2.098400116 0.05128338933 -0.4746433198
-2.203649998 0.05424043164 -0.4202242494
-2.791370392 0.06968144327 -0.435565114
-2.784814358 0.07049108297 -0.3369034231
-2.792745829 0.07117889822 -0.2406987846
-2.803331375 0.07242849469 -0.1447623968
-2.808621645 0.07354617119 -0.04834137112
-2.810756683 0.06820270419 0.04837627336
-3.60207963 0.08866125345 0.1866311729
-3.623366356 0.08981880546 0.3133866787
-3.578612804 0.0899592936 0.4343989193
-3.553581238 0.09057036787 0.5563325882
-3.595081091 0.09225676209 0.6907913685
-3.55937767 0.0925829038 0.8120698929
-3.573651075 0.09420324117 0.9462944865
-2.080779791 0.05739475414 -0.5461602807
-2.117688179 0.05915203318 -0.479142338
-2.274096251 0.06391862035 -0.4339624941
-2.785186291 0.0792562291 -0.4346264899
-2.79050374 0.08038234711 -0.3376346231
-2.784514189 0.08069618046 -0.2400015444
-2.807054281 0.08233068883 -0.1449717432
-2.800352335 0.0831124261 -0.04820175096
-2.802505732 0.07779113203 0.04823665693
-3.64766717 0.1025259346 0.1890386194
-3.658879042 0.1034792662 0.3165242672
-3.649710894 0.1044957861 0.4431734979
-3.618403673 0.1048625931 0.5666572452
-3.643797636 0.1062358394 0.7003318071
-3.617469549 0.1067319885 0.8255669475
-3.581024647 0.1069077253 0.9483650327
-2.080566883 0.06465724111 -0.5461602807
-2.140841961 0.06727888435 -0.4845411479
-2.332727432 0.07371610403 -0.4454110265
-2.773046255 0.08860009909 -0.4327492714
-2.788222313 0.09005854279 -0.3373908997
-2.78421545 0.09041620046 -0.2400015444
-2.798765182 0.09186596423 -0.1445530504
-2.808039665 0.09315225482 -0.04834137112
-2.794222355 0.087323457 0.04809703678
-3.699189663 0.116897434 0.191760093
-3.710271597 0.1178958192 0.321056366
-3.663212299 0.1176804081 0.4448796809
-3.647630215 0.1184552312 0.5713502765
-3.661064625 0.1195311099 0.7037664056
-3.64044714 0.1201300174 0.8309657574
-3.607660532 0.1203078553 0.9556120038
-2.089981794 0.07225316018 -0.5487484336
-2.169807434 0.07577110827 -0.4912896752
-2.552205086 0.08957064897 -0.4881522357
-2.774694443 0.09834935516 -0.433062166
-2.793842316 0.1000044718 -0.3381221294
-2.787865162 0.1002776921 -0.240350157
-2.790443897 0.101345703 -0.1441343725
-2.811694145 0.1030995399 -0.04841117933
-2.789903641 0.09693777561 0.04802722484
-3.728699446 0.1308601797 0.1933301687
-3.725766659 0.1314082891 0.3224508464
-3.670714617 0.1307494491 0.445854634
-3.676806211 0.1322523206 0.5760433078
-3.680244684 0.1330182403 0.707582593
-3.671164751 0.1339740306 0.8381642103
-2.085855961 0.0794012025 -0.5477131605
-2.20847559 0.08484089375 -0.5002877116
-2.563647747 0.09893327951 -0.490441978
-2.782229662 0.1083411127 -0.4343136251
-2.787525654 0.1095224693 -0.3373908997
-2.791479826 0.1101650968 -0.2406987846
-2.786081314 0.1109267026 -0.1439250112
-2.807320833 0.112753801 -0.04834137112
-2.793544769 0.1068286747 0.04809703678
-3.726224184 0.1437980682 0.193225503
-3.733248949 0.1447225511 0.3231481016
-3.672219515 0.1436395198 0.4460983574
-3.666453123 0.1446957141 0.5744789839
-3.689566612 0.1462527961 0.7094906569
-3.657044649 0.1462421268 0.8350149393
-3.656919718 0.1475165188 0.9690706134
-2.114518881 0.08788462728 -0.5554777384
-2.239318609 0.09385514259 -0.5074861646
-2.373019695 0.09987317026 -0.45342502
-2.781834364 0.1180523261 -0.4343136251
-2.779193163 0.1189120635 -0.3364159465
-2.785106659 0.1196520329 -0.2401758432
-2.789668322 0.1208235398 -0.1441343725
-2.794923544 0.1220292151 -0.04813193902
-2.805142403 0.1170797348 0.04830646515
-3.70973587 0.1561314762 0.1923881173
-3.720777273 0.1572476029 0.3221022487
-3.683595181 0.1569651365 0.4475607872
-3.658031464 0.1571540833 0.5732274652
-3.685110807 0.1589626521 0.7087274194
-3.66429925 0.1593454629 0.8368145227
-3.642872572 0.1596876532 0.9654470682
-2.15858674 0.09726580977 -0.5673834085
-2.279858828 0.1035271734 -0.5169340968
-2.413841724 0.1100339964 -0.4614389539
-2.777458906 0.1275801659 -0.4336878955
-2.790659189 0.129163295 -0.3378783762
-2.774720669 0.1289108843 -0.2393042892
-2.793219566 0.1307474077 -0.1443437189
-2.790485382 0.1315955818 -0.04806213081
-2.78474021 0.1259672344 0.04795741662
-3.721139431 0.1696266234 0.1930161566
-3.708263636 0.1696882099 0.321056366
-3.681041956 0.169730112 0.4473170638
-3.659433842 0.1700138301 0.5735403299
-3.680610895 0.1716414392 0.7079641819
-3.667614222 0.1723191887 0.8377143741
-3.638433695 0.172220096 0.9644118547
-2.181388855 0.1059245169 -0.573595047
-2.291161776 0.1120565161 -0.519633472
-2.485996246 0.1220204085 -0.4755588472
-2.769104958 0.1368851513 -0.4324364364
-2.794156551 0.1391012073 -0.3383658528
-2.778233528 0.1387945861 -0.2396529019
-2.788756847 0.1402961463 -0.1441343725
-2.801992178 0.141942516 -0.0482715629
-2.77229929 0.135102421 0.04774798453
-3.722519398 0.1827127934 0.1931208223
-3.707648754 0.1826315373 0.321056366
-3.678444386 0.182480067 0.4470733404
-3.658818245 0.1827867031 0.5735403299
-3.666263819 0.1838001162 0.7052928805
-3.65920496 0.1847267002 0.835914731
-3.605011225 0.1832523942 0.9556120038
-2.211874008 0.1151447892 -0.5818772912
-2.471741199 0.129538551 -0.5614744425
-2.501239777 0.1315222234 -0.4786117971
-2.76466465 0.1463415325 -0.4318106472
-2.793653965 0.1488538682 -0.3383658528
-2.78171134 0.1487043798 -0.2400015444
-2.776283741 0.1493860781 -0.1435063332
-2.813459873 0.152371332 -0.04848098755
-2.771811008 0.144778803 0.04774798453
-3.703908443 0.194761917 0.1921787858
-3.703009605 0.1953618228 0.3207077384
-3.659944296 0.194371745 0.4448796809
-3.638432026 0.1945028454 0.5704116821
-3.477398157 0.1865029484 0.6686575413
-3.450325966 0.1862587929 0.7877752185
-3.423023224 0.1859832108 0.9069540501
-2.255822659 0.1253298372 -0.5937829614
-2.562722206 0.1432785541 -0.5826198459
-2.547809362 0.1428902298 -0.487770617
-2.775970697 0.1566590071 -0.4336878955
-2.773298264 0.1574793011 -0.3359284699
-2.781175137 0.1584135294 -0.2400015444
-2.771757364 0.1588477194 -0.1432970017
-2.780968666 0.1603495181 -0.04792251065
-2.775281906 0.154676646 0.04781780019
-3.689247131 0.2069061399 0.1914460808
-3.481498957 0.1958652288 0.3013591766
-3.409521818 0.1930089295 0.4141685665
-3.389235973 0.193048209 0.5309901834
-3.423804283 0.195615828 0.6583538651
-3.395179987 0.195170179 0.7751779556
-3.387637854 0.1959229857 0.8976365328
-2.261156797 0.1335451007 -0.5953358412
-2.675034285 0.1589259058 -0.6087141633
-2.539455891 0.151315853 -0.4862441719
-2.779350519 0.1665837765 -0.4343136251
-2.772731781 0.1671590358 -0.3359284699
-2.772650242 0.1676391214 -0.2393042892
-2.779160261 0.1690070033 -0.1437156796
-2.776400328 0.1698118597 -0.04785270244
-2.786702394 0.1650727987 0.04802722484
-3.413368702 0.2033887655 0.1770013571
-3.425106764 0.2046888769 0.2964784503
-3.387030363 0.2035998851 0.4114874601
-3.36093688 0.203207925 0.5266100168
-3.403503895 0.2063785791 0.6545376778
-3.359465837 0.2048843652 0.767079711
-3.344511986 0.2051449418 0.8862484694
-2.121855021 0.1327525079 -0.5580659509
-2.763928413 0.173891291 -0.6294096708
-2.601611614 0.1641356647 -0.4984559119
-2.766923904 0.1755341887 -0.4324364364
-2.776093483 0.177088812 -0.3364159465
-2.762106657 0.1766806096 -0.2384327203
-2.778553486 0.1787064672 -0.1437156796
-2.777786255 0.179631412 -0.04788760841
-2.782117605 0.1745481789 0.04795741662
-3.392704725 0.2140457332 0.175954625
-3.378637552 0.2137494385 0.2924692929
-3.338752985 0.2123969942 0.4056377411
-3.314866304 0.212038368 0.5194140077
-3.36357832 0.2157445103 0.646905303
-3.349006653 0.215983659 0.7648301721
-3.353414536 0.2174425274 0.8888366222
-2.084753275 0.1377380937 -0.5482307673
-2.76330471 0.183538869 -0.6294096708
-2.72051692 0.1811731607 -0.5217345953
-2.758410215 0.1846644133 -0.4311849177
-2.781399965 0.1871780455 -0.3371471465
-2.761473179 0.1863218248 -0.2384327203
-2.779905319 0.1885395795 -0.1438203603
-2.78113246 0.1895980239 -0.04795741662
-2.765528679 0.1832011789 0.04767817631
-3.372008562 0.2245593369 0.1749079078
-3.357991457 0.2242145091 0.2907261848
-3.334030151 0.2237835377 0.4051502645
-3.321989059 0.2241408974 0.5206654668
-3.390227795 0.2293386459 0.6522479653
-3.39294982 0.2307133675 0.7751779556
-3.377690792 0.2308593839 0.895565927
-2.09006691 0.1450519711 -0.5497837067
-2.743240595 0.1913447827 -0.6249106526
-2.762987614 0.1932067126 -0.5301302075
-2.763694286 0.1942255199 -0.4321235418
-2.772843599 0.1958411783 -0.3361722231
-2.770776987 0.1961818486 -0.2393042892
-2.763326883 0.1966231018 -0.1429829746
-2.786472321 0.1992475241 -0.04806213081
-2.768895626 0.1926486939 0.04774798453
-3.359291077 0.2349042743 0.1742798835
-3.391017199 0.2377174944 0.2936894596
-3.360992432 0.2367916256 0.4085626006
-3.392163754 0.2401784509 0.5319287777
-3.407073498 0.2418309301 0.6556825042
-3.403829098 0.2427955568 0.7778773904
-3.396175861 0.2434403002 0.900742352
-2.076060772 0.1513635069 -0.5461602807
-2.742556095 0.2009194046 -0.6249106526
-2.760338068 0.2027064413 -0.529748559
-2.762999535 0.2038715035 -0.4321235418
-2.760265112 0.204638496 -0.3347097635
-2.772062302 0.2059995681 -0.239478603
-2.762623787 0.2062677741 -0.1429829746
-2.773795128 0.2080754638 -0.04785270244
-2.770200729 0.2024586052 0.04778289422
-3.392312527 0.2491157353 0.1760593057
-3.429906845 0.2524783015 0.2971757054
-3.389840603 0.2507186532 0.4122186899
-3.401154518 0.2527491152 0.5334931016
-3.423829079 0.2550349534 0.659117043
-3.395187616 0.2540932 0.7760777473
-3.406863689 0.2561636865 0.9038481712
-2.063962221 0.1577262431 -0.5430544019
-2.747667074 0.2109390646 -0.6262603402
-2.702847242 0.2079727352 -0.5186816454
-2.762270927 0.2135150135 -0.4321235418
-2.755575657 0.2139650881 -0.3342222869
-2.763380766 0.21505633 -0.2387813479
-2.773833752 0.216843918 -0.143610999
-2.761090755 0.216817379 -0.04764327407
-2.777452469 0.2127374411 0.04792251065
-3.403370619 0.2618750632 0.17668733
-3.421058893 0.2638358772 0.2964784503
-3.373111486 0.261323303 0.4102687836
-3.380557299 0.2630872428 0.5303644538
-3.420960426 0.2668322325 0.6587354541
-3.398165464 0.2662475705 0.7769775391
-3.394393444 0.2671441734 0.900742352
-2.049919128 0.1638519317 -0.5394309759
-2.743028879 0.2202170938 -0.6253604889
-2.606215477 0.2096905112 -0.4999823868
-2.761508703 0.2231559306 -0.4321235418
-2.766683578 0.2245461345 -0.3356847465
-2.750698328 0.2237319648 -0.237735495
-2.773060083 0.2265251577 -0.143610999
-2.76629591 0.2269452959 -0.04774798453
-2.766726494 0.2216336429 0.04774798453
-3.398454428 0.273432374 0.1764779985
-3.412173033 0.2751363516 0.2957811952
-3.3781147 0.2735761106 0.4110000134
-3.369773865 0.2740853727 0.5288000703
-3.412181139 0.2781332433 0.6572089791
-3.395273447 0.2779488862 0.7765276432
-3.38381362 0.2781997919 0.8981541395
-2.047409296 0.170845896 -0.5389133096
-2.676217794 0.2242574245 -0.6100638509
-2.611336708 0.2192801833 -0.501127243
-2.750870943 0.2319635302 -0.4305591881
-2.765882969 0.2342023551 -0.3356847465
-2.751885653 0.2335001975 -0.2379097939
-2.762302399 0.235355854 -0.1430876404
-2.773456573 0.2372813523 -0.04788760841
-2.759958029 0.2307901382 0.04764327407
-3.393498421 0.2849601805 0.1762686372
-3.41119194 0.287045449 0.2957811952
-3.371204853 0.2848657072 0.4102687836
-3.364860296 0.2855116725 0.5281743407
-3.399452448 0.2890452445 0.6549192667
-3.384574175 0.2889693081 0.7742781639
-3.375122547 0.289349854 0.8960835934
-2.046800613 0.1779921949 -0.5389133096
-2.613295317 0.228173703 -0.595666945
-2.641847849 0.2311319113 -0.5072330832
-2.744141102 0.2410459667 -0.4296205938
-2.761093616 0.2435062975 -0.3351972401
-2.760977268 0.2439822853 -0.2387813479
-2.761464119 0.2449960858 -0.1430876404
-2.780578613 0.2476707995 -0.04802722484
-2.755151033 0.2400750071 0.04757346213
-3.386514187 0.2962818146 0.175954625
-3.392306328 0.2973843515 0.2942124009
-3.348438025 0.2947172225 0.4075876474
-3.365810394 0.2974302471 0.5284872055
-3.386688948 0.2998709381 0.6526295543
-3.379662514 0.3004377186 0.7733783722
-3.379864931 0.3016439676 0.8976365328
-2.044243097 0.1849612892 -0.5383957028
-2.616364479 0.2376476824 -0.5965667963
-2.744649172 0.2497822493 -0.5274589062
-2.7511518 0.2513429821 -0.4308720827
-2.748366117 0.2520551682 -0.3337348402
-2.766060829 0.254165411 -0.2393042892
-2.756614447 0.2542670667 -0.142878294
-2.777706146 0.2571904063 -0.04799232259
-2.760270834 0.2502325177 0.04767817631
-3.369547367 0.3066523373 0.1751172543
-3.399183989 0.3099476695 0.294909656
-3.35134244 0.3067648411 0.408075124
-3.362784863 0.3089966774 0.5281743407
-3.395396471 0.3125900328 0.6545376778
-3.378593206 0.3122332096 0.7733783722
-3.417263031 0.3170098662 0.9079892635
-2.026274443 0.1904687881 -0.5337369442
-2.629099846 0.2480598837 -0.5997161269
-2.739851236 0.2589918971 -0.5266956091
-2.75615716 0.2615039051 -0.4318106472
-2.749445438 0.2618361115 -0.3339785635
-2.757223368 0.2630617321 -0.238607049
-2.75968647 0.2642694414 -0.1430876404
-2.760867357 0.2653543949 -0.04771308228
-2.763362169 0.2602412105 0.04774798453
-3.364479303 0.3180365562 0.1749079078
-3.390147448 0.3210598528 0.2942124009
-3.350251198 0.318461448 0.408075124
-3.336121798 0.3182933629 0.524107039
-3.546724081 0.3390111923 0.6843038797
-3.664577961 0.3515678942 0.8399638534
-3.660351276 0.3524518013 0.9737293124
-2.00060153 0.1951030642 -0.5270076394
-2.610762596 0.2555272579 -0.595666945
-2.744792223 0.2691290081 -0.5278404951
-2.745398283 0.2701559365 -0.4302463233
-2.756416798 0.2722116411 -0.3349535167
-2.744391918 0.2715077698 -0.2375611663
-2.76073432 0.2740983069 -0.1431923211
-2.767883301 0.2757837474 -0.04785270244
-2.768407822 0.2704689801 0.04785270244
-3.367324114 0.3301687539 0.1751172543
-3.40486908 0.3344499767 0.2956069112
-3.842161894 0.380112201 0.6048272252
-3.936255693 0.3901147544 0.7606275082
-3.665267706 0.364549607 0.8404137492
-3.809038162 0.3801927567 1.014105082
-1.999908328 0.2020848542 -0.5270076394
-2.728121281 0.2766312957 -0.6231110096
-2.745789528 0.2789069712 -0.5282221437
-2.72871685 0.2781350911 -0.4277433455
-2.757424593 0.2820337415 -0.3351972401
-2.751355648 0.2818982005 -0.2382584065
-2.755787373 0.2833243012 -0.1429829746
-2.766903877 0.2854438722 -0.04785270244
-2.747551441 0.2781170607 0.04750365391
-3.837078333 0.3897559941 0.1999244988
-3.893272638 0.3961504996 0.3386618197
-3.869300127 0.3950767219 0.4724221528
-3.858497381 0.3953336477 0.6076430678
-3.942681789 0.4046553075 0.7621539831
-3.667849779 0.3777409196 0.8413135409
-3.824982166 0.3952728212 1.018763781
-1.999190807 0.2090651393 -0.5270076394
-2.727139235 0.2861519456 -0.6231110096
-2.744799137 0.2884899378 -0.5282221437
-2.743445396 0.2893151939 -0.4302463233
-2.750500917 0.2910306752 -0.3344660103
-2.750354767 0.2915012538 -0.2382584065
-2.752795696 0.2927309573 -0.142878294
-2.777872801 0.2958886027 -0.04806213081
-2.746563911 0.2877061963 0.04750365391
-3.853641987 0.4043530822 0.2008665502
-3.91762495 0.4124501348 0.3409278691
-3.852104664 0.4069116414 0.4704722464
-3.87288022 0.4097897112 0.6101459861
-3.949054241 0.4192435443 0.7636803985
-3.662633419 0.3901300132 0.8404137492
-3.829413414 0.408569783 1.02031672
-2.002290249 0.2164576799 -0.5280429125
-2.730050325 0.2956135869 -0.6240108609
-2.745726824 0.2982814014 -0.5286037326
-2.740507126 0.2981976271 -0.4299334586
-2.737680674 0.2988576293 -0.3330036104
-2.755262136 0.3017501235 -0.2387813479
-2.747838974 0.3014225066 -0.1426689625
-2.768872023 0.3047078252 -0.04792251065
-2.749570847 0.2972424924 0.04757346213
-3.673501492 0.3984213173 0.1914460808
-3.914180756 0.4259063303 0.3407535553
-3.842840672 0.418823272 0.4694972932
-3.849826097 0.4209434688 0.6067044139
-3.947642326 0.4323369265 0.7636803985
-3.649697065 0.4009958804 0.8377143741
-3.843325377 0.423627764 1.024457812
-1.991961479 0.2220263928 -0.5254547
-2.732875109 0.3055746257 -0.6249106526
-2.731065512 0.3058555126 -0.5259323716
-2.747301817 0.3086441755 -0.4311849177
-2.740566015 0.3088561594 -0.333491087
-2.750286818 0.3104384243 -0.2384327203
-2.742801189 0.3105630577 -0.1424596161
-2.741961956 0.311437428 -0.04746875167
-2.75646615 0.3077253699 0.04771308228
-3.473603487 0.3890133202 0.1809788793
-3.883047342 0.4355527163 0.3381389081
-3.833464384 0.4313469827 0.4685223103
-3.852259159 0.4348234832 0.6073302031
-3.946109056 0.4461142421 0.7636803985
-3.648275137 0.4137333632 0.8377143741
-3.820709229 0.4346390665 1.018763781
-1.971982598 0.2267708629 -0.5202783346
-2.743406773 0.3164528012 -0.6276100278
-2.731931448 0.3156116009 -0.5263140202
-2.738358736 0.3173233569 -0.4299334586
-2.739471197 0.3184207082 -0.333491087
-2.741270304 0.3191153705 -0.237735495
-2.753602743 0.3215245605 -0.1430876404
-2.744830132 0.3214720488 -0.04753855988
-2.747428656 0.3164302111 0.04757346213
-3.345244408 0.3864657581 0.1742798835
-3.873586893 0.4481885731 0.337441653
-3.851654053 0.4470142424 0.4709596932
-3.852679729 0.4484962225 0.6076430678
-3.936727762 0.4589767456 0.7621539831
-3.654550791 0.4273711741 0.8395139575
-3.813412666 0.4472981393 1.01721096
-1.976934314 0.2343352437 -0.521831274
-2.722934484 0.3237259388 -0.6231110096
-2.732762575 0.3253780603 -0.5266956091
-2.729388237 0.3259432018 -0.4286819696
-2.742284775 0.3284541667 -0.3339785635
-2.734205008 0.327970475 -0.2372125536
-2.74453187 0.3301809728 -0.1426689625
-2.749647379 0.3317694068 -0.04764327407
-2.738364697 0.3250757456 0.0474338457
-3.310159683 0.3941262066 0.1725004464
-3.871998549 0.4617082179 0.337441653
-3.844156981 0.4597482681 0.4702284932
-3.849129677 0.4617067277 0.6073302031
-3.923406363 0.4713099301 0.7598642111
-3.660775423 0.441057831 0.8413135409
-3.80799222 0.4601432979 1.016175628
-1.976104259 0.2412346601 -0.521831274
-2.71405077 0.3322816491 -0.6213114262
-2.735507488 0.3353931606 -0.5274589062
-2.726273298 0.3352269232 -0.4283691347
-2.739151716 0.3377816975 -0.3337348402
-2.742930651 0.3387330174 -0.2380841076
-2.73146987 0.33828637 -0.1420409232
-2.758394718 0.3425985277 -0.04781780019
-2.739198208 0.334875226 0.04746875167
-3.312728643 0.406164676 0.1727098078
-3.8861835 0.4771637619 0.3388361633
-3.830707788 0.471708566 0.4687660635
-3.845534086 0.4748969376 0.6070173383
-3.933427572 0.4864491224 0.7621539831
-3.647610426 0.4523937702 0.8386141658
-3.827450752 0.4760558903 1.021869659
-1.98291719 0.2490938008 -0.5239017606
-2.722541809 0.3429713249 -0.6235609055
-2.730424166 0.3444490433 -0.5266956091
-2.730965853 0.3454851508 -0.4293076992
-2.730078697 0.3463411331 -0.3327598572
-2.743707895 0.3485567272 -0.2382584065
-2.734235287 0.3483231664 -0.1422502697
-2.761149168 0.3527319133 -0.04788760841
-2.734044313 0.3439356387 0.04739893973
-3.323179722 0.4192264676 0.1733378321
-3.884494305 0.4907253385 0.3388361633
-3.838884354 0.4863258004 0.4699847698
-3.837974072 0.4875707328 0.6060786843
-3.933653116 0.5004242063 0.7625355721
-3.638276815 0.4641372263 0.8368145227
-3.833430767 0.4903930426 1.023940206
-1.974372029 0.2550245821 -0.521831274
-2.717462778 0.3519714773 -0.6226611137
-2.719470501 0.352714777 -0.5247875452
-2.733661413 0.3555248976 -0.4299334586
-2.728852987 0.355868876 -0.3327598572
-2.738522768 0.3576166332 -0.2379097939
-2.738943338 0.3586432338 -0.1425642818
-2.734126091 0.3589832187 -0.0474338457
-2.742743015 0.3547597826 0.04757346213
-3.329618931 0.4318508804 0.1737565249
-3.882757664 0.5042818785 0.3388361633
-3.821415663 0.4976713955 0.4680348635
-3.838207006 0.5012215972 0.6063916087
-3.93188262 0.5141513348 0.7625355721
-3.63663435 0.4768353105 0.8368145227
-3.810626507 0.5010012388 1.018246174
-1.958149195 0.2598816454 -0.5176901221
-2.725876331 0.3627410531 -0.6249106526
-2.720169067 0.3624647558 -0.5251691937
-2.728487253 0.3645424545 -0.4293076992
-2.731528997 0.3659193814 -0.3332473338
-2.725409985 0.365583837 -0.2368639261
-2.743613243 0.3690005243 -0.142878294
-2.738801718 0.3693266809 -0.04753855988
-2.74148798 0.364331007 0.04757346213
-3.328091145 0.4434708953 0.1737565249
-3.86517477 0.5157242417 0.337441653
-3.821623087 0.5112709403 0.4682785869
-3.824687243 0.5130398273 0.6045143604
-3.926172495 0.5273504853 0.7617723942
-3.638810396 0.4900460541 0.8377143741
-3.801196337 0.5132667422 1.016175628
-1.96297276 0.2674973905 -0.5192430615
-2.714939356 0.3709350228 -0.6226611137
-2.722777605 0.3724899888 -0.5259323716
-2.719370127 0.3729908168 -0.4280562401
-2.738101721 0.3765338361 -0.3342222869
-2.728064775 0.3756386936 -0.2372125536
-2.738351583 0.378029108 -0.1426689625
-2.747399807 0.3802555203 -0.04771308228
-2.724349022 0.3717356324 0.04729422554
-3.32850194 0.4553561807 0.1738611907
-3.867298841 0.529753983 0.3377902806
-3.813915014 0.5237975717 0.4675473869
-3.822873116 0.5263874531 0.6045143604
-3.914583206 0.5397115946 0.7598642111
-3.639008045 0.5030118227 0.8381642103
-3.80129528 0.526796639 1.016693354
-2.714139462 0.3819304705 -0.4274305105
-2.728907824 0.3849801123 -0.3332473338
-2.734627962 0.3862738311 -0.2379097939
-2.715262175 0.3845050633 -0.1415175647
-2.753975153 0.3909677863 -0.04785270244
-2.730956078 0.3823528886 0.0474338457
-3.326892138 0.4669713676 0.1738611907
-3.853587627 0.5415865183 0.3367443979
-3.823857307 0.5387683511 0.4690097868
-3.828836441 0.5408338308 0.6057658792
-3.916563272 0.5539227128 0.7606275082
-3.644947767 0.5168057084 0.8399638534
-3.822384596 0.5433249474 1.022904992
-1.32426393 0.189885512 -0.3468695879
-2.722565413 0.3928121626 -0.4289948642
-2.719688892 0.3933669031 -0.3322723806
-2.729319572 0.3952454329 -0.2375611663
-2.719833374 0.3948417008 -0.1418315768
-2.730826378 0.3974108994 -0.04746875167
-2.737522364 0.393020153 0.04757346213
-3.317334175 0.4774443507 0.1734425128
-3.861534119 0.5564556718 0.3376159668
-3.814094543 0.5509785414 0.4680348635
-3.821060419 0.5533455014 0.6048272252
-3.924320459 0.5689993501 0.7625355721
-3.637336254 0.5286840796 0.8386141658
-3.814729691 0.5558287501 1.021352053
-1.306391001 0.1919793636 -0.3422108293
-1.345928788 0.1982692182 -0.3041304052
-1.345561266 0.1984553486 -0.25612849
-2.714372158 0.4022754133 -0.331784904
-2.731864452 0.4053557515 -0.2379097939
-2.724365234 0.4052142203 -0.1421456039
-2.721510887 0.4057613611 -0.04732913151
-2.734155416 0.4022818506 0.04753855988
-3.29984045 0.486689806 0.1726051271
-3.871394396 0.5716770887 0.3386618197
-3.808220625 0.5637076497 0.4675473869
-3.81128931 0.565521419 0.6035757661
-3.924252033 0.5829828978 0.762917161
-3.625831127 0.5399433374 0.8363646269
-3.80321312 0.5677143931 1.018763781
-1.261775255 0.1899244934 -0.3303051591
-1.310543656 0.1977333426 -0.2960321605
-1.325448155 0.2002183944 -0.2523123026
-1.459997535 0.221064657 -0.2271943837
-2.718614578 0.4130935073 -0.2368639261
-2.742678881 0.4177289009 -0.1431923211
-2.729962349 0.4167670906 -0.04750365391
-2.728780031 0.4112274945 0.04746875167
-3.309970617 0.4999946654 0.1732331663
-3.847705364 0.581910193 0.3367443979
-3.792491198 0.574913919 0.4658411741
-3.822962999 0.5808992386 0.6057658792
-3.918311596 0.5960862041 0.7621539831
-3.635483027 0.5543591976 0.839064002
-3.797388792 0.580403924 1.017728567
-1.240168691 0.1906585991 -0.3246111274
-1.290655971 0.1988814622 -0.2915331423
-1.309290171 0.2019868046 -0.2492593378
-1.318739176 0.2039158046 -0.2046678066
-3.25864315 0.5062121749 -0.2847995758
-3.591946363 0.5586301088 -0.1883059144
-3.570344687 0.5565478802 -0.06237310171
-3.389313936 0.5228762031 0.1775247157
-3.806477308 0.5879129767 0.3332581818
-3.773010731 0.5840933919 0.4636475444
-3.817214727 0.5923000574 0.60514009
-3.897019863 0.6053804159 0.7583377957
-3.639500141 0.5666763783 0.8404137492
-3.778367758 0.5896492004 1.013069749
-1.22991991 0.1937000453 -0.3220229447
-1.251454711 0.1973154098 -0.2825351059
-1.279453278 0.2021876127 -0.2435350865
-1.294570327 0.20503968 -0.2009133995
-1.347545028 0.213671118 -0.1623865068
-3.587429047 0.5701181889 -0.314083904
-3.589874506 0.5717924237 -0.1883059144
-3.613799572 0.5762490034 -0.06317591667
-2.955132961 0.4654037654 0.05151770636
-3.367739439 0.5315899253 0.1764779985
-3.847590923 0.6087098718 0.3370930254
-3.780752182 0.5988119245 0.4648662508
-3.815124035 0.6056210399 0.60514009
