# .PCD v0.7 - Point Cloud Data file format
VERSION 0.7
FIELDS x y z
SIZE 4 4 4
TYPE F F F
COUNT 1 1 1
WIDTH 1307
HEIGHT 1
VIEWPOINT 0 0 0 1 0 0 0
POINTS 1307
DATA ascii
6.133327484 4.297795296 -1.7190727
6.185660839 4.332857132 -1.459751725
6.158596992 4.310696125 -1.183947682
6.214457512 4.346564293 -0.9260198474
6.236183643 4.360139847 -0.6620096564
6.231495857 4.353624344 -0.396184355
6.26020956 4.370434761 -0.1325666755
6.227246761 4.365227222 0.1320431083
6.214721203 4.35321331 0.3954516351
6.234770298 4.365634918 0.6621839404
6.207193375 4.343097687 0.9250449538
6.198088169 4.333504677 1.191143632
6.215941906 4.344372272 1.465857625
6.176818848 4.313816071 1.729420424
5.805369377 4.051390648 1.885290027
6.141700268 4.274953842 -1.99347651
6.178689957 4.297499657 -1.72762084
6.210420609 4.317961693 -1.462041497
6.193074703 4.302695751 -1.18770206
6.244267464 4.335035801 -0.9282135367
6.261187553 4.345159054 -0.6630555391
6.269631386 4.347781658 -0.3976497352
6.285290241 4.355388165 -0.1327761114
6.265425682 4.359454632 0.132531777
6.256117821 4.349733829 0.3971264064
6.274511337 4.360902309 0.664798677
6.238621712 4.332725525 0.927482307
6.229406834 4.323103905 1.194272399
6.253653049 4.338313103 1.471200228
6.214260578 4.307773113 1.735718966
5.816299438 4.028902531 1.884254813
6.161353111 4.256784916 -1.99502933
6.228932858 4.300264359 -1.737518549
6.25453949 4.316329956 -1.468910575
6.229196548 4.295631886 -1.191769361
6.290420055 4.334611893 -0.9328445792
6.286160469 4.330059052 -0.6641013622
6.311094284 4.343986988 -0.3993245065
6.315283298 4.343622208 -0.1330902576
6.298705578 4.350056171 0.1329157352
6.294275761 4.343752861 0.3985917866
6.307736397 4.351417065 0.6667160988
6.294566154 4.339089394 0.9335757494
6.263980389 4.314780712 1.198026776
6.284927368 4.327593327 1.475016475
6.248523712 4.299312115 1.741117835
5.831920147 4.00966835 1.88477242
6.208039761 4.257101059 -2.005382061
6.25837326 4.28840971 -1.741567731
6.292245388 4.310002327 -1.474253297
6.253932476 4.280557156 -1.193646669
6.330973625 4.331661701 -0.9367443323
6.320973396 4.321585655 -0.6661931276
6.349307537 4.337701797 -0.4007898867
6.356072903 4.340701103 -0.1336487383
6.327047825 4.337086201 0.1331949681
6.33500576 4.340920448 0.4002665579
6.347548485 4.346255302 0.6693307757
6.326058865 4.328299046 0.9360132217
6.302712917 4.310710907 1.202719808
6.312963963 4.314488411 1.478069425
6.290102005 4.297254086 1.748766184
5.849972248 3.993573189 1.886325359
6.244477749 4.251713753 -2.012628794
6.279006004 4.272016048 -1.743367314
6.329229355 4.304571152 -1.4795959
6.289333344 4.274227142 -1.197713971
6.365006447 4.324030876 -0.9396692514
6.368239403 4.32297945 -0.6696793437
6.37357378 4.323351383 -0.4014179409
6.405190468 4.343165874 -0.1343817264
6.367842674 4.334087849 0.1337534487
6.365880489 4.331122398 0.4013132751
6.403114319 4.353190899 0.6736885309
6.345302105 4.310644627 0.9367443323
6.343119144 4.307543755 1.207725763
6.359726429 4.315578938 1.485701799
6.323668957 4.28949976 1.754164934
5.869579315 3.978488684 1.888395905
6.280950546 4.246129036 -2.019875765
6.322203636 4.270807266 -1.751465678
6.362994671 4.296741009 -1.484175205
6.336221218 4.275446892 -1.203971267
6.396519661 4.312885284 -0.9421066046
6.413930416 4.322996616 -0.6729912758
6.419350147 4.323391914 -0.4034067094
6.440220833 4.334177017 -0.134800598
6.40703392 4.329741001 0.1342770159
6.400823593 4.322285652 0.4025693238
6.440635204 4.347537518 0.6761288643
6.403310776 4.314209938 1.492570877
6.354768753 4.27828455 1.758664012
5.89304924 3.96444416 1.891501665
6.313377857 4.236022472 -2.025569916
6.356497288 4.261733055 -1.756864429
6.394260406 4.285438538 -1.487991452
6.37572813 4.269789696 -1.208664417
6.434632778 4.305985928 -0.9455189705
6.443886757 4.310549736 -0.6745601296
6.45266819 4.313164711 -0.4045580924
6.475262642 4.325003147 -0.1352194548
6.448681355 4.32517004 0.1348354965
6.439096928 4.315488338 0.4040347338
6.472325325 4.336116791 0.6778720021
6.410785675 4.291651249 0.9421066046
6.37960434 4.267549038 1.208977222
6.444440365 4.309297085 1.498676777
6.405312061 4.279893398 1.76856184
5.903637409 3.941705227 1.890466332
6.337774277 4.220381737 -2.028675795
6.398914337 4.257872581 -1.764512658
6.435336113 4.280487537 -1.494097352
6.411979198 4.261723995 -1.2127316
6.476083755 4.301068306 -0.9494187832
6.475492001 4.299051285 -0.6763032079
6.507629871 4.317111492 -0.4070702195
6.513655663 4.317840099 -0.1357081234
6.487045765 4.318144321 0.1353241652
6.477404594 4.308469772 0.4055001438
6.500696182 4.322321415 0.6792665124
6.472024441 4.300004959 0.9489313364
6.405981064 4.252902985 1.211167336
6.475802898 4.297629833 1.502492905
6.444572926 4.273664474 1.775310397
5.909310341 3.915736675 1.887878299
6.386312008 4.220602512 -2.039546013
6.433253288 4.248394966 -1.769911528
6.476454735 4.275301933 -1.500203252
6.441657543 4.249103546 -1.215547442
6.514259338 4.293735981 -0.9528311491
6.510424614 4.289574146 -0.6783949137
6.53099823 4.299865246 -0.4075935781
6.552077293 4.310461521 -0.1361967772
6.515424728 4.30429697 0.1356033981
6.525742054 4.307837486 0.4075935781
6.539022446 4.31497097 0.6817068458
6.496939182 4.283941746 0.9503937364
6.45872736 4.255511761 1.218363285
6.502243042 4.282556057 1.505164266
6.485497952 4.268282413 1.78250885
5.927782536 3.898273945 1.889431238
6.431699276 4.218412876 -2.049381256
6.462712288 4.235528469 -1.77396071
6.517613411 4.269884109 -1.506309152
6.476283073 4.239576817 -1.219301939
6.549143314 4.28400898 -0.9557560086
6.562045097 4.290808678 -0.6822298169
6.56101656 4.28687191 -0.4085356295
6.588850498 4.301777363 -0.1366505474
6.557167053 4.299068451 0.1361618787
6.564127445 4.300356388 0.4090589881
6.580714703 4.309581757 0.6844958663
6.508530617 4.259064674 0.9499062896
6.490076542 4.243749619 1.221491933
6.541801453 4.27594614 1.510888577
6.516674042 4.256272316 1.787007928
5.942972183 3.878612757 1.889948726
6.469053268 4.210688591 -2.056628227
6.506861687 4.232069492 -1.782058835
6.558815002 4.26422739 -1.512415051
6.5175457 4.234164715 -1.224307775
6.577376842 4.269770145 -0.957705915
6.603721619 4.285233974 -0.6850187778
6.601076603 4.280243874 -0.4101057053
6.625644207 4.29288578 -0.1371043026
6.597275257 4.292513371 0.1366854459
6.589146614 4.283947468 0.4096870124
6.625787735 4.306128979 0.6876334548
6.556655407 4.257940769 0.9547810555
6.52473259 4.233977318 1.225246429
6.5797472 4.268041134 1.516231179
6.539665222 4.23880291 1.789257288
5.958097458 3.858892679 1.890466332
6.508052826 4.2038064 -2.064392805
6.551067352 4.228351116 -1.79015708
6.583557606 4.247694492 -1.514704704
6.568811893 4.23493433 -1.23119092
6.622280121 4.266133785 -0.9620931745
6.635392189 4.272942066 -0.6867619157
6.647890568 4.27770853 -0.4120944738
6.655725956 4.279466152 -0.1374184489
6.645818233 4.291151047 0.1373835504
6.630911827 4.278247356 0.4113617837
6.664220333 4.298090935 0.6900738478
6.604849815 4.256536007 0.9596558213
6.561064243 4.225077629 1.229313731
6.634224415 4.270552158 1.525390029
6.580646515 4.232815742 1.79645586
5.966655254 3.834939241 1.888913512
6.532444477 4.187320232 -2.067498684
6.592041969 4.222276688 -1.797355652
6.624797821 4.24162674 -1.520810604
6.600193501 4.222626209 -1.234319568
6.667239189 4.262236595 -0.9664805532
6.67041254 4.262629986 -0.6888536215
6.698133469 4.277048111 -0.4142925739
6.702651978 4.276645184 -0.13808164
6.680962086 4.280871391 0.1378024071
6.686172962 4.28092289 0.4138738811
6.69596529 4.285540581 0.691816926
6.643079281 4.248429298 0.9630681276
6.584094048 4.207468987 1.230877995
6.675562382 4.264280319 1.531496048
6.631518364 4.232886791 1.806353688
5.966976166 3.805776119 1.88477242
6.580353737 4.184078693 -2.077851295
6.627212524 4.210626125 -1.802754521
6.670131683 4.236261368 -1.527679682
6.632305145 4.20898962 -1.237448215
6.716342926 4.25903368 -0.9713552594
6.709550858 4.253085136 -0.6912940145
6.732323647 4.264226437 -0.4154439867
6.754710197 4.276755333 -0.1388495415
6.713482857 4.267083645 0.1381514519
6.717934132 4.268266678 0.4149205983
6.731811047 4.273786068 0.6939086914
6.718952656 4.262332916 0.9718428254
6.712181568 4.256394863 1.252153158
6.701097965 4.246087551 1.533785582
6.679918766 4.229400635 1.815351725
5.980223656 3.784925699 1.88477242
6.624325275 4.179640293 -2.087168694
6.651028156 4.194865704 -1.805453897
6.714774132 4.231795311 -1.534548879
6.676311016 4.205927372 -1.243079901
6.743868828 4.24519968 -0.9733052254
6.759772301 4.251916885 -0.6949545741
6.765027523 4.253571033 -0.4165953994
6.79668951 4.270173073 -0.1394080371
6.763110638 4.267207146 0.138884455
6.763202667 4.263965607 0.4168047309
6.783773899 4.273626804 0.697743535
6.751526356 4.251665592 0.9745238423
6.737030983 4.239249706 1.254030347
6.736744404 4.23743248 1.538746595
6.715356827 4.220705032 1.82120049
5.996672153 3.766080856 1.885807753
6.661072731 4.172005177 -2.094415903
6.700320721 4.193331718 -1.814901829
6.758730412 4.228245735 -1.541418076
6.711052418 4.195159912 -1.246834278
6.778848648 4.23425436 -0.9762300253
6.801616669 4.245171547 -0.697743535
6.803554535 4.244735718 -0.4180607796
6.830221176 4.258057594 -0.1397919804
6.799997807 4.257369995 0.1393382102
6.788206577 4.246685982 0.4174327552
6.828315258 4.270123959 0.7008811235
6.781479359 4.237538815 0.9767175913
6.771893978 4.228262901 1.257784843
6.783140182 4.233639717 1.545997381
6.749890804 4.209614277 1.82659924
6.013059616 3.747170448 1.886842966
6.699291706 4.161836147 -2.101662636
6.74968195 4.191508293 -1.824349761
6.790863514 4.213798046 -1.545234203
6.761639118 4.192396164 -1.253404737
6.820586681 4.227297306 -0.9801298976
6.840106964 4.236091614 -0.7001838684
6.85133934 4.239735603 -0.4200495481
6.85524559 4.240502834 -0.1400014013
6.843694687 4.251544476 0.1399316043
6.83353281 4.241926193 0.4193168581
6.864241123 4.257665634 0.7029728889
6.828284264 4.233717918 0.9813486338
6.81012249 4.219161987 1.26216495
6.825320244 4.225286007 1.552103281
6.785161018 4.197149754 1.83199811
6.026102066 3.726159096 1.886842966
6.738447189 4.15362978 -2.109427214
6.803163528 4.190245152 -1.834697366
6.825594425 4.20241785 -1.549813628
6.799787998 4.183257103 -1.257784843
6.863091469 4.218904018 -0.9840296507
6.870131493 4.221575737 -0.7017527223
6.898431778 4.235653877 -0.4220382869
6.898014069 4.232078075 -0.1405598968
6.888172626 4.244267464 0.1405249685
6.883049965 4.237792492 0.4214102924
6.896025658 4.244125843 0.7047159672
6.870811939 4.225298405 0.9852483869
6.840686798 4.203482628 1.264980793
6.873485565 4.221984386 1.559735656
6.831327915 4.192806244 1.840546131
6.026544094 3.695969105 1.882701874
6.774329185 4.143187523 -2.116156578
6.837703228 4.178664207 -1.840096235
6.880430222 4.203130722 -1.558972478
6.829525471 4.168756962 -1.260600567
6.915061951 4.217660904 -0.9893919826
6.913745403 4.215198517 -0.7047159672
6.938761711 4.227133274 -0.4236083925
6.948615074 4.229810715 -0.1412928849
6.913183689 4.226453781 0.1407344043
6.931888103 4.234565735 0.4235037267
6.941407681 4.238717556 0.7078536153
6.905852795 4.21369791 0.9881732464
6.885678291 4.198086262 1.270612478
6.911650658 4.212271214 1.565078259
6.872554302 4.185150623 1.847744703
6.036108971 3.672899961 1.881666541
6.831691742 4.145570755 -2.129615068
6.867242336 4.163869381 -1.844145536
6.918566227 4.193333149 -1.564315081
6.869376659 4.160245895 -1.265293598
6.945027828 4.202744961 -0.9915856123
6.959100723 4.209606647 -0.7078536153
6.975696564 4.216316223 -0.4249691367
7.004419327 4.23033905 -0.1421305984
6.958669186 4.220965385 0.1413626969
6.967123508 4.222763538 0.4247597456
6.986833096 4.233047009 0.7109912038
6.944293976 4.203956604 0.9915856123
6.934092045 4.194478512 1.276869774
6.953192711 4.204370499 1.571184158
6.913805008 4.177263737 1.854943037
6.058816433 3.65779686 1.88477242
6.864324093 4.132664204 -2.135309219
6.901774883 4.151925564 -1.849544168
6.953347206 4.181302071 -1.568894386
6.912642956 4.153535843 -1.270612478
6.98007822 4.190739632 -0.9945104718
7.001086712 4.201690674 -0.7106425166
7.009212017 4.203239918 -0.4261204898
7.043160439 4.220252037 -0.142619282
7.004201889 4.215207577 0.1419909894
6.997224331 4.207686424 0.4257018268
7.035719872 4.229159355 0.7144774199
6.986151218 4.196049213 0.995485425
6.975791931 4.186510563 1.28187561
7.001494884 4.200278282 1.578816414
6.953416824 4.168131828 1.861691713
6.074861526 3.638612032 1.885807753
6.901928425 4.122545242 -2.14255619
6.948018074 4.146785259 -1.858092308
6.984762669 4.167062283 -1.572710633
6.961034298 4.14961195 -1.276869774
7.022925377 4.184845924 -0.9986540079
7.043100834 4.193537235 -0.7134315968
7.05988884 4.200191498 -0.4283186495
7.072581768 4.206076145 -0.1429334134
7.051496506 4.210208416 0.1426541805
7.043725491 4.203906059 0.4276905954
7.074398041 4.218859196 0.7169178128
7.041684151 4.196023464 1.001335144
7.010003567 4.175483704 1.285630107
7.038046837 4.188864231 1.583777547
6.987298489 4.157004833 1.867090344
6.083572388 3.616473913 1.88477242
6.937166214 4.112439632 -2.149285316
7.000294685 4.146566391 -1.868440151
7.039087772 4.167881012 -1.581869602
7.000257492 4.141594887 -1.281562805
7.067522049 4.179720879 -1.003041267
7.077552795 4.182319641 -0.7155233026
7.115053177 4.201129436 -0.4308307469
7.112322807 4.197844028 -0.1434569806
7.092943668 4.203113556 0.1432126462
7.081684589 4.194777012 0.4291560054
7.105494022 4.205525875 0.7186608911
7.086317539 4.19083643 1.005722523
7.052718639 4.169305325 1.290948868
7.07387495 4.178480625 1.588738561
7.01614809 4.142730236 1.871139646
6.088877201 3.592351913 1.882701874
7.03584671 4.136166096 -1.874288917
7.08333683 4.16242075 -1.588738561
7.034395695 4.130359173 -1.285317302
7.121449471 4.178127289 -1.008647323
7.11617136 4.17169714 -0.7179636955
7.14445591 4.186598778 -0.4317728281
7.163170338 4.194211483 -0.1441899836
7.12925005 4.1927495 0.1436664164
7.137611389 4.19431448 0.4316681027
7.150324345 4.200102329 0.7217984796
7.12414217 4.18138361 1.009134769
7.09789896 4.162650108 1.296580434
7.10801506 4.166915894 1.593317986
7.018794537 4.111321449 1.867990255
6.098046303 3.569122314 1.881666541
7.035787106 4.104799271 -2.17102623
7.065393925 4.120415211 -1.878337979
7.125686646 4.152244568 -1.59484458
7.073384762 4.118464947 -1.289697409
7.156576633 4.165226936 -1.011572123
7.165137291 4.166862011 -0.7214499116
7.183928013 4.174434662 -0.4332382083
7.217539787 4.192280769 -0.1449927986
7.16974926 4.182955265 0.1441899836
7.179815769 4.185469627 0.4333428741
7.200102806 4.193924904 0.7252846956
7.150701523 4.163482666 1.010841012
7.139707088 4.153740406 1.30158639
7.162279606 4.163527489 1.602095246
7.037186623 4.08752346 1.868890047
6.115478992 3.550725937 1.883219481
7.073482513 4.09376049 -2.178272963
7.128772736 4.117459774 -1.297206283
7.188987732 4.148893356 -1.014009595
7.21415472 4.161739349 -0.7249361277
7.229600906 4.16728735 -0.4351222813
7.259850502 4.183036327 -0.1455512643
7.219651699 4.176673889 0.1448880732
7.215130806 4.172378063 0.4345989525
7.245749474 4.186710358 0.7284223437
7.203735828 4.159080505 1.016203165
7.181535721 4.144592762 1.306592226
7.203980446 4.154194355 1.608201146
7.034525871 4.053206921 1.864390969
6.141227722 3.537071943 1.887360573
7.161595821 4.109786987 -1.896334052
7.162954807 4.105583191 -1.300960779
7.230267048 4.140817165 -1.017909288
7.259765625 4.154342175 -0.7280737758
7.279787064 4.164117336 -0.4373204112
7.286561966 4.164613247 -0.1457955986
7.264677525 4.170632362 0.1455163658
7.260836601 4.165053368 0.4364829957
7.294891834 4.181205273 0.7319085598
7.250215054 4.153917313 1.020834208
7.219961643 4.133236885 1.310972452
7.248389244 4.147831917 1.615070224
7.05469656 4.033724785 1.866190553
6.145149231 3.51082325 1.88477242
7.144826412 4.070381165 -2.191731691
7.20807457 4.103081226 -1.904882193
7.232906818 4.11554575 -1.609346032
7.28955555 4.141045094 -1.024246573
7.298480034 4.142745972 -0.7305141091
7.330758572 4.159376621 -0.4395185113
7.332366943 4.156906605 -0.1464238912
7.308734417 4.162069321 0.1461097598
7.308312416 4.158451557 0.4384717941
7.326035023 4.166843414 0.733651638
7.306091309 4.152125359 1.026683927
7.268699646 4.127519608 1.317229986
7.288433552 4.137043476 1.620794535
7.078903675 4.014844418 1.868890047
6.150645256 3.485539675 1.882701874
7.19333744 4.063170433 -2.202084303
7.244412899 4.090353012 -1.910730958
7.314630508 4.126628399 -1.624229193
7.216240883 4.067800999 -1.305340886
7.340285301 4.136036873 -1.029365182
7.337202549 4.130926609 -0.7329544425
7.36684227 4.144233227 -0.4407745898
7.381693363 4.150887012 -0.1471219957
7.337145805 4.144401073 0.1463889927
7.359312057 4.153529167 0.440669924
7.375966072 4.159539223 0.7371378541
7.341293335 4.138292789 1.029608846
7.324369907 4.125389576 1.324738741
7.322368622 4.120892048 1.624992371
7.09357214 3.988870144 1.868890047
6.166142941 3.465940237 1.883737087
7.25298214 4.063528538 -2.216060638
7.279760838 4.075198174 -1.916129708
7.147632599 3.996319532 -1.290323138
7.358142853 4.112327576 -1.029852629
7.176089287 4.002363205 -0.1427239925
7.366245747 4.125296116 0.1466682255
7.392932415 4.138551712 0.4418212771
7.425218582 4.153217316 0.7406240702
7.377203465 4.122980118 1.032533646
7.369768143 4.117136955 1.330370426
7.372707367 4.115403175 1.633006334
7.106760025 3.965326309 1.868890047
6.184952736 3.448159456 1.885807753
7.114261627 3.949997187 -1.573473811
7.119390011 3.949594259 -1.282814264
7.309241295 4.053249359 -1.021077991
7.412203789 4.106963634 -0.7376608253
7.42458725 4.110434055 -0.442553997
7.485010624 4.142183781 -0.1486229002
7.114196301 3.953205824 0.1413626969
7.350744724 4.082976818 0.4384717941
7.47379446 4.14790678 0.7441104054
7.422083378 4.115824223 1.036920905
7.411024094 4.107995987 1.335376263
7.429249287 4.114714146 1.642546773
7.113051414 3.937960148 1.867090344
6.20311451 3.431372166 1.887878299
7.412774563 4.083634853 -1.636822581
7.35741806 4.049797058 -1.323487282
7.450320721 4.097542286 -1.038870811
7.482371807 4.111768723 -0.7432388067
7.508189201 4.120839119 -0.1487974077
7.132519722 3.932490587 0.1414674222
7.490908623 4.126678467 0.4460081756
7.515430927 4.138478279 0.7468993664
7.47569418 4.113196373 1.04252696
7.446088314 4.09352684 1.33913064
7.477266312 4.108963013 1.650179148
7.133584499 3.91686368 1.868890047
6.213361263 3.408767223 1.887360573
7.36732626 4.028482914 -2.238319159
7.435209274 4.06391573 -1.946273208
7.102034569 3.878591061 -1.56469667
7.436373234 4.057807446 -1.335063338
7.501174927 4.091474056 -1.04398942
7.522921085 4.099924564 -0.7458534837
7.546065807 4.109127045 -0.4481016099
7.562926292 4.116592407 -0.1496002376
7.529806614 4.113909721 0.4474735558
7.551533222 4.122362614 0.7489911318
7.523116112 4.105140686 1.047158003
7.495019436 4.086419582 1.345388055
7.516411304 4.094680309 1.65552175
7.154742241 3.894412994 1.87068975
6.22013092 3.384289503 1.885807753
7.410213947 4.01839447 -2.24711895
7.474041462 4.049635887 -1.95257175
7.417479515 4.013967514 -1.329118848
7.568506241 4.092276096 -1.051301599
7.561722279 4.08690691 -0.748293817
7.59902668 4.103638172 -0.4504044056
7.614199638 4.110120296 -0.1503332257
7.492743492 4.061460972 0.1480644196
7.584508419 4.109489918 0.449881047
7.597416878 4.113049984 0.7521287203
7.574776649 4.097374916 1.052276492
7.550943375 4.082779408 1.352896929
7.556569099 4.082413197 1.661245942
7.166574478 3.868493557 1.870239615
6.238708019 3.366224289 1.887878299
7.46502924 4.014464378 -2.259542227
7.578628063 4.070440769 -1.663917303
7.437713146 3.993083477 -1.330370426
7.60827446 4.081232548 -1.054957628
7.607553005 4.07742691 -0.7514314651
7.628438473 4.086902618 -0.4513464272
7.654946327 4.097670078 -0.1508567929
7.613603592 4.094363213 0.1501936167
7.630476475 4.100004196 0.4517651498
7.657366276 4.111008644 0.7566607594
7.611061096 4.084437847 1.055445194
7.598225117 4.07413435 1.358841538
7.596020699 4.07124567 1.666970372
7.175929546 3.842865467 1.869339943
6.25212431 3.345336437 1.888395905
7.507275581 4.005147934 -2.268342257
7.570221901 4.035331726 -1.970567822
7.619806767 4.060060024 -1.670023322
7.474274635 3.979162693 -1.334437728
7.647010326 4.067703247 -1.058369994
7.663253784 4.074623585 -0.7556149364
7.674404621 4.077121735 -0.4532305598
7.703815937 4.0910182 -0.1515548974
7.661372662 4.085641384 0.1508567929
7.665180206 4.085949421 0.4530211687
7.709644318 4.106200695 0.7604956627
7.658566952 4.075565815 1.060076237
7.641340256 4.064687252 1.36416018
7.651791096 4.066820621 1.676129103
7.168647289 3.806823492 1.863941073
6.27341938 3.330023766 1.891501665
6.988433361 3.697062731 -2.106838942
7.611124992 4.024783134 -1.977766395
7.65823555 4.046274662 -1.675365925
7.641140938 4.035537243 -1.361970067
7.688548088 4.057143211 -1.062269807
7.707389832 4.06364727 -0.7585781813
7.726754189 4.072133541 -0.4555333257
7.746359348 4.07901144 -0.152113378
7.726140976 4.087328911 0.1518690437
7.718242645 4.079703808 0.4553239942
7.755643845 4.096010208 0.7636333108
7.70890522 4.069605827 1.065194726
7.676449299 4.04904604 1.367914677
7.706916809 4.063397408 1.685287952
7.182954788 3.783940077 1.864390969
6.281586647 3.306303978 1.890466332
7.613750935 3.993916988 -2.292153597
7.665523529 4.017668247 -1.988113999
7.708833694 4.038648605 -1.683379889
7.683882236 4.022163868 -1.366976142
7.745582581 4.051017761 -1.068119526
7.751543999 4.05241251 -0.7615415454
7.785885334 4.066905975 -0.4581501186
7.800259113 4.070944786 -0.1528812796
7.764091969 4.071057796 0.1523228139
7.77206707 4.07177639 0.45762676
7.791072369 4.080005646 0.765724957
7.765984058 4.063408852 1.071044445
7.72975111 4.04101944 1.374797821
7.756558895 4.053306103 1.692920327
7.203686237 3.761193752 1.866190553
6.288523674 3.280579329 1.888913512
7.648211956 3.978014231 -2.298365355
7.707167149 4.00526619 -1.995312691
7.754243851 4.028007507 -1.690249085
7.708395481 4.000775337 -1.368853331
7.801970959 4.04588604 -1.073969245
7.808095455 4.047333241 -0.765724957
7.833731651 4.057153225 -0.4601388872
7.853494167 4.063912392 -0.153649196
7.808417797 4.05960989 0.1529161781
7.825225353 4.064878941 0.4599295557
7.847706318 4.074818611 0.7699084878
7.810075283 4.051818371 1.075187922
7.791162968 4.038556099 1.38324523
7.791577816 4.037045956 1.697499752
7.213309288 3.734235048 1.86529088
6.303369522 3.260381699 1.889948726
7.706691742 3.974315882 -2.311823606
7.747086048 3.99172473 -2.002061129
7.801418304 4.017996788 -1.697499752
7.771493912 3.999153137 -1.377613664
7.842526913 4.032244205 -1.077625394
7.886679173 4.051460743 -0.7720001936
7.890487671 4.051677227 -0.4626509845
7.915670872 4.061117649 -0.15459162
7.865199566 4.054320335 0.1537539065
7.871325493 4.054001331 0.4618136287
7.89730978 4.06564045 0.7733947039
7.852416039 4.039057255 1.079087853
7.843863487 4.031201363 1.390128374
7.842294693 4.028660297 1.705513716
7.215898037 3.703695536 1.862591386
6.328464508 3.245409966 1.894089818
7.757332802 3.96450305 -2.322694302
7.802624226 3.985932827 -2.012858868
7.856311321 4.009901524 -1.706276894
7.838891506 3.9975667 -1.386999607
7.9025383 4.028281689 -1.08396256
7.941603661 4.044708252 -0.7760093212
7.944446087 4.04265976 -0.46495381
7.965444088 4.051599503 -0.1552897245
7.923820972 4.049589634 0.1546265334
7.919224262 4.043759823 0.4638023973
7.958303452 4.060208321 0.7779268026
7.901833534 4.029664993 1.08396256
7.886049747 4.018143177 1.395134211
7.902496815 4.023049355 1.715435863
7.222475052 3.673690557 1.860791683
6.339754105 3.223300934 1.894089818
7.795251369 3.949622631 -2.329941034
7.855430603 3.976673365 -2.022756577
7.901794434 3.998407125 -1.713146091
7.91273737 4.000480652 -1.397637248
7.963316441 4.022562981 -1.090299845
7.980575085 4.029532909 -0.7784497142
8.001304626 4.036495209 -0.4674659073
7.993822575 4.03097105 -0.1555689573
7.986775398 4.044915676 0.1555689573
7.977841854 4.03864193 0.4664191902
7.993762016 4.043196201 0.780018568
7.95730114 4.021262646 1.089568496
7.92118454 4.001280785 1.398888588
7.962062359 4.018436909 1.72535789
7.228295803 3.64494586 1.858992219
6.359593391 3.205497503 1.89667809
7.846965313 3.941469431 -2.341329098
7.898182392 3.965464354 -2.030405045
7.950797081 3.988411427 -1.720778465
7.97187233 3.997237444 -1.405771852
8.015657425 4.015696526 -1.095661998
8.026662827 4.017701149 -0.7815873027
8.057513237 4.031389236 -0.4699780345
8.057928085 4.028076172 -0.1565462947
8.039456367 4.038156509 0.1563368589
8.034733772 4.032268047 0.4689313471
8.039886475 4.031341076 0.7831561565
8.013183594 4.016201973 1.095418334
7.979262829 3.99571681 1.406710386
7.999921799 4.004315853 1.730700493
7.240344048 3.620953798 1.858992219
6.362101078 3.178965569 1.894089818
7.898036003 3.934374571 -2.352716923
7.945120811 3.954373837 -2.038953066
8.000892639 3.980385303 -1.728792429
8.024693489 3.98872757 -1.412654877
8.068741798 4.007114887 -1.10102427
8.079204559 4.010549068 -0.7854222059
8.103744507 4.019210339 -0.4718621373
8.116732597 4.02212286 -0.1574189067
8.074985504 4.020762444 0.1567557156
8.080945969 4.02021122 0.4708153903
8.088889122 4.022402287 0.7866423726
8.059153557 4.004106998 1.099805474
8.037396431 3.989795446 1.414532185
8.045506477 3.99207592 1.73756969
7.256432056 3.597387075 1.859892011
7.953294754 3.927307606 -2.365140438
8.000819206 3.947306871 -2.049750566
8.05523777 3.972402096 -1.73756969
8.074004173 3.978158951 -1.418912292
8.118298531 3.996462107 -1.105898976
8.137844086 4.004319668 -0.7897799611
8.132064819 3.997945786 -0.472699523
8.168416977 4.01227808 -0.1581519097
8.126626968 4.011139393 0.1574887186
8.130756378 4.009643555 0.4729088545
8.149343491 4.017046928 0.791174531
8.103356361 3.990858555 1.10394907
8.08672142 3.979163885 1.42078948
8.09462738 3.981294632 1.745202065
7.258449078 3.566884041 1.857192516
6.387609005 3.136172056 1.895125151
8.006861687 3.919060946 -2.377046108
8.053063393 3.938186884 -2.059648752
8.104328156 3.961508989 -1.745202065
8.12689209 3.96901989 -1.425795317
8.167881012 3.98550725 -1.110773802
8.189379692 3.994228363 -0.7934405804
8.189060211 3.990535021 -0.4752116501
8.218330383 4.001248837 -0.1588499993
8.190876007 4.007352352 0.158466056
8.177000046 3.997031689 0.4747929573
8.206280708 4.009565353 0.7953579426
8.151128769 3.979099512 1.108580232
8.15382576 3.976887465 1.430175543
8.161414146 3.978826046 1.756650448
7.263848305 3.538109779 1.855392933
6.395042419 3.112166643 1.894089818
8.041350365 3.901204109 -2.383257627
8.103587151 3.927904129 -2.069096565
8.153445244 3.950313807 -1.752834439
8.183368683 3.961285591 -1.43330431
8.224634171 3.97771287 -1.116623521
8.239147186 3.982962608 -0.7969267964
8.25150013 3.985376596 -0.4780378044
8.268265724 3.989920616 -0.1595481038
8.240800858 3.996184587 0.1591641605
8.234041214 3.989362478 0.4773050845
8.259677887 3.999998569 0.7991928458
8.207856178 3.971370935 1.114429951
8.181885719 3.955281258 1.43267858
8.214143753 3.969107151 1.765046239
7.276153564 3.512734175 1.855392933
6.409348011 3.091501713 1.895125151
8.091483116 3.890689611 -2.394128323
8.155893326 3.918156147 -2.078994274
8.206120491 3.940522909 -1.761229992
8.23989296 3.953201532 -1.440813184
8.270689964 3.964426279 -1.1210109
8.281749725 3.967950106 -0.7997157574
8.317603111 3.981559277 -0.4810732603
8.317528725 3.979739428 -0.1602461934
8.296150208 3.987323523 0.1599669605
8.292233467 3.983654976 0.4799219072
8.298735619 3.98321414 0.8016331792
8.26820755 3.965010881 1.120767117
8.24661541 3.952886581 1.441751719
8.263362885 3.95736742 1.772678614
7.29188776 3.488994837 1.856292844
6.407364368 3.064397335 1.891501665
8.15384388 3.885692835 -2.408622026
8.209306717 3.910365343 -2.089342117
8.257051468 3.929572582 -1.769243836
8.285064697 3.941130638 -1.44644475
8.330405235 3.959133863 -1.127348065
8.342346191 3.961234808 -0.8042478561
8.363237381 3.969371557 -0.4829573631
8.376542091 3.972099304 -0.1611188203
8.334600449 3.97183156 0.1604556292
8.352973938 3.97701025 0.4826433659
8.359368324 3.976476192 0.806165278
8.320752144 3.956321239 1.126129389
8.306754112 3.946116447 1.449886322
8.301270485 3.941730738 1.778021216
7.306938171 3.466466904 1.857192516
6.416275978 3.04118681 1.890984058
8.203364372 3.87596488 -2.419492483
8.254624367 3.896660805 -2.097440243
8.316202164 3.92394948 -1.779165983
8.334505081 3.929034233 -1.452702045
8.383684158 3.948637247 -1.132710338
8.395781517 3.950754881 -0.8080826402
8.405960083 3.953753233 -0.4846321046
8.435601234 3.964099169 -0.1619914472
8.397236824 3.965769291 0.1613980532
8.399317741 3.963167191 0.4845274389
8.419362068 3.970828295 0.8106973767
8.366833687 3.942485094 1.130516648
8.363370895 3.937291145 1.457395196
8.364717484 3.936136961 1.788706422
7.315467834 3.439279556 1.856292844
6.42685318 3.018769503 1.890984058
8.261260033 3.866342068 -2.432433367
8.315836906 3.890115499 -2.109587669
8.36787796 3.91090107 -1.787179947
8.388228416 3.916845322 -1.459585309
8.433392525 3.936141729 -1.137585044
8.452857971 3.941634417 -0.812266171
8.463845253 3.943161964 -0.4871442318
8.491080284 3.954046726 -0.1627942473
8.45449543 3.956778288 0.1622357816
8.442048073 3.947361231 0.4862022102
8.477181435 3.96018362 0.8148807883
8.420114517 3.931734324 1.135878921
8.412867546 3.924774408 1.463652611
8.425352097 3.927018642 1.798628569
7.32449007 3.410800219 1.855392933
6.437351227 2.99631834 1.890984058
8.304498672 3.851296186 -2.441233158
8.361865997 3.874359131 -2.117685795
8.420672417 3.899816513 -1.795575619
8.448460579 3.909110546 -1.467719913
8.483800888 3.921862602 -1.142459869
8.502737999 3.92882061 -0.815752387
8.524706841 3.935356617 -0.4898657203
8.535697937 3.938628674 -0.1633876264
8.51792717 3.948469162 0.1631782055
8.502892494 3.939702272 0.4889236689
8.527114868 3.947305679 0.8183670044
8.48311615 3.923343182 1.142459869
8.458791733 3.910301685 1.469284177
8.485350609 3.918985128 1.808550596
7.336350441 3.385213852 1.855392933
6.444262981 2.97220993 1.889948726
8.349489212 3.836806059 -2.450550795
8.422480583 3.868567467 -2.129833221
8.468135834 3.885958672 -1.802826405
8.508062363 3.902483463 -1.475854516
8.54006958 3.913557291 -1.148309588
8.552631378 3.915702105 -0.8192386031
8.584927559 3.928676605 -0.4925871789
8.58940506 3.927099705 -0.1641555279
8.561862946 3.934397459 0.1637715995
8.563786507 3.931661606 0.4916451573
8.569816589 3.930809021 0.8211560845
8.542995453 3.916702271 1.148797035
8.513695717 3.899673462 1.476480246
8.534000397 3.907172203 1.816182971
7.354625702 3.364107609 1.857192516
6.447571754 2.946483374 1.887878299
8.407875061 3.829919815 -2.464009285
8.478504181 3.858515024 -2.14063096
8.527438164 3.878993034 -1.812748432
8.554003716 3.88746953 -1.481486082
8.600673676 3.905062675 -1.154646873
8.618185043 3.911194801 -0.8242936134
8.634968758 3.915182829 -0.4946806133
8.650420189 3.918543816 -0.1650630534
8.611942291 3.921061277 0.1644696891
8.624725342 3.923247814 0.494366616
8.626333237 3.922162056 0.8253394961
8.601799965 3.907380342 1.154890537
8.577623367 3.892786741 1.485240459
8.57619381 3.890332937 1.822288752
7.366324902 3.338412523 1.857192516
6.45781517 2.923963785 1.887878299
8.472257614 3.823590994 -2.479020834
8.527448654 3.844921827 -2.149628878
8.594623566 3.873400211 -1.824196935
8.603543282 3.873812914 -1.487743378
8.652270317 3.89211607 -1.159765363
8.680846214 3.903153896 -0.8290001154
8.68866539 3.90301919 -0.4969833791
8.720601082 3.91370821 -0.1661451161
8.674794197 3.913174629 0.1654121131
8.67842865 3.911169291 0.4966693819
8.690836906 3.914937019 0.8302202821
8.640729904 3.888737917 1.158302903
8.643404961 3.886319399 1.494313717
8.643442154 3.884518385 1.833737373
7.3814888 3.314273119 1.858092308
6.467983246 2.901402235 1.887878299
8.524352074 3.811339378 -2.490408897
8.578184128 3.831820726 -2.159076929
8.649325371 3.861783266 -1.832974195
8.671134949 3.867896795 -1.49712956
8.698440552 3.876436949 -1.164152622
8.738098145 3.892282724 -0.833183527
8.736905098 3.888097286 -0.4989721477
8.774409294 3.901113987 -0.1669130176
8.734041214 3.903269768 0.16628474
8.728503227 3.897135019 0.4987628162
8.762671471 3.910561562 0.8357982635
8.701392174 3.879567623 1.164640069
8.696616173 3.873805285 1.501196861
8.667712212 3.859112263 1.836027145
7.385889053 3.285323858 1.856292844
6.485132217 2.881946325 1.889948726
8.574695587 3.797996283 -2.501279354
8.634278297 3.820777893 -2.169874668
8.693272591 3.845074177 -1.839461565
8.727949142 3.856764793 -1.504638433
8.760951996 3.867694139 -1.170733571
8.788088799 3.877841711 -0.8366697431
8.803423882 3.880938053 -0.5020077229
8.822742462 3.885782003 -0.1675762087
8.806126595 3.89866066 0.1674017012
8.785888672 3.88603878 0.501275003
8.80906868 3.894448757 0.8389357924
8.765722275 3.871632814 1.171464682
8.74442482 3.858574629 1.507141352
8.686514854 3.831215143 1.837171912
7.40087986 3.261092186 1.857192516
6.491617203 2.857733011 1.888913512
8.625051498 3.784339428 -2.512149572
8.706459999 3.81643486 -2.18472147
8.749799728 3.833611965 -1.848620534
8.784788132 3.845287561 -1.512147188
8.832601547 3.862538338 -1.178533196
8.843560219 3.865497351 -0.8406789303
8.869998932 3.873361349 -0.505043149
8.870402336 3.87169981 -0.1682393998
8.859972 3.885564327 0.1681696028
8.85360527 3.880934954 0.5044151545
8.859111786 3.879658222 0.8424220085
8.837381363 3.866470814 1.179264426
8.798800468 3.847756863 1.514337301
8.699837685 3.800868034 1.837171912
7.422933102 3.23991704 1.859892011
6.486892223 2.830011845 1.88477242
8.663013458 3.764991283 -2.519396544
8.758388519 3.804625034 -2.194619179
8.817157745 3.826496124 -1.860069156
8.83011055 3.830286503 -1.517778873
8.883609772 3.84980464 -1.183651686
8.906367302 3.855974674 -0.8453853726
8.930451393 3.864551544 -0.5077646375
8.944436073 3.866897106 -0.1693912596
8.896647453 3.86653018 0.168623358
8.914731979 3.870685816 0.5071365833
8.920121193 3.869330883 0.8469541073
8.886580467 3.852934361 1.184139132
8.868368149 3.841366053 1.524036288
8.70158577 3.767315149 1.83488214
7.440790176 3.218379974 1.861691713
6.496731758 2.807349443 1.88477242
8.737552643 3.762985706 -2.537513971
8.80920887 3.790201187 -2.204066992
8.880297661 3.81895113 -1.870754361
8.890617371 3.819711924 -1.525913477
8.946245193 3.839913607 -1.190232635
8.963048935 3.845273495 -0.8495688438
8.973258018 3.84594512 -0.5094393492
9.017868042 3.863202572 -0.1705431193
8.957846642 3.856005907 0.1695308834
8.971549988 3.860049009 0.5096487403
8.984158516 3.861757994 0.8518348932
8.936454773 3.83755827 1.189013958
8.933699608 3.834528685 1.533109426
8.718291283 3.738467693 1.835645556
7.44839716 3.190850496 1.860791683
6.509558201 2.78730917 1.885807753
8.802165031 3.754444838 -2.552525282
8.862960815 3.778543234 -2.214414835
8.92969799 3.803317547 -1.878386736
8.961396217 3.814965963 -1.535925269
8.995464325 3.825766087 -1.19510746
9.03142643 3.837338686 -0.8547981381
9.04295063 3.840371847 -0.512684226
9.064432144 3.845760822 -0.1711714119
9.027604103 3.850602865 0.1706129462
9.021716118 3.844369888 0.5117421746
9.048913002 3.852222681 0.8567156196
8.996623039 3.828112602 1.195351124
8.987026215 3.820320129 1.539992571
8.734251976 3.711072922 1.836408734
7.458938599 3.16613102 1.860791683
6.519247532 2.764570713 1.885807753
8.85324192 3.737935781 -2.563395739
8.938451767 3.770236492 -2.229711533
8.97976017 3.785814285 -1.886019111
9.023310661 3.800466537 -1.544059873
9.041193962 3.804283619 -1.199251056
9.076654434 3.817339897 -0.8577615023
9.090774536 3.819544554 -0.5145683289
9.098750114 3.82102704 -0.1715553701
9.103121758 3.841565847 0.171764791
9.092794418 3.835338354 0.5149870515
9.112543106 3.839922428 0.8614220023
9.051506996 3.810482264 1.200713396
9.035561562 3.8019135 1.545937181
8.755678177 3.68054986 1.837935209
7.478227139 3.140487432 1.862591386
6.525773048 2.739164114 1.88477242
8.862670898 3.705520868 -2.562360525
8.90955162 3.723290443 -2.219363928
9.038212776 3.773357391 -1.895559549
9.085086823 3.791060209 -1.552507401
9.055592537 3.775042295 -1.19949472
9.073368073 3.778740644 -0.8561926484
9.094172478 3.785537481 -0.5140449405
9.108338356 3.787709475 -0.1714855433
9.113964081 3.810587406 0.1717298776
9.100597382 3.801267862 0.5146729946
9.098312378 3.796578884 0.858807385
9.060427666 3.778918982 1.200225949
9.105304718 3.79390049 1.555635929
8.771458626 3.653005838 1.838698387
7.506592274 3.123154879 1.867090344
6.524592876 2.711917639 1.881666541
8.810658455 3.649494171 -2.543725729
8.859469414 3.666089773 -2.203617096
9.110546112 3.768124342 -1.908152938
9.132951736 3.773658752 -1.558451891
9.120092392 3.76461935 -1.206319451
9.130054474 3.766866446 -0.8603761196
9.159033775 3.775082111 -0.5169757605
9.172620773 3.778809786 -0.1724628955
9.12720871 3.778752565 0.1717298776
9.151908875 3.787102699 0.5168710947
9.153198242 3.783899784 0.862816453
9.115765572 3.764695168 1.205832005
9.174438477 3.787052393 1.565334916
8.769639015 3.616375923 1.835645556
7.517447948 3.096934557 1.867090344
6.538908482 2.692474365 1.883219481
8.801895142 3.609922171 -2.537513971
8.833711624 3.621170521 -2.194169283
9.178146362 3.758621931 -1.91960144
9.203915596 3.767299414 -1.568463683
9.198671341 3.761404753 -1.21509397
9.191102982 3.754560947 -0.8649082184
9.262105942 3.781684637 -0.5221046805
9.309812546 3.797366619 -0.1748015136
9.19334507 3.770467758 0.1727421284
9.222364426 3.778609276 0.520115912
9.275141716 3.796453238 0.8731008768
9.218227386 3.771273851 1.217775106
9.24063015 3.776679516 1.574408293
8.788852692 3.590241671 1.837171912
7.534893513 3.074935436 1.868890047
6.553634167 2.671818972 1.88477242
8.803077698 3.576353073 -2.534408092
8.840882301 3.588111877 -2.192819595
9.232403755 3.745141268 -1.928378701
9.25911808 3.752209902 -1.575659633
9.303747177 3.766515732 -1.227280974
9.230010033 3.732919693 -0.8673486114
9.341911316 3.776274443 -0.5258728862
9.380488396 3.788064718 -0.1758835465
9.339851379 3.792519569 0.1752552688
9.331738472 3.78543663 0.5255588889
9.365229607 3.797114134 0.8804219365
9.312288284 3.771870136 1.228499651
9.30136776 3.763662815 1.582542896
8.797688484 3.558074951 1.836408734
7.538354397 3.045693159 1.867090344
6.561128616 2.648204803 1.884254813
8.805374146 3.539734364 -2.531302214
8.84973526 3.555778503 -2.191919804
9.302550316 3.733941317 -1.940208673
9.342479706 3.746187925 -1.587548733
9.353692055 3.748783827 -1.232155681
9.22263813 3.692529202 -0.8654311299
9.405757904 3.762037277 -0.5286989808
9.419651985 3.765687704 -0.1763722301
9.408694267 3.78226757 0.1763024032
9.404204369 3.776655197 0.5289083719
9.406820297 3.773893356 0.8830366135
9.371460915 3.757808924 1.234593153
9.358457565 3.748803139 1.590051651
8.825255394 3.531634808 1.839461565
7.556704044 3.020938396 1.868890047
6.572126865 2.626000881 1.88477242
8.808698654 3.505410433 -2.528713942
8.85727787 3.521156788 -2.190570116
9.297279358 3.694203615 -1.936392665
9.344484329 3.709178448 -1.585671425
9.369213104 3.715209246 -1.232399464
9.326231003 3.69628191 -0.8739724159
9.415120125 3.72770977 -0.5284896493
9.399271011 3.71953702 -0.1757439375
9.422492981 3.747759342 0.1763024032
9.415475845 3.743065119 0.5288037062
9.405123711 3.735148668 0.8816421628
9.364872932 3.71538496 1.231912017
9.338432312 3.703003645 1.584419966
8.84117794 3.502259731 1.840224981
7.585325241 3.001711369 1.873389125
6.561491013 2.595232725 1.879078388
8.858628273 3.489507437 -2.539584398
8.905168533 3.506049633 -2.199568033
9.291849136 3.654539108 -1.932576418
9.319962502 3.66372323 -1.579414129
9.359309196 3.675414085 -1.229474545
9.401396751 3.686262131 -0.5270242691
9.397299767 3.680871964 -0.1754647046
9.399518967 3.702569962 0.1756392121
9.406179428 3.701401472 0.5275476575
9.386580467 3.689910889 0.8786788583
9.349430084 3.673418283 1.228255868
9.331076622 3.662442446 1.580978513
8.841777802 3.468617439 1.837935209
7.580722332 2.970849991 1.86978972
6.577706814 2.575128317 1.881148934
8.911546707 3.476257086 -2.551490307
8.939142227 3.483432055 -2.204967022
9.289282799 3.618003368 -1.929523468
9.317967415 3.625435352 -1.576911211
9.353578568 3.635532141 -1.227037191
9.359238625 3.633967161 -0.8746696115
9.371382713 3.636805773 -0.5246168375
9.398905754 3.643707514 -0.1752552688
9.401206017 3.665380239 0.1754297912
9.396711349 3.659844637 0.5262915492
9.38576889 3.653701544 0.8774586916
9.275238991 3.6069417 1.216800094
9.329071999 3.62413311 1.578475595
8.868474007 3.443415165 1.840988159
7.574693203 2.938033342 1.865740776
6.586656094 2.552150488 1.881148934
8.974692345 3.463045835 -2.565984011
8.991249084 3.467631817 -2.214864731
9.276832581 3.574053049 -1.924180865
9.310912132 3.583456278 -1.57346952
9.336568832 3.591454268 -1.223137259
9.360706329 3.596989393 -0.873623848
9.37159729 3.597420454 -0.5238841176
9.391029358 3.602999687 -0.1748713106
9.393424034 3.624620676 0.1750458479
9.372154236 3.612661123 0.5241981149
9.39166069 3.616410255 0.8767613769
9.21922493 3.548168898 1.207781792
9.314008713 3.580910444 1.573782444
8.888365746 3.413705349 1.842514634
7.589049816 2.911644936 1.866640449
6.604542732 2.532602787 1.883737087
9.080574036 3.467531204 -2.59290123
9.058520317 3.455492496 -2.228361845
9.270909309 3.534652948 -1.920364738
9.317829132 3.548821688 -1.572530985
9.338537216 3.552977085 -1.221675038
9.356444359 3.557920694 -0.8720549941
9.380361557 3.5632689 -0.5236747861
9.391085625 3.56358695 -0.1746269912
9.395435333 3.585891724 0.1748364121
9.381603241 3.576856375 0.5239887834
9.387471199 3.577222347 0.8751925826
9.215472221 3.507991791 1.205588102
9.304912567 3.53832531 1.570027947
8.905733109 3.384747982 1.843659401
7.591879368 2.882371426 1.864840984
6.608361244 2.506325245 1.882184148
9.181170464 3.469280005 -2.618265629
9.2820158 3.503679276 -2.28055048
9.325437546 3.518210649 -1.929141879
9.363431931 3.528811455 -1.578162551
9.395469666 3.537141085 -1.227524638
9.415426254 3.542778492 -0.8764128089
9.452569962 3.552988052 -0.5270242691
9.476477623 3.558199883 -0.1759882718
9.424731255 3.559429646 0.1751505584
9.429534912 3.557483196 0.5259775519
9.358887672 3.528964281 0.8713577986
9.218373299 3.472306252 1.204369545
9.20997715 3.465473175 1.551881671
8.878904343 3.339130402 1.835645556
7.609191895 2.858592272 1.866640449
6.611644268 2.48120451 1.880631328
9.280082703 3.469682455 -2.643112183
9.323397636 3.482169151 -2.287749052
9.374446869 3.499370575 -1.936774254
9.405306816 3.507150412 -1.583168507
9.430083275 3.512635708 -1.230449557
9.450141907 3.518234491 -0.8785045147
9.476146698 3.524145603 -0.5276523232
9.473843575 3.519530535 -0.175709039
9.46707058 3.537711382 0.175709039
9.484931946 3.540613174 0.5283849835
9.35621357 3.490704536 0.8699632287
9.202534676 3.429709435 1.200713396
9.231272697 3.436750889 1.553445935
8.886824608 3.306749105 1.83488214
6.623888016 2.459453344 1.881666541
9.268582344 3.428556681 -2.636382818
9.324529648 3.445548058 -2.285049677
9.382920265 3.465268373 -1.936011076
9.404519081 3.46950984 -1.580978513
9.464637756 3.487936258 -1.233374357
9.481060982 3.492109299 -0.8802475929
9.494013786 3.493117332 -0.5279663205
9.532996178 3.503682375 -0.1765816659
9.484988213 3.506721258 0.1758137494
9.482243538 3.501950026 0.5275476575
9.34965229 3.451122284 0.8682201505
9.192100525 3.389327288 1.197788596
9.296969414 3.424304008 1.562519193
8.90568161 3.278422594 1.836408734
7.810033798 2.871985912 1.911180735
6.637872219 2.438316584 1.883219481
9.313150406 3.408130407 -2.645700455
9.358463287 3.421009302 -2.290448427
9.426308632 3.443945169 -1.942498446
9.44997406 3.448853254 -1.58660996
9.491674423 3.460318565 -1.235324264
9.515656471 3.467180014 -0.8823393583
9.528670311 3.468154669 -0.5292223692
9.565839767 3.477902651 -0.1769656092
9.52534008 3.483896017 0.1763373166
9.458767891 3.455804348 0.5255588889
9.350411415 3.414366722 0.8671742678
9.246767998 3.372863054 1.203394532
9.282880783 3.38236475 1.558139086
8.92814064 3.251344681 1.838698387
6.655422688 2.418428421 1.885807753
9.343154907 3.382173538 -2.65087676
9.407000542 3.401572227 -2.299446583
9.458584785 3.418358326 -1.946696281
9.493541718 3.427245855 -1.59192884
9.51303196 3.430534363 -1.236543059
9.55019474 3.442047358 -0.8844311237
9.561388016 3.442316532 -0.5303737521
9.56851387 3.441104174 -0.1767910719
9.573170662 3.463553667 0.1770005077
9.450111389 3.415296078 0.5244074464
9.336037636 3.372232437 0.8647339344
9.297698975 3.354711056 1.208513021
9.261180878 3.337882042 1.552507401
8.946825981 3.222818851 1.840224981
7.927076817 2.852360249 1.935025573
6.667457581 2.396493196 1.886842966
9.338534355 3.343680143 -2.646218061
9.415145874 3.367403984 -2.298546553
9.45012188 3.378053427 -1.942498446
9.490563393 3.388774395 -1.589425921
9.51874733 3.396965027 -1.23581171
9.530247688 3.397314072 -0.8814677596
9.558294296 3.403557539 -0.5295364261
9.559149742 3.401977301 -0.1764071286
9.577672958 3.42741847 0.1768608987
9.444458961 3.377887964 0.5234654546
9.317732811 3.32889533 0.8619449139
9.285046577 3.313563824 1.205344439
9.259175301 3.302509308 1.550317287
8.954320908 3.190253019 1.839461565
7.897939205 2.8123312 1.925577641
6.666268349 2.371131182 1.884254813
9.338644981 3.308824778 -2.643112183
9.406052589 3.329013586 -2.293597698
9.442763329 3.340152025 -1.938682318
9.475673676 3.34807229 -1.585045815
9.514985085 3.360094786 -1.233861804
9.524550438 3.359728813 -0.879899025
9.556344032 3.367193937 -0.5288037062
9.55906105 3.366275787 -0.1761977077
9.547515869 3.380950689 0.1760929823
9.449958801 3.344553232 0.5231513977
9.315572739 3.293327332 0.8607247472
9.277265549 3.276147127 1.202907085
9.255174637 3.266524553 1.547814369
8.95374012 3.15662694 1.837171912
7.857597351 2.768637657 1.913430333
6.681383133 2.351578712 1.886325359
6.284843922 2.200924397 -1.527414322
6.325865746 2.214047432 -1.29451108
6.348426342 2.219460011 -1.058487177
6.383784294 2.229317904 -0.8251120448
6.387053967 2.227958679 -0.5881016254
6.397199631 2.230245352 -0.3528501689
9.548090935 3.324998379 -0.175778836
9.547350883 3.34530592 0.1758835465
9.440840721 3.304286003 0.5220000148
9.313277245 3.257814646 0.8595045805
9.263717651 3.236850023 1.199738503
9.253462791 3.229647875 1.545624256
8.964159966 3.126915455 1.837171912
6.700498581 2.332050323 1.889431238
6.083115101 2.107657909 -1.7134341
6.283281326 2.175782919 -1.525164843
9.46894455 3.271512508 -1.58003974
9.489425659 3.276740074 -1.227524638
6.398559093 2.206947565 -0.5884501934
6.394000053 2.202881575 -0.3522221446
9.531279564 3.281881094 -0.1752552688
9.433444023 3.264776468 0.5209532976
9.313856125 3.219754219 0.8584586978
9.256197929 3.198008776 1.19730103
9.238538742 3.188302994 1.54124403
8.979272842 3.09532094 1.837935209
7.785079479 2.680616617 1.890935183
6.719558239 2.312420368 1.892536998
6.094091415 2.087661743 -1.714469433
9.472826958 3.235892057 -1.5787884
9.482585907 3.235524654 -1.225087285
9.517347336 3.241823673 -0.5247215033
9.524311066 3.240486145 -0.174906224
9.540776253 3.266537189 0.1753250808
9.439677238 3.228242874 0.5206393003
9.304301262 3.180132151 0.856541276
9.249070168 3.157649755 1.194863677
9.229595184 3.147409678 1.537802577
8.999315262 3.067122936 1.839843154
7.807301044 2.6578269 1.894084692
6.720672607 2.285286903 1.890466332
6.105000496 2.067617416 -1.715504766
6.147319794 2.079558372 -1.488272905
9.448507309 3.190794945 -1.572843909
9.482535362 3.198599577 -1.223624825
9.487458229 3.198416233 -0.8722292781
9.5172472 3.204759598 -0.5240934491
9.522297859 3.202755451 -0.1746618897
9.527496338 3.224881411 0.1748713106
9.447104454 3.193990231 0.5204299092
9.279481888 3.135518789 0.8532294035
9.258156776 3.124708414 1.194620013
9.22180748 3.108860016 1.53467381
9.015548706 3.037569046 1.840988159
6.724946499 2.260583639 1.889431238
6.06821394 2.031576157 -1.703081369
6.124970913 2.048200607 -1.481074452
9.437101364 3.150290489 -1.569089413
9.474811554 3.159198046 -1.221187472
9.485334396 3.160867691 -0.8710091114
9.501846313 3.162685633 -0.5226280689
9.522033691 3.165713549 -0.1744524539
9.514042854 3.183353186 0.1744175553
9.452510834 3.159101725 0.520115912
9.279031754 3.099318504 0.8521835208
9.236992836 3.081698656 1.190476418
9.219485283 3.072276831 1.532483697
