# .PCD v0.7 - Point Cloud Data file format
VERSION 0.7
FIELDS x y z
SIZE 4 4 4
TYPE F F F
COUNT 1 1 1
WIDTH 1178
HEIGHT 1
VIEWPOINT 0 0 0 1 0 0 0
POINTS 1178
DATA ascii
-0.9585331082 -0.4082561731 0.01748551428
-0.9409922957 -0.4005909264 0.05139504001
-0.9408617616 -0.4001477957 0.08573586494
-0.9268693328 -0.3938145936 0.1185135394
-0.9082366228 -0.3857109249 0.1496028751
-0.9466506243 -0.4016344249 0.1916350275
-0.9296224713 -0.3940270543 0.2231480181
-0.9205327034 -0.3899848163 0.2562828958
-0.9317553639 -0.3932058215 -0.259388715
-0.9392864704 -0.3961908519 -0.2253975272
-0.9566751122 -0.4031321108 -0.1935431212
-0.9421460032 -0.3968158662 -0.1552345157
-0.9739810824 -0.4098243415 -0.1246069968
-0.951713264 -0.4000634253 -0.0866074264
-0.966806829 -0.4062098861 -0.05275577307
-0.9625014067 -0.4040054679 -0.01752042025
-0.9543545842 -0.4027428031 0.0173808001
-0.9571080208 -0.4035109878 0.05223241448
-0.9532700181 -0.4015011191 0.08678174019
-0.9391476512 -0.3953600526 0.1199759692
-0.9077566266 -0.3817721903 0.1492900103
-0.9479773045 -0.3984929621 0.1916350275
-0.9381109476 -0.3939602971 0.2249476314
-0.9272326827 -0.3890115321 0.2578358352
-0.9419659376 -0.3938398659 -0.2619769275
-0.9406637549 -0.3929094672 -0.2253975272
-0.9725003242 -0.406008333 -0.1965960711
-0.954464376 -0.3980871141 -0.1571117193
-0.9754058123 -0.4064219892 -0.1246069968
-0.9604614377 -0.3998017311 -0.08730467409
-0.9645308256 -0.4012979269 -0.05254642665
-0.9694454074 -0.4029460549 -0.01762513444
-0.9668250084 -0.4040353298 0.01759023033
-0.9585105777 -0.400167793 0.05223241448
-0.9711444974 -0.4052433074 0.08835053444
-0.9313606024 -0.3882604837 0.1187572777
-0.9273193479 -0.3861956298 0.1524187028
-0.9529874325 -0.3966906369 0.1923982799
-0.943079114 -0.3921797574 0.2258474231
-0.9446411133 -0.3924426138 0.2624945343
-0.954113543 -0.3948167264 -0.2650827765
-0.9528341889 -0.3940925896 -0.2280969322
-0.9703530669 -0.4009415507 -0.1958328336
-0.9650465846 -0.3983549178 -0.158676073
-0.965808332 -0.3984718323 -0.1231445819
-0.9692193866 -0.3994836211 -0.08800191432
-0.9733824134 -0.4008020461 -0.05296511576
-0.97639364 -0.4018426836 -0.01772984862
-0.975620389 -0.4037163556 0.01772984862
-0.9599016309 -0.3968195021 0.05223241448
-0.9836724997 -0.4062443376 0.08939640969
-0.9400499463 -0.3880367279 0.1197322309
-0.9377925992 -0.386721909 0.1539830416
-0.9653266072 -0.3976817727 0.1946879774
-0.9481143355 -0.3902041018 0.2267472446
-0.9531517029 -0.3920825124 0.2645651102
-0.9536982179 -0.3907513618 -0.2645651102
-0.9578792453 -0.3920740485 -0.2289967537
-0.9717465639 -0.3975521326 -0.1958328336
-0.9774026871 -0.3994679153 -0.1605532914
-0.9746134877 -0.3979309797 -0.1241195351
-0.9669187665 -0.3945921361 -0.08765330166
-0.9821734428 -0.4004178643 -0.05338380486
-0.9703831077 -0.3954133689 -0.01759023033
-0.9844956994 -0.4031691253 0.01786946692
-0.9649776816 -0.3949795365 0.05244175717
-0.9813962579 -0.4012999833 0.08904778212
-0.9488165975 -0.3875914514 0.1207071841
-0.9281640649 -0.3789658546 0.1521058381
-0.973980248 -0.3972758651 0.1962144524
-0.9530799985 -0.3883626759 0.2276470363
-0.9545145631 -0.3887529969 0.2645651102
-0.9532661438 -0.3866937459 -0.2640474737
-0.9663980007 -0.3918242753 -0.230796352
-0.9749481082 -0.3948946893 -0.1962144524
-0.9823839664 -0.3977070153 -0.161179021
-0.9906499386 -0.4006510079 -0.1260694414
-0.960901022 -0.3882290721 -0.08695605397
-1.000163555 -0.4038893878 -0.05432585254
-0.9791753292 -0.3950161338 -0.01772984862
-0.9839742184 -0.3991504908 0.01783456281
-0.9737547636 -0.3946092129 0.05286044627
-0.9754038453 -0.3948811889 0.08835053444
-0.9556170702 -0.3866766095 0.1214384139
-0.9441325068 -0.3816460967 0.1546087861
-0.9716517925 -0.3925726712 0.1954512298
-0.9579768181 -0.3866589665 0.2285468578
-0.9469072223 -0.381806761 0.2619769275
-0.9599210024 -0.3856911659 -0.2656003833
-0.9713767171 -0.3899005353 -0.2316961586
-0.9890068769 -0.3967764378 -0.1988857836
-0.9727646708 -0.3898661733 -0.1593018174
-0.9957281947 -0.3986661732 -0.126556918
-0.984380424 -0.3939231932 -0.08904778212
-1.001567245 -0.4003956616 -0.05432585254
-0.9879764915 -0.394562602 -0.01786946692
-0.9816502929 -0.3942228854 0.01776475459
-0.9899554849 -0.3971570134 0.05369782075
-0.9841050506 -0.3946105242 0.08904778212
-0.9643319249 -0.3862911761 0.1224133521
-0.9491269588 -0.3798156977 0.1552345157
-0.9766618609 -0.3906369805 0.1962144524
-0.9701784849 -0.3876507878 0.2312462479
-0.958999455 -0.3827961683 0.2650827765
-0.9738270044 -0.3873359263 -0.269223839
-0.9727318883 -0.3865071833 -0.2316961586
-1.003158212 -0.3983941078 -0.2015570998
-0.9888088107 -0.3922958672 -0.1618047804
-1.000804543 -0.3966510892 -0.1270444095
-0.9857493043 -0.3904848695 -0.08904778212
-0.9992446899 -0.3954270482 -0.05411650985
-1.000505686 -0.3955224752 -0.01807889715
-0.9960280061 -0.3959652483 0.01800908707
-0.9913358092 -0.3936989605 0.05369782075
-1.000291109 -0.397053659 0.09044227749
-0.9582933187 -0.3799957335 0.1214384139
-0.9633026123 -0.3815930784 0.1574246138
-0.9907972217 -0.3922844231 0.1988857836
-0.9751498699 -0.3856955469 0.2321460545
-0.9711100459 -0.3837054968 0.2681885958
-0.9751730561 -0.3839344978 -0.269223839
-0.9777022004 -0.3845358789 -0.2325959653
-1.002715588 -0.3941720128 -0.201175496
-0.9993656874 -0.3924521804 -0.1633691192
-1.002183199 -0.3931549191 -0.1270444095
-1.005655527 -0.3943146169 -0.09079090506
-1.000618815 -0.3919368386 -0.05411650985
-1.001880169 -0.3920276165 -0.01807889715
-1.004847288 -0.3954149485 0.01814870723
-0.9852687716 -0.3873135746 0.05327913165
-1.012797475 -0.3979308605 0.09148814529
-0.9725488424 -0.3817255199 0.1231445819
-0.9719849825 -0.3811125159 0.158676073
-1.001299977 -0.3924054801 0.2007938772
-0.9692318439 -0.379447639 0.2303464562
-0.979640007 -0.383128047 0.2702591419
-0.9873073101 -0.3847367167 -0.2723296881
-0.9935663342 -0.3867763579 -0.2361951619
-0.9985964298 -0.388533771 -0.2000306249
-1.011776447 -0.3932553232 -0.1652463228
-1.014652491 -0.3939652741 -0.1285068244
-0.9995960593 -0.3879185021 -0.09009365737
-1.013154149 -0.392773211 -0.05474454165
-1.001377821 -0.3878058195 -0.01804399118
-1.022991657 -0.3984363973 0.01846284978
-1.001505494 -0.3896656334 0.05411650985
-1.014180303 -0.3943930864 0.09148814529
-0.9720250368 -0.3776095212 0.1229008436
-0.9696263075 -0.376287967 0.1580503434
-1.000833154 -0.3881976008 0.2004122436
-0.9850872159 -0.3816946447 0.2339456528
-0.9845745564 -0.3811008334 0.271294415
-0.9832371473 -0.3792023659 -0.2707767785
-0.9876366854 -0.3805034459 -0.2343955785
-1.01093936 -0.3892783225 -0.2023203224
-1.009455681 -0.3883027434 -0.1646205932
-1.017874479 -0.39113307 -0.1287505627
-0.9972240925 -0.3829984069 -0.08974502981
-1.033166289 -0.3963884711 -0.05579125881
-1.006459951 -0.3857392967 -0.01811380126
-1.024376154 -0.3948632777 0.01846284978
-1.002859592 -0.3861670792 0.05411650985
-1.004394174 -0.386556983 0.09044227749
-1.001130342 -0.3848994076 0.126556918
-0.9856863022 -0.3785671592 0.1605532914
-1.015012264 -0.3896266818 0.2030835748
-0.997330904 -0.3824403584 0.2366450876
-0.9840949178 -0.376970619 0.2707767785
-0.9989935756 -0.3812789023 -0.2749178708
-1.012630343 -0.3860786557 -0.2402442843
-1.019630313 -0.3885436654 -0.2038467973
-1.01449728 -0.3861819208 -0.1652463228
-1.032221794 -0.3925168216 -0.1304567456
-1.002279878 -0.3809305429 -0.09009365737
-1.02894187 -0.3906531036 -0.05547723919
-1.024628043 -0.3886058331 -0.01842794567
-1.014538169 -0.3870088458 0.01825342141
-1.022864819 -0.3897762597 0.05516322702
-1.016908884 -0.387303412 0.09148814529
-0.9950464368 -0.3785788715 0.1255819649
-0.9833087325 -0.3737202585 0.159927547
-1.009024858 -0.383292526 0.2015570998
-1.005947709 -0.381721884 0.238444671
-0.9872110486 -0.3742181361 0.271294415
-1.014776468 -0.3832497597 -0.2790589631
-0.9993855953 -0.3770383298 -0.2366450876
-1.026491284 -0.3870601356 -0.2049916685
-1.023233533 -0.3854235709 -0.1664978117
-1.033585668 -0.3889112771 -0.1304567456
-1.025981903 -0.385845542 -0.09218539298
-1.028429627 -0.3863563836 -0.05537256971
-1.033466935 -0.3878374994 -0.01856756583
-1.030849576 -0.3891145289 0.018532658
-1.016743898 -0.3833846748 0.05474454165
-1.029440999 -0.3879671693 0.09253402054
-0.9982194304 -0.375802815 0.1258257031
-0.9901541471 -0.372371614 0.1608661562
-1.014032006 -0.3811497688 0.2023203224
-1.012747169 -0.3802631795 0.2397943884
-0.9993641973 -0.3748402297 0.2744002342
-1.019727349 -0.38105762 -0.2800942659
-1.017126799 -0.3796812892 -0.2406942248
-1.035193801 -0.3862196803 -0.2065181434
-1.028274536 -0.3832293749 -0.1671235412
-1.034937024 -0.3853007555 -0.1304567456
-1.031057119 -0.3836517036 -0.09253402054
-1.041004777 -0.386939317 -0.05600060523
-1.038563728 -0.3856197298 -0.01863737404
-1.030328274 -0.3848143816 0.01849775389
-1.018075943 -0.3798331916 0.05474454165
-1.045723557 -0.3899400532 0.09392850101
-1.010686636 -0.3764736354 0.1272881329
-0.9988533258 -0.3716688156 0.1621176451
-1.026397228 -0.3817138374 0.2046100497
-1.003107786 -0.3726540804 0.2370949835
-1.015155792 -0.3767264783 0.2785413265
-1.028299212 -0.3801757097 -0.2821648121
-1.027586222 -0.3795041442 -0.2429437339
-1.031010151 -0.3805645108 -0.2053732723
-1.044433355 -0.3851048052 -0.1696264893
-1.047452092 -0.3858025968 -0.1319191754
-1.036129475 -0.3814268708 -0.09288264066
-1.053596139 -0.3874392807 -0.05662863702
-1.036082983 -0.3807938993 -0.01856756583
-1.054174066 -0.3895326257 0.01891661249
-1.030571461 -0.3806066215 0.05537256971
-1.048947692 -0.3869772851 0.09410282224
-1.019445181 -0.3756890595 0.128263101
-0.988958478 -0.3642579615 0.1602404267
-1.038778305 -0.3821958601 0.2068997473
-1.011718988 -0.3718393445 0.2388945967
-1.016399503 -0.3733579814 0.2785413265
-1.025991321 -0.3752564788 -0.281129539
-1.039820671 -0.3801088333 -0.2456431389
-1.041553259 -0.380330056 -0.207281366
-1.05312717 -0.3843480945 -0.1708779633
-1.056185842 -0.3850466609 -0.1328941286
-1.043070912 -0.37985304 -0.09340557456
-1.06238246 -0.3866756856 -0.05704732239
-1.04680264 -0.3805913329 -0.01874208823
-1.059216022 -0.3874084353 0.01898642071
-1.035645604 -0.3783780038 0.05558191612
-1.044677019 -0.3812641501 0.09357988834
-1.035604596 -0.377748251 0.1302129924
-1.010640144 -0.368242532 0.1636819839
-1.047418952 -0.3814364374 0.2084262222
-1.031259775 -0.3751441538 0.2433936298
-1.0176965 -0.3698080182 0.2785413265
-1.030863166 -0.3731674552 -0.2821648121
-1.048471689 -0.3791275322 -0.2474427521
-1.05388689 -0.3808780015 -0.2095710933
-1.052604437 -0.3799988925 -0.1705650985
-1.068727732 -0.3853979409 -0.1343565583
-1.044324875 -0.3763919473 -0.09340557456
-1.071242571 -0.3856710792 -0.05746601149
-1.066941738 -0.3837020993 -0.01909113675
-1.054920793 -0.3816677034 0.01888170838
-1.051986814 -0.3801912963 0.05641928688
-1.053431273 -0.3805052042 0.09427713603
-1.036916852 -0.3741309941 0.1302129924
-1.021211147 -0.3680613935 0.1652463228
-1.048744082 -0.3777779043 0.2084262222
-1.047232151 -0.3768204153 0.2469928265
-1.026253223 -0.3688670993 0.2806119025
-1.043072224 -0.3734738231 -0.2852706313
-1.044283867 -0.3734967411 -0.2460930347
-1.069999576 -0.3824832737 -0.2126240134
-1.059505343 -0.3783152699 -0.1715036929
-1.068196774 -0.3809981048 -0.13411282
-1.068152785 -0.3807725608 -0.09549731016
-1.068819046 -0.3805893958 -0.05725666508
-1.079578996 -0.383996278 -0.01930056512
-1.067543149 -0.3820255399 0.01909113675
-1.049546242 -0.375172019 0.05620994791
-1.071639299 -0.3828585446 0.09584593773
-1.034477472 -0.3691748083 0.1297255158
-1.037375212 -0.3698010445 0.1677492857
-1.057453871 -0.3767503798 0.2099526972
-1.052212954 -0.3744693398 0.247892648
-1.036635756 -0.3685179651 0.2832000852
-1.058937907 -0.3749894202 -0.2894117534
-1.047418356 -0.3704990745 -0.2465429306
-1.075030327 -0.3800547123 -0.2133872658
-1.071995497 -0.3785609901 -0.1733809263
-1.071392179 -0.3779276907 -0.1343565583
-1.08074975 -0.3810161352 -0.09654318541
-1.077676535 -0.3795101047 -0.05767535418
-1.075253725 -0.3782348037 -0.01919585094
-1.080180764 -0.3823000789 0.01930056512
-1.047083497 -0.370174706 0.05600060523
-1.082361937 -0.3824345171 0.09671749175
-1.03763175 -0.366222173 0.1299692541
-1.036796689 -0.3655205667 0.1674364209
-1.069872618 -0.3769714832 0.2122424096
-1.051675558 -0.3701471388 0.2474427521
-1.05614078 -0.3713047802 0.2883764505
-1.067533493 -0.3738450408 -0.2914822996
-1.067099929 -0.373274833 -0.2510419488
-1.076350331 -0.3763000965 -0.2133872658
-1.084500074 -0.378724277 -0.1752581298
-1.083950758 -0.3781082928 -0.1358189881
-1.083954573 -0.3778971136 -0.09671749175
-1.078994751 -0.3757457137 -0.05767535418
-1.076567411 -0.374479413 -0.01919585094
-1.089058399 -0.3811696172 0.01944018528
-1.055910468 -0.3691541851 0.05641928688
-1.091213942 -0.3812828362 0.09741473943
-1.050148845 -0.3665229976 0.1314316839
-1.039931655 -0.3625495136 0.1677492857
-1.078597665 -0.3758187592 0.2137688845
-1.062163472 -0.36967659 0.2496922314
-1.062904835 -0.3695186973 0.28992939
-1.050576806 -0.3637949228 -0.2863059044
-1.077604771 -0.3727329969 -0.2532914579
-1.085079312 -0.3751063943 -0.2149137408
-1.089549661 -0.3762260377 -0.1758838594
-1.089017391 -0.3756165802 -0.1363064647
-1.081499696 -0.3728126884 -0.09636886418
-1.095407367 -0.3771789372 -0.05851273239
-1.085431814 -0.3733206391 -0.01933546923
-1.094161987 -0.3786735237 0.01950999536
-1.072293878 -0.3706865013 0.05725666508
-1.081239223 -0.3735673428 0.09636886418
-1.081445694 -0.3732165098 0.1353315115
-1.048660994 -0.361492604 0.1690007597
-1.087327719 -0.3746094406 0.2152953595
-1.070818067 -0.3685034215 0.2514918447
-1.066015005 -0.3664341569 0.2904470265
-1.066461921 -0.3651315868 -0.2904470265
-1.088118672 -0.3721220791 -0.255540967
-1.093812943 -0.3738562167 -0.2164402008
-1.090856194 -0.3724204898 -0.1758838594
-1.109110355 -0.3782202601 -0.1387438476
-1.090337873 -0.3716062009 -0.09706611186
-1.098607898 -0.373996824 -0.05861740187
-1.103767514 -0.3753231466 -0.01964961179
-1.087908983 -0.3722624779 0.0193703752
-1.092480421 -0.3734007776 0.05830338225
-1.097619891 -0.3749435246 0.09776335955
-1.071469665 -0.3655928075 0.1338690817
-1.053655863 -0.3591043651 0.1696264893
-1.081195235 -0.3682793379 0.2137688845
-1.083167195 -0.3685294092 0.2541912496
-1.074604034 -0.3651975095 0.2925175726
-1.084134698 -0.3671702743 -0.2951057553
-1.08380878 -0.3666382432 -0.2541912496
-1.106205702 -0.373999685 -0.2187299132
-1.095828414 -0.3700650334 -0.1765096188
-1.110358477 -0.3745402098 -0.1387438476
-1.099116206 -0.3705343604 -0.09776335955
-1.101734877 -0.370988965 -0.05872207135
-1.123959899 -0.3780357838 -0.01999866217
-1.096714139 -0.3712172508 0.01950999536
-1.089928627 -0.3684965372 0.05809404328
-1.106407523 -0.3738527596 0.09846060723
-1.067033529 -0.3601334393 0.1331378669
-1.06794405 -0.3600256145 0.1718165874
-1.093573332 -0.3684532046 0.2160585821
-1.084383368 -0.3649354577 0.2541912496
-1.086796165 -0.3653252125 0.2956233919
-1.094569325 -0.3664504886 -0.297693938
-1.099867225 -0.3677969873 -0.2577904761
-1.111228466 -0.3713808656 -0.2194931507
-1.113977075 -0.3718670011 -0.1793254316
-1.111659169 -0.3706620336 -0.1387438476
-1.11552453 -0.3717345595 -0.09915785491
-1.110603333 -0.3696639836 -0.05914076045
-1.127169967 -0.3747411966 -0.02003356628
-1.109381318 -0.3711937666 0.01971942373
-1.09120822 -0.3646899462 0.05809404328
-1.122823834 -0.3750380278 0.0998551026
-1.088997602 -0.363317132 0.1358189881
-1.076690316 -0.3587935567 0.1730680466
-1.109754086 -0.3695964515 0.219111532
-1.085650563 -0.3611479998 0.2541912496
-1.099064589 -0.3651842177 0.2987292409
-1.101344109 -0.3644479215 -0.2992468774
-1.106695056 -0.3657903969 -0.2591401637
-1.112518072 -0.3674994111 -0.2194931507
-1.120896101 -0.3698332906 -0.1802640259
-1.116716862 -0.3680219352 -0.1392313242
-1.116879463 -0.3676434159 -0.09915785491
-1.12896204 -0.3714022636 -0.06008280814
-1.124671578 -0.369555831 -0.0199637562
-1.125858903 -0.3723421395 0.01999866217
-1.100060463 -0.3633842766 0.05851273239
-1.127909899 -0.3723654747 0.1002037227
-1.09591496 -0.3613785803 0.136550203
-1.068555117 -0.3519434333 0.1715036929
-1.122226477 -0.3694034517 0.2214012295
-1.094309688 -0.359790504 0.2559908628
-1.098497152 -0.3607427478 0.2982115746
-1.091654897 -0.3568080366 -0.2961410582
-1.13204658 -0.3697911501 -0.2649888992
-1.125056148 -0.3670733869 -0.2217828631
-1.129756689 -0.36817047 -0.1815155149
-1.134982228 -0.3696545959 -0.1414249688
-1.118156075 -0.3637425005 -0.09915785491
-1.141712666 -0.370965004 -0.0607108362
-1.129758716 -0.3668629527 -0.02003356628
-1.130953074 -0.3696526587 0.02006847039
-1.120308638 -0.365740478 0.05955944955
-1.125478864 -0.3669936955 0.0998551026
-1.102832079 -0.3593961596 0.1372814327
-1.084804296 -0.3531023562 0.1740066558
-1.123572826 -0.3652880788 0.2214012295
-1.106741786 -0.3593887389 0.2586902678
-1.094237208 -0.355117321 0.2966586947
-1.109438777 -0.3583391309 -0.300799787
-1.137103677 -0.3668363988 -0.2658887208
-1.130067706 -0.364348799 -0.2225461006
-1.123513818 -0.3618029058 -0.1802640259
-1.149493217 -0.3699473143 -0.1431311518
-1.134593248 -0.3647152483 -0.1005523503
-1.139197469 -0.3657563031 -0.06050149724
-1.151977181 -0.3696379662 -0.02041751891
-1.124688268 -0.36304757 0.0199288521
-1.131082416 -0.3648939133 0.06008280814
-1.134338379 -0.365506947 0.1005523503
-1.121148586 -0.3608250022 0.1394750774
-1.099193692 -0.3535474241 0.176196754
-1.117364407 -0.358961612 0.2198747545
-1.119060278 -0.3592909575 0.2613897026
-1.106507659 -0.3548347652 0.299764514
-1.12350297 -0.3587717414 -0.3044232428
-1.132744074 -0.3612870872 -0.2645390034
-1.149974942 -0.3665617406 -0.2263622731
-1.139765739 -0.3628692925 -0.1827669889
-1.148822069 -0.3655317724 -0.1428874135
-1.14718926 -0.3645713329 -0.1015982181
-1.144211292 -0.3631849885 -0.0607108362
-1.162726998 -0.3688390255 -0.02059204318
-1.141126394 -0.3641797304 0.02020809054
-1.136091828 -0.3623548448 0.06029215083
-1.143137932 -0.3641623259 0.101249598
-1.105314136 -0.3516884446 0.1372814327
-1.109772563 -0.3528934419 0.1777610928
-1.137260079 -0.3611973822 0.2236909568
-1.123960376 -0.3567571044 0.2622894943
-1.122410536 -0.3558339775 0.3039056063
-1.137582183 -0.3591150045 -0.3080467284
-1.145087123 -0.3610447049 -0.2672384083
-1.1549927 -0.3637247384 -0.2271255255
-1.152268291 -0.3626457751 -0.1846441925
-1.151984811 -0.3621143699 -0.1431311518
-1.15605855 -0.3629518747 -0.1022954583
-1.156906724 -0.3627742827 -0.06133887544
-1.169732094 -0.3665720522 -0.02069675736
-1.14995575 -0.3628004491 0.0203477107
-1.137349725 -0.358386904 0.06029215083
-1.167143703 -0.3675512969 0.1033413261
-1.131091475 -0.3557639718 0.1404500157
-1.103459239 -0.3466495275 0.1765096188
-1.157246232 -0.3631025851 0.2275071293
-1.128917694 -0.3539976776 0.263189286
-1.132863522 -0.3548007011 0.306493789
-1.138890862 -0.3549431264 -0.3080467284
-1.153845429 -0.3591620326 -0.2690380216
-1.152568579 -0.3583233058 -0.2263622731
-1.164908409 -0.3619367182 -0.1865214258
-1.164679527 -0.3614199162 -0.1445935816
-1.161187291 -0.3598916233 -0.1026440784
-1.162044525 -0.3597127497 -0.06154821441
-1.171067834 -0.3622820377 -0.02069675736
-1.162733197 -0.3621511459 0.02055713907
-1.150098443 -0.3577755094 0.06092018262
-1.168483019 -0.3632709682 0.1033413261
-1.132387757 -0.3516159058 0.1404500157
-1.116042733 -0.3461135328 0.1783868223
-1.169821262 -0.362344116 0.2297968417
-1.133930922 -0.3510101438 0.2640891075
-1.143384457 -0.3534995317 0.3090820014
-1.132798314 -0.3484942913 -0.3059761822
-1.166330934 -0.3583646715 -0.2717374265
-1.165072799 -0.357755661 -0.2286519706
-1.173781276 -0.3599814177 -0.1877728999
-1.177384853 -0.3606366813 -0.1460560113
-1.158626199 -0.3546700478 -0.1022954583
-1.184302926 -0.3620775938 -0.0626996085
-1.183799744 -0.3616981804 -0.02090618573
-1.167875528 -0.3590623736 0.02062694728
-1.158977032 -0.3561051488 0.06133887544
-1.169806719 -0.3589858115 0.1033413261
-1.164036155 -0.3567704856 0.1443498433
-1.126687884 -0.345108062 0.1799511611
-1.17107892 -0.3582584262 0.2297968417
-1.153846622 -0.3525463045 0.2685881257
-1.133525729 -0.3461211622 0.3059761822
-1.152492046 -0.3501541615 -0.3111525476
-1.169377565 -0.3550611734 -0.2721873522
-1.177587152 -0.3571053147 -0.230941698
-1.167406797 -0.35379529 -0.1865214258
-1.186174154 -0.359030664 -0.1470309645
-1.178928733 -0.3563887775 -0.1040385738
-1.183585167 -0.357570678 -0.0625949353
-1.18888402 -0.3587189913 -0.02097599767
-1.176713109 -0.3575130999 0.02076656744
-1.171680212 -0.3555369675 0.06196689978
-1.178679705 -0.3572116792 0.1040385738
-1.144314408 -0.3465788662 0.141668722
-1.133558035 -0.3428891897 0.1808897704
-1.168502092 -0.3532368243 0.2290336043
-1.158740401 -0.3498444855 0.2694879174
-1.149523735 -0.3466237783 0.3101172447
-1.170299292 -0.3513295352 -0.3158113062
-1.168743134 -0.3504174054 -0.2717374265
-1.193810105 -0.3577062786 -0.2339946181
-1.179989338 -0.3531160355 -0.1883986294
-1.195027947 -0.3571619391 -0.1480059177
-1.191558361 -0.3558984995 -0.1050844416
-1.180998325 -0.3522953987 -0.06238559261
-1.201627731 -0.3579922616 -0.02118542604
-1.185615301 -0.3557015955 0.02090618573
-1.178653717 -0.3531649411 0.0622809194
-1.19512701 -0.3578733206 0.1054330692
-1.162633777 -0.3477015495 0.1438623667
-1.149890065 -0.3434528708 0.1833927333
-1.184777856 -0.3536480665 0.2320865393
-1.174894691 -0.3502514362 0.2730871439
-1.167390347 -0.3475706577 0.3147760034
-1.177075028 -0.3488892019 -0.317364186
-1.1867764 -0.3513141572 -0.2757865489
-1.198816538 -0.3546507657 -0.2347578704
-1.194475651 -0.3529132307 -0.1905887276
-1.200075269 -0.3541119695 -0.1484934092
-1.204259753 -0.3551182151 -0.1061303169
-1.1956321 -0.3521204889 -0.06311829388
-1.212462187 -0.3566171527 -0.02135994844
-1.190684438 -0.3526967466 0.02097599767
-1.183709741 -0.3501816392 0.06249026582
-1.207832813 -0.357088536 0.106478937
-1.154321313 -0.3408301175 0.1426436603
-1.156765938 -0.3411130011 0.1843313277
-1.201070547 -0.353949964 0.2351394892
-1.168632269 -0.3439472616 0.2712875307
-1.174156904 -0.34512797 0.316328913
-1.189410567 -0.3480332196 -0.3204700351
-1.195477486 -0.3493558466 -0.2775861621
-1.192509174 -0.3482622206 -0.2332313955
-1.207078457 -0.3520601094 -0.1924659312
-1.208927512 -0.3521413207 -0.1494683474
-1.216969728 -0.3542537987 -0.1071761847
-1.206443191 -0.3507325053 -0.06364165246
-1.204036593 -0.3498049974 -0.02118542604
-1.207262874 -0.3530285656 0.02125523426
-1.196366787 -0.3496157229 0.06311829388
-1.216722131 -0.3551032543 0.1071761847
-1.185996652 -0.3456864953 0.1465434879
-1.152201176 -0.3356178403 0.1833927333
-1.217379689 -0.354142338 0.2381924391
-1.181054115 -0.3431279659 0.2739869654
-1.186426401 -0.3444642127 0.3194347322
-1.18133831 -0.3411992788 -0.3178818524
-1.202246547 -0.3470107913 -0.2789358795
-1.208809137 -0.3484476805 -0.2362843454
-1.210137486 -0.3486021161 -0.192778796
-1.217719555 -0.3503257036 -0.1504433006
-1.206709623 -0.3467022479 -0.1061303169
-1.228716373 -0.3527929485 -0.06479305029
-1.216783762 -0.3489071131 -0.02139485441
-1.212269306 -0.3501329124 0.02132504433
-1.209094286 -0.3487583995 0.06374633312
-1.210296154 -0.3486478627 0.106478937
-1.202397466 -0.3461449444 0.1484934092
-1.157162547 -0.332685709 0.1840184629
-1.210999727 -0.3479348421 0.2366659641
-1.197170615 -0.3435095847 0.2775861621
-1.180193067 -0.3381920159 0.317364186
-1.189894199 -0.3393995166 -0.3199523985
-1.209073067 -0.3444136381 -0.2802855968
-1.22884047 -0.3498123884 -0.2401005179
-1.211346865 -0.3443757892 -0.192778796
-1.23803103 -0.3514948487 -0.1528806984
-1.223246932 -0.3468357921 -0.1075247973
-1.235705137 -0.3501355052 -0.06510706246
-1.223766685 -0.3462910354 -0.0214995686
-1.20963788 -0.3448027968 0.02125523426
-1.22375083 -0.3483635485 0.06447903067
-1.2267766 -0.3489937186 0.1078734323
-1.209326863 -0.3435731232 0.1492246091
-1.183021665 -0.3356535137 0.1880857646
-1.208429217 -0.3426344395 0.2359027416
-1.213362575 -0.343575716 0.2811853886
-1.196237922 -0.3382760286 0.3215053082
-1.20972693 -0.3402668536 -0.3251287937
-1.208391905 -0.3396634161 -0.2798356712
-1.241455317 -0.3484899402 -0.2423902303
-1.224013209 -0.3431328833 -0.1946559995
-1.239250422 -0.3471711576 -0.1528806984
-1.239799857 -0.3468583822 -0.1089192927
-1.229285836 -0.3434539735 -0.06468837708
-1.242302299 -0.3468572795 -0.02181371301
-1.218534112 -0.3427440524 0.02139485441
-1.228805065 -0.3451702297 0.06468837708
-1.235720873 -0.3466472626 0.10857068
-1.206695914 -0.3382782638 0.1487371475
-1.197501779 -0.335249722 0.190275833
-1.221021414 -0.3413749933 0.2381924391
-1.222121477 -0.3412227035 0.2829850018
-1.206715465 -0.3366939723 0.3240934908
-1.227660775 -0.3406915963 -0.3297875226
-1.217140436 -0.3373142183 -0.2816352844
-1.246448278 -0.3452026248 -0.2431534678
-1.242338657 -0.3435972929 -0.1974718273
-1.248168349 -0.3447407186 -0.1538556516
-1.260208845 -0.3478295505 -0.1106624082
-1.242029905 -0.3423454762 -0.06531640887
-1.255072832 -0.3457048535 -0.02202314138
-1.235197783 -0.3425507545 0.02167409286
-1.226152897 -0.3398119211 0.06447903067
-1.259965777 -0.348709166 0.1106624082
-1.219407916 -0.3370258808 0.1501995772
-1.198664665 -0.3310678899 0.190275833
-1.241131544 -0.3423306048 0.2420086116
-1.215790033 -0.334884584 0.2811853886
-1.222784042 -0.3365811408 0.3282346129
-1.23815918 -0.3389542997 -0.3323757052
-1.238928795 -0.3389326036 -0.2865842283
-1.247645736 -0.3408492804 -0.2431534678
-1.254905224 -0.342597127 -0.1993490458
-1.256965518 -0.3426882327 -0.1548306048
-1.24988091 -0.3402880728 -0.1096165404
-1.258576035 -0.3424195051 -0.06615378708
-1.250482678 -0.3397484422 -0.02191842534
-1.251756907 -0.3426767886 0.02195333131
-1.238891125 -0.3386898935 0.06510706246
-1.26886344 -0.3464078009 0.1113596559
-1.233924627 -0.3366379142 0.1519057453
-1.207436681 -0.32895872 0.1915273219
-1.249837041 -0.3402761519 0.2435350865
-1.231937766 -0.334941119 0.284784615
-1.223951459 -0.3323110342 0.3282346129
-1.231816292 -0.3328311443 -0.3303051591
-1.255155921 -0.3386670649 -0.2901834249
-1.258247018 -0.3392655551 -0.2450615615
-1.265630603 -0.340782553 -0.2009133995
-1.273490191 -0.3424220979 -0.1567805111
-1.247154117 -0.3351073563 -0.1092679128
-1.267479658 -0.3400945365 -0.066572465
-1.259387136 -0.337451905 -0.02205804549
-1.270320535 -0.3429965973 0.02226747572
-1.255492926 -0.3385229409 0.06594444066
-1.258462548 -0.3390880227 0.1103137881
-1.242759705 -0.3343917429 0.1528806984
-1.223839283 -0.3288427293 0.19403027
-1.252913237 -0.336420387 0.2439167053
-1.244392872 -0.3336669803 0.28748402
-1.232568383 -0.3300352991 0.3303051591
-1.249771237 -0.3330055177 -0.3349638879
-1.269512892 -0.3377915323 -0.2933327556
-1.267012954 -0.3368892968 -0.2465880364
-1.268721581 -0.3368698061 -0.2012262642
-1.286190391 -0.34102723 -0.1582429409
-1.263723731 -0.3348342478 -0.1106624082
-1.2725209 -0.3366898298 -0.06678181887
-1.28182447 -0.3386727273 -0.02244199812
-1.259915709 -0.3354730904 0.02205804549
-1.268248081 -0.3372177184 0.066572465
-1.278894305 -0.3398094773 0.1120569035
-1.247756839 -0.3310698271 0.153368175
-1.242165089 -0.3291220963 0.1968460977
-1.257875681 -0.3330498636 0.2446799427
-1.268158078 -0.3352986872 0.2928828597
-1.241184354 -0.3277034461 0.3323757052
-1.267742038 -0.3330588341 -0.3396226466
-1.26502943 -0.3318742216 -0.2919830382
-1.290970087 -0.3384387791 -0.2511674464
-1.27753377 -0.3344398439 -0.2024777383
-1.298896313 -0.3395481706 -0.1597053856
-1.288017273 -0.3364637792 -0.1127541512
-1.27755332 -0.3332543671 -0.06699115783
-1.306220174 -0.3402449489 -0.02286085486
-1.280420661 -0.3361511827 0.02240709402
-1.269417524 -0.3327885866 0.066572465
-1.295491457 -0.3393827975 0.1134513989
-1.258507252 -0.3292242587 0.1545868665
-1.260507464 -0.3292774856 0.1996619105
-1.270428181 -0.3316321969 0.2469696552
-1.276863694 -0.3328360915 0.2946824729
-1.253538013 -0.3262886703 0.3354815245
-1.278247595 -0.331053555 -0.3422108293
-1.279386997 -0.3308718503 -0.2951323688
-1.301647425 -0.33638677 -0.2530755401
-1.288257003 -0.3324462771 -0.2040420771
-1.300073743 -0.3350117505 -0.1597053856
-1.300760508 -0.3349466622 -0.113800019
-1.294183731 -0.3327714801 -0.06782853603
-1.311273694 -0.3366782069 -0.0229306668
-1.297073483 -0.3356877267 0.02268633246
-1.270571351 -0.3283557296 0.066572465
-1.304384708 -0.3368513286 0.1141486466
-1.259648681 -0.3248295188 0.1545868665
-1.255910277 -0.323397696 0.1987233013
-1.286788583 -0.3311097324 0.25002262
-1.261030793 -0.3240123093 0.2906333506
-1.269639254 -0.3257518113 0.3396226466
-1.288754582 -0.3289786875 -0.3447990119
-1.289975882 -0.3288109004 -0.2973818779
-1.293301344 -0.3294181824 -0.2511674464
-1.310468197 -0.3333037198 -0.2074836344
-1.308931231 -0.332426101 -0.1606803238
-1.305784225 -0.3313845992 -0.1141486466
-1.303081751 -0.3302143216 -0.06824722141
-1.312440991 -0.3320986032 -0.0229306668
-1.305988073 -0.3331347406 0.02282595076
-1.287193537 -0.3278624713 0.06740984321
-1.317137599 -0.3352444172 0.1151945144
-1.27424252 -0.3238533437 0.1562930495
-1.26277554 -0.3204697669 0.1996619105
-1.299354672 -0.3295115232 0.2523123026
-1.277266979 -0.3234357238 0.2942325473
-1.27826035 -0.3232122064 0.3416931927
-1.293641925 -0.3254205883 -0.345834285
-1.319466233 -0.3314271271 -0.3041304052
-1.305868626 -0.3277690411 -0.2534571886
-1.313539982 -0.3292075396 -0.207796514
-1.32163775 -0.3307468295 -0.1621427685
-1.310798645 -0.327791214 -0.1144972667
-1.323603868 -0.3305025697 -0.06929393858
-1.325233936 -0.3304179013 -0.02314009517
-1.314900279 -0.330524236 0.02296557091
-1.307701945 -0.3282291889 0.06845656037
-1.31829977 -0.330644995 0.1151945144
-1.292695761 -0.3237433434 0.1584866792
-1.271551967 -0.3179768026 0.2009133995
-1.311925054 -0.3278292716 0.254602015
-1.297295928 -0.3236929774 0.2987315953
-1.283129692 -0.3196825683 0.3427284658
-1.300339103 -0.3225241005 -0.3473872244
-1.324341297 -0.3279867172 -0.3050302267
-1.326005936 -0.3281533718 -0.2572733462
-1.316542029 -0.3253236711 -0.2081093788
-1.342000246 -0.3311175406 -0.1645801514
-1.323485255 -0.3263042271 -0.1155431271
-1.332450032 -0.3280211985 -0.0697126314
-1.341857433 -0.3298400342 -0.02341933362
-1.312107325 -0.3251999021 0.0228957627
-1.324293256 -0.327729553 0.06929393858
-1.330993652 -0.3291412294 0.1162403747
-1.301470995 -0.3213585615 0.1594616324
-1.289860964 -0.3180141747 0.2037292123
-1.309192538 -0.3225376904 0.2538387775
-1.305931449 -0.3212511241 0.3005311787
-1.29168725 -0.3172690272 0.3447990119
-1.314593673 -0.3211930394 -0.3510106802
-1.31979847 -0.3219762444 -0.3036805093
-1.342402339 -0.3272424936 -0.2603262961
-1.331104875 -0.3239962757 -0.2102994472
-1.350863695 -0.3283062279 -0.1655551195
-1.340105057 -0.3254438341 -0.1169376224
-1.337468982 -0.3243093491 -0.06992197037
-1.366323233 -0.3308006525 -0.02383819036
-1.324890137 -0.3234634399 0.02310519107
-1.325429201 -0.3231048584 0.06929393858
-1.347620845 -0.3282654285 0.1176348701
-1.300655961 -0.31634444 0.159217909
-1.30823946 -0.3177052736 0.20654504
-1.329389095 -0.3225958049 0.2576549649
-1.314620614 -0.3185261786 0.302330792
-1.311563611 -0.3173008263 0.3499754071
-1.334489226 -0.3211216033 -0.3561870754
-1.33228302 -0.3200991452 -0.3063799143
-1.351172566 -0.3243878484 -0.261852771
-1.349516273 -0.3234924078 -0.2131152749
-1.350070953 -0.3231267631 -0.1653113812
-1.35673511 -0.3244714141 -0.1183321178
-1.342478275 -0.3205664456 -0.07013131678
-1.361634016 -0.3246382773 -0.02373347618
-1.34156549 -0.3225767016 0.02338442951
-1.330433249 -0.3194087744 0.06950328499
-1.364257812 -0.3272775412 0.1190293655
-1.31719625 -0.3155015409 0.1611678153
-1.311261654 -0.3135961592 0.2068579048
-1.341964006 -0.3206912577 0.2599446774
-1.319515705 -0.3148395717 0.3032306135
-1.327697396 -0.3163022697 0.3541164994
-1.343121171 -0.3182429969 -0.3582576215
-1.356149077 -0.3208299577 -0.311778754
-1.356117845 -0.3205726445 -0.2626160085
-1.364095211 -0.3219557405 -0.2153053731
-1.362783551 -0.3211443722 -0.166773811
-1.35979867 -0.3201901317 -0.1185064316
-1.366919875 -0.3213637769 -0.07138738036
-1.366652369 -0.320797205 -0.02380328625
-1.358250499 -0.3215777576 0.0236636661
-1.347089529 -0.3184384406 0.07034065574
-1.373147964 -0.3243457079 0.1197266057
-1.327950001 -0.3131800294 0.1623865068
-1.318116784 -0.3103753328 0.207796514
-1.358363867 -0.319602102 0.2629976273
-1.331989169 -0.3129058778 0.3059300184
-1.328793406 -0.3116654754 0.3541164994
-1.346105218 -0.3139918149 -0.3587752581
-1.366750479 -0.3183042109 -0.3140282631
-1.372525692 -0.3193970323 -0.2656689286
-1.3729074 -0.318980366 -0.2165568471
-1.385167599 -0.3213193417 -0.1694549322
-1.366730809 -0.3167912066 -0.1190293655
-1.375816822 -0.3183912337 -0.07180606574
-1.379454017 -0.3187260926 -0.02401271462
-1.371049762 -0.3195580542 0.02387309633
-1.367645502 -0.3182613552 0.07138738036
-1.378153086 -0.3204526603 0.1200752333
-1.352239132 -0.3139299452 0.1653113812
-1.330738187 -0.3084485531 0.2096737176
-1.367121696 -0.3166307509 0.2645241022
-1.348262429 -0.3117667139 0.3095292449
-1.337402582 -0.3087638021 0.3561870754
-1.354724526 -0.3110201657 -0.3608458042
-1.365953803 -0.3130963445 -0.3135783672
-1.388942003 -0.3181104064 -0.2687218785
-1.374012351 -0.3141863644 -0.2165568471
-1.394021869 -0.3182494938 -0.1704298854
-1.383368134 -0.3155636191 -0.1204238534
-1.388604283 -0.3162478507 -0.07243409753
-1.398107529 -0.3178988993 -0.02432685718
-1.364360571 -0.3129814267 0.02373347618
-1.384323001 -0.3170525134 0.07222475111
-1.394800782 -0.3191957176 0.1214697212
-1.349456191 -0.3083234429 0.1648238897
-1.347214103 -0.3073164225 0.2121766806
-1.364390373 -0.3109837174 0.2637608349
-1.364543676 -0.3105176687 0.3131284416
-1.346007466 -0.3058054447 0.3582576215
-1.370876908 -0.309694916 -0.3649868965
-1.376543283 -0.3104700744 -0.3158278763
-1.409196258 -0.3175759315 -0.2725380659
-1.394372821 -0.3137242794 -0.2196855247
-1.402871609 -0.3151220679 -0.1714048386
-1.392237425 -0.3124780953 -0.1211211011
-1.381904006 -0.3096518815 -0.07201541215
-1.412813783 -0.3163194656 -0.02457119152
-1.384950995 -0.3126203716 0.0240825247
-1.393160105 -0.3142178655 0.07264344394
-1.411456108 -0.3178267479 0.1228642166
-1.356334567 -0.3049169183 0.1655551195
-1.361717105 -0.3058776855 0.2143667489
-1.384624362 -0.3105152547 0.2675770521
-1.369422674 -0.3066044748 0.3140282631
-1.369637132 -0.3064011633 0.36446926
-1.383264661 -0.3074224591 -0.3680927455
-1.392784476 -0.3092831075 -0.319427073
-1.414129615 -0.3135051429 -0.2733013034
-1.410834312 -0.3125162721 -0.2221884727
-1.407785416 -0.3113254607 -0.1718923151
-1.412775159 -0.3119113743 -0.1228642166
-1.402426839 -0.3093700111 -0.07306212932
-1.421720982 -0.3131058812 -0.02471081167
-1.401596665 -0.3114966452 0.02436176315
-1.394248486 -0.3093529046 0.07264344394
-1.432009339 -0.3172068 0.1246073395
-1.370905399 -0.3034205735 0.1672612727
-1.368563175 -0.3024011254 0.2153053731
-1.406734347 -0.3105776906 0.2717748284
-1.374237895 -0.3029004633 0.3149280548
-1.382018685 -0.3041093349 0.3675750792
-1.391825318 -0.3044850826 -0.3701632917
-1.409086466 -0.3077459037 -0.3230262995
-1.41516149 -0.3088139296 -0.2733013034
-1.427357554 -0.3109534681 -0.2246914208
-1.418562174 -0.3085187674 -0.1731110066
-1.421589375 -0.3089173138 -0.1235614568
-1.41911304 -0.3078605235 -0.07389950752
-1.41694212 -0.3068714142 -0.02460609563
-1.418303847 -0.3100183308 0.0246410016
-1.407027721 -0.3070390224 0.07327146828
-1.43694675 -0.3133051693 0.1249559522
-1.381654739 -0.3007440567 0.1684799641
-1.365749717 -0.2967831194 0.2146796137
-1.425076962 -0.3094143867 0.2752093971
-1.390522957 -0.3014041483 0.3185272813
-1.390624404 -0.3009179533 0.3696456254
-1.400434136 -0.3012498617 -0.3722338378
-1.42158401 -0.3052806556 -0.3257257044
-1.431587338 -0.3071671724 -0.2763542533
-1.440023899 -0.3084512055 -0.2265686542
-1.44486618 -0.3089613914 -0.1762796044
-1.422659159 -0.3039527833 -0.1235614568
-1.439712286 -0.3070711493 -0.07494622469
-1.441474795 -0.3069210947 -0.02502495423
-1.435017943 -0.3084272146 0.02492024004
-1.4276191 -0.3063157201 0.0743181929
-1.436083436 -0.3078697026 0.1247816384
-1.402107358 -0.3000740111 0.1709173769
-1.393822312 -0.297791779 0.2190597802
-1.43190825 -0.3056679368 0.2763542533
-1.406814218 -0.2997974157 0.322126478
-1.39922452 -0.2976698577 0.3717162013
-1.412817597 -0.2987576425 -0.3753396869
-1.426454425 -0.3011211753 -0.3266254961
-1.455702901 -0.3070300817 -0.2809336483
-1.437225699 -0.3026090264 -0.2259429097
-1.46147716 -0.3071828485 -0.1782295257
-1.443210006 -0.3030800223 -0.1253045648
-1.44859457 -0.3036825359 -0.07536491752
-1.448409319 -0.3031162918 -0.02512966841
-1.439998746 -0.3042432368 0.02499005012
-1.444313884 -0.304627955 0.07515556365
-1.446897149 -0.3049094677 0.1256531924
-1.414801717 -0.2976298034 0.1723797917
-1.402586222 -0.2945488393 0.2203112692
-1.432966471 -0.3006677032 0.2763542533
-1.426925659 -0.2988802791 0.3266254961
-1.411601067 -0.2951557636 0.3748220503
-1.428983331 -0.2969690561 -0.3794807494
-1.438945413 -0.2985151112 -0.3293249011
-1.46061039 -0.3027440906 -0.2816969156
-1.453748345 -0.3007922471 -0.2284458578
-1.468372703 -0.3032836914 -0.1789607406
-1.459869385 -0.301261723 -0.1266990602
-1.449645638 -0.2986244559 -0.07536491752
-1.467086911 -0.3016835451 -0.02544381097
-1.456715345 -0.3024671078 0.02526928857
-1.453191042 -0.3012062609 0.07557425648
-1.467462778 -0.3038969338 0.1273963153
-1.415831923 -0.2926897109 0.1723797917
-1.424886584 -0.2940426171 0.2237528265
-1.453235388 -0.2996283174 0.2801704407
-1.435595155 -0.2954688966 0.3284251094
-1.433438063 -0.2945034504 0.3805160522
-1.445153594 -0.2950708866 -0.3836218715
-1.447616577 -0.295047462 -0.3311245143
-1.477048397 -0.3007776737 -0.2847498357
-1.472211599 -0.2992572188 -0.2312616855
-1.473313332 -0.2989456952 -0.1794482172
-1.474580884 -0.2989349663 -0.1279192567
-1.470255017 -0.2975237668 -0.07641163468
-1.483811975 -0.2997280955 -0.02572305128
-1.459721804 -0.2977797091 0.02530419454
-1.458147883 -0.2969288826 0.07578360289
-1.48413372 -0.3019503951 0.1287908107
-1.432408094 -0.2909064293 0.174329713
-1.433648109 -0.2906368673 0.2250042856
-1.469665885 -0.2976715565 0.2832233608
-1.444258213 -0.2920006216 0.3302247226
-1.449606895 -0.2925553918 0.3846571743
-1.465116262 -0.2938227952 -0.3887982368
-1.467746019 -0.2938176692 -0.3356235325
-1.485789895 -0.2971597016 -0.2862763107
-1.498430252 -0.2991442382 -0.2353289872
-1.487975597 -0.2965167165 -0.1811544001
-1.489293456 -0.2965094447 -0.1291394234
-1.486956239 -0.2955042124 -0.07724901289
-1.480926275 -0.2937685847 -0.0256532412
-1.4783988 -0.2962185144 0.02561833523
-1.474843264 -0.2949703336 0.07662097365
-1.494947553 -0.2987199128 0.1296623647
-1.460669398 -0.2913403213 0.1777420491
-1.438528538 -0.2864024937 0.2256300449
-1.489951491 -0.2963697612 0.2870395482
-1.452914357 -0.2884758115 0.3320243359
-1.458199024 -0.288995713 0.3867276907
-1.462342024 -0.2879606187 -0.3877629936
-1.48405993 -0.2916991711 -0.339222759
-1.488744617 -0.2923497558 -0.2866579294
-1.503342271 -0.2946714461 -0.2359547168
-1.508482933 -0.2951327264 -0.183591783
-1.49423039 -0.2920731008 -0.1294880509
-1.511502147 -0.2949018478 -0.07850506902
-1.501570821 -0.2924197912 -0.02600228973
-1.497082472 -0.2945302129 0.02593247965
-1.49546206 -0.293668896 0.07766769081
-1.49793613 -0.2938836217 0.1298366785
-1.47726202 -0.2892917097 0.1796919554
-1.455029249 -0.2844105661 0.228132993
-1.49097693 -0.291166991 0.2870395482
-1.484516382 -0.2893674672 0.339222759
-1.459198952 -0.2839041948 0.3867276907
-1.47471869 -0.2850540578 -0.3908688128
-1.500376821 -0.289470017 -0.3428219855
-1.516744614 -0.2923537195 -0.2920005918
-1.512120962 -0.2909147441 -0.2372061908
-1.532897711 -0.2943575084 -0.1865166277
-1.514807701 -0.2906092703 -0.1312311739
-1.520368934 -0.291125983 -0.07892375439
-1.52222383 -0.2909308076 -0.02635133825
-1.498101592 -0.2893025875 0.02593247965
-1.516089797 -0.2922274768 0.07871441543
-1.514604449 -0.2916670144 0.1312311739
-1.4860605 -0.2856324315 0.1806669086
-1.473473072 -0.2826794088 0.2309488207
-1.495840311 -0.2867001593 0.2878027856
-1.497001529 -0.2863806784 0.341922164
-1.482951999 -0.2831564546 0.3929393589
-1.498480916 -0.2842246294 -0.3970804811
-1.49754858 -0.283506304 -0.341922164
-1.533188462 -0.2899762392 -0.2950535417
-1.520891547 -0.2871006727 -0.2384576648
-1.545620561 -0.2912097573 -0.1879790723
-1.531476974 -0.2882685959 -0.1326256692
-1.513524175 -0.2843420208 -0.07850506902
-1.542884469 -0.2893007398 -0.02670038491
-1.512855291 -0.2866779566 0.02617681399
-1.517100573 -0.2869335115 0.07871441543
-1.533233285 -0.2897071838 0.1327999681
-1.490949988 -0.2811791003 0.1811544001
-1.505511284 -0.2833811045 0.2359547168
-1.508408666 -0.2836538851 0.2900924981
-1.505653262 -0.2825916409 0.3437217772
-1.495324254 -0.2801123857 0.3960451782
-1.522254944 -0.2832330763 -0.4032921195
-1.51768887 -0.281835109 -0.3464211822
-1.545773268 -0.2867712677 -0.2973432243
-1.541308045 -0.2853864431 -0.2415863574
-1.546627641 -0.2858130932 -0.1879790723
-1.552066684 -0.2865381241 -0.1343687773
-1.530220985 -0.2819527388 -0.07934244722
-1.551751971 -0.2853595912 -0.02684000507
-1.535473108 -0.2854148149 0.02656076662
-1.529875398 -0.2838219404 0.07934244722
-1.553825259 -0.2879846096 0.1345430911
-1.503634214 -0.2781394124 0.182616815
-1.494836092 -0.2759723663 0.2340774983
-1.528696418 -0.2819473147 0.2939086556
-1.514296651 -0.2787453234 0.3455213904
-1.515293598 -0.2783820629 0.4012215734
-1.532737017 -0.2796510458 -0.405880332
-1.54550457 -0.2814231515 -0.3527198434
-1.550627947 -0.282076478 -0.2981064916
-1.561730862 -0.2835331261 -0.2447150499
-1.567099214 -0.2842252553 -0.1904164553
-1.556978464 -0.2818283141 -0.1347173899
-1.55674684 -0.2812252641 -0.08070318401
-1.556625366 -0.2809228003 -0.02690981328
-1.558100104 -0.2839976251 0.02694471925
-1.546527982 -0.2816095054 0.08017982543
-1.558741689 -0.2832714319 0.1348917037
-1.522174954 -0.2760773301 0.1848104745
-1.517124057 -0.2748877704 0.2375190556
-1.552854419 -0.2808019519 0.2984880805
-1.530554295 -0.276493609 0.3491206169
-1.525714397 -0.2750693858 0.4038097858
-1.531754017 -0.2742265761 -0.4053626657
-1.561776161 -0.2790384293 -0.3563190401
-1.574747324 -0.2810727656 -0.3026858866
-1.576275826 -0.2807775438 -0.2469051331
-1.587576985 -0.2825047076 -0.1928538531
-1.555942774 -0.2763152122 -0.1345430911
-1.579303622 -0.2798952162 -0.08185457438
-1.569362998 -0.2778509855 -0.02711924352
-1.572812676 -0.281293571 0.02718905173
-1.57104671 -0.2806947827 0.08143588156
-1.571441293 -0.2801993191 0.1359375864
-1.566078782 -0.2786791623 0.1901727319
-1.519972086 -0.2702009678 0.2378319204
-1.557643294 -0.2763368189 0.2992513478
-1.554488778 -0.2754973769 0.3545194268
-1.532325029 -0.2710177302 0.4053626657
-1.555487871 -0.2731551826 -0.4115743339
-1.574209809 -0.2758761346 -0.3590184748
-1.587273836 -0.2778804302 -0.3049755991
-1.577198267 -0.2755488157 -0.2469051331
-1.604198217 -0.2796888947 -0.1948037595
-1.582415462 -0.2753224075 -0.1368091404
-1.595965147 -0.2773925364 -0.08269194514
-1.597907186 -0.2771555483 -0.02760791034
-1.569797635 -0.2753852606 0.02711924352
-1.58775568 -0.2779647708 0.08227325976
-1.584137321 -0.2770460248 0.1369834393
-1.559172034 -0.2721194327 0.1891977638
-1.536474705 -0.2676051557 0.2403348833
-1.568222046 -0.2728529274 0.3011594415
-1.570801139 -0.2727364302 0.3581186533
-1.548489809 -0.2683057785 0.4095037878
-1.581230044 -0.2717048526 -0.4183036387
-1.582845688 -0.2716984749 -0.3608180583
-1.607632399 -0.2753751278 -0.3087917864
-1.59961617 -0.2734273374 -0.2503466606
-1.616905332 -0.2760922015 -0.1962661892
-1.610864162 -0.2744820416 -0.1392495036
-1.602877975 -0.2725459337 -0.08300595731
-1.61463654 -0.2742549777 -0.02788715065
-1.594398856 -0.2739676833 0.02753810026
-1.592653155 -0.2730958164 0.08248259872
-1.604780555 -0.2745987177 0.1387265623
-1.573809505 -0.2690161169 0.1909039319
-1.55687201 -0.2655620575 0.2434635609
-1.59050107 -0.270726651 0.3053572178
-1.579475164 -0.2682825923 0.3599182665
-1.570367813 -0.2664537132 0.4151977897
-1.593599319 -0.2681070864 -0.4214094579
-1.599205732 -0.2684759498 -0.3644172847
-1.627946019 -0.2730091512 -0.312607944
-1.614198923 -0.2701241374 -0.2525367737
-1.621822357 -0.2708183527 -0.1967536658
-1.633477449 -0.2721785307 -0.1411669254
-1.609730124 -0.2679325044 -0.08331997693
-1.627466917 -0.270301342 -0.02809657902
-1.615112662 -0.2714366615 0.02788715065
-1.601522565 -0.2685779035 0.08290129155
-1.633239388 -0.2736038566 0.1411669254
-1.572826982 -0.2629190683 0.1906601936
-1.583164692 -0.2640787661 0.2475308627
-1.610801816 -0.2684002221 0.3091734052
-1.584246635 -0.2634067535 0.3608180583
-1.588486075 -0.2635419071 0.4198565483
-1.606008649 -0.2641451955 -0.4245152771
-1.619362593 -0.2660517097 -0.3689163029
-1.628935695 -0.2670401931 -0.312607944
-1.63662219 -0.267714113 -0.2559783161
-1.638430715 -0.2677159607 -0.1987035722
-1.638350606 -0.267116189 -0.141515553
-1.646185398 -0.2678037584 -0.0852040723
-1.636295795 -0.2659017742 -0.02823619731
-1.639728665 -0.2696911991 0.02830600739
-1.622159243 -0.2662203908 0.08394800872
-1.64602828 -0.2695477009 0.1422127783
-1.616834402 -0.2644772828 0.1960224509
-1.574329019 -0.2569601834 0.245966509
-1.627276659 -0.2650187612 0.3122263551
-1.604436517 -0.2607245743 0.3653171062
-1.600837708 -0.2598525882 0.4229623973
-1.616366625 -0.2606364191 -0.4271034598
-1.647171974 -0.2650139034 -0.3752149343
-1.653027177 -0.2656599879 -0.3171873689
-1.649157882 -0.2644476891 -0.2578555346
-1.658911109 -0.2654173374 -0.2011409551
-1.643116474 -0.2625966072 -0.1418641657
-1.668714404 -0.2660898566 -0.08635546267
-1.656916976 -0.2636160553 -0.02858524583
-1.648511052 -0.2655244768 0.02844562568
-1.646696568 -0.2646425962 0.0852040723
-1.650801539 -0.2650067806 0.1425614059
-1.621622682 -0.2597420812 0.1965099275
-1.598580003 -0.2554789484 0.249720946
-1.643610835 -0.2623814344 0.315279305
-1.628341436 -0.2593610883 0.3707159162
-1.61313796 -0.2563617826 0.4260682166
-1.634441018 -0.2577005029 -0.4317622185
-1.655787349 -0.2604738772 -0.3770145476
-1.673339009 -0.262935698 -0.3210035563
-1.659828663 -0.2602191567 -0.2594198585
-1.679440022 -0.2626931667 -0.2035783529
-1.679456234 -0.2623954117 -0.1450017691
-1.675553322 -0.2611865401 -0.08666948229
-1.68549037 -0.2621325552 -0.02907391265
-1.653378367 -0.2603906095 0.02851543576
-1.67128706 -0.2626132369 0.08646013588
-1.671399474 -0.262332052 0.1443045288
-1.646053791 -0.2577652931 0.199434787
-1.617027283 -0.2526416183 0.2525367737
-1.648396373 -0.2572479546 0.3160425127
-1.648492336 -0.2566735744 0.3752149343
-1.627385736 -0.2528050542 0.4296916425
-1.667788982 -0.2569956481 -0.4405620694
-1.658612609 -0.2549885809 -0.3774644434
-1.697532654 -0.2606691718 -0.3255829513
-1.682205439 -0.2577141523 -0.2628614306
-1.699969649 -0.2598283887 -0.2060157359
-1.696163654 -0.2586408257 -0.1463962644
-1.684352875 -0.2565390468 -0.08708816767
-1.710119247 -0.2598523498 -0.02949277125
-1.670088649 -0.2570512295 0.0287946742
-1.684038162 -0.2585969865 0.08708816767
-1.695937395 -0.2601208091 0.1463962644
-1.656754851 -0.2535192072 0.2006534785
-1.653048754 -0.2523616254 0.2581683993
-1.666751623 -0.2541559041 0.3194770813
-1.66479075 -0.253262341 0.3788141608
-1.643537998 -0.2494422793 0.4338327646
-1.693554759 -0.2546145022 -0.4472913742
-1.682618141 -0.2526703775 -0.3828632832
-1.710126162 -0.2561904192 -0.3278726935
-1.706582785 -0.25505054 -0.2666158378
-1.716573 -0.2562373281 -0.2079656422
-1.716762781 -0.2556531131 -0.1481393874
-1.705037594 -0.2532983422 -0.08813488483
-1.7209059 -0.255349189 -0.02966729552
-1.698660254 -0.2553820908 0.02928334102
-1.688880801 -0.2533090413 0.08729750663
-1.720524669 -0.2574415803 0.148488
-1.673336029 -0.2500817776 0.2026033998
-1.665642381 -0.2483380288 0.2600456178
-1.698742151 -0.252666533 0.3255829513
-1.663780212 -0.2468728423 0.378364265
-1.671152472 -0.2476686686 0.441079706
-1.709724307 -0.2509460747 -0.4514324963
-1.710527539 -0.2504536808 -0.3891619146
