# .PCD v0.7 - Point Cloud Data file format
VERSION 0.7
FIELDS x y z
SIZE 4 4 4
TYPE F F F
COUNT 1 1 1
WIDTH 1229
HEIGHT 1
VIEWPOINT 0 0 0 1 0 0 0
POINTS 1229
DATA ascii
3.377564907 0.4620690048 -0.4134373963
3.354310274 0.4576950073 -0.2924692929
3.364441395 0.4578796029 -0.1757452786
3.352670908 0.4556834102 -0.05835904926
3.316132784 0.4572027326 0.05773076415
3.241123199 0.4457082152 0.1692556292
3.288772345 0.4516759813 0.2867170274
3.287014961 0.4502657056 0.402225405
3.277365208 0.4477769136 0.5172238946
3.267649412 0.4452892244 0.6327854395
3.261589289 0.4438820779 0.7499834299
3.24377656 0.4403063357 0.8655429482
2.740833521 0.3681396544 -0.7294041514
3.106061459 0.4160921872 -0.7135413885
3.414671421 0.4568273425 -0.6614068151
3.406027317 0.4544608593 -0.5375604033
3.404737473 0.4536839426 -0.4166059792
3.383537769 0.449657172 -0.294909656
3.37393856 0.4471847117 -0.1761639714
3.374065638 0.4466007352 -0.05870809779
3.341569662 0.4482364655 0.05814962462
3.268393517 0.4378384054 0.1706163585
3.318053246 0.4433135986 0.2891573608
3.300449133 0.4397874475 0.4036878347
3.298489571 0.4389421046 0.5203526616
3.273076057 0.4343960285 0.633548677
3.288232565 0.4358251691 0.7558321357
3.260615826 0.4310051799 0.8696841002
2.749701023 0.3600538075 -0.731474638
3.091965199 0.4037716985 -0.709942162
3.427848101 0.4470236897 -0.6636965275
3.434940338 0.4467309415 -0.5419405699
3.416066408 0.4436683953 -0.4178246856
3.408720732 0.441506207 -0.2970013618
3.385307074 0.4372722208 -0.17668733
3.39932704 0.4384799898 -0.05912695825
3.362865925 0.4397448599 0.05849866942
3.273788214 0.4275155067 0.1708257049
3.329383612 0.4335936606 0.2900289297
3.30385828 0.429095149 0.4039315581
3.319516659 0.4305413365 0.5234813094
3.297863245 0.426560849 0.6381281018
3.293525219 0.4254169762 0.7567319274
3.288851261 0.4236446321 0.8769309521
2.75854516 0.3519106209 -0.7335452437
3.112619162 0.3959746063 -0.7144411802
3.435230494 0.4357991517 -0.6648413539
3.45208025 0.4373228848 -0.5444434881
3.421532869 0.4322413206 -0.4183121622
3.430009127 0.4320942163 -0.2987444997
3.408611298 0.4281900525 -0.1778387129
3.41075778 0.4278550744 -0.05930148065
3.388109684 0.4316239059 0.05891752616
3.291111469 0.418099612 0.1716630906
3.348592281 0.424808085 0.291597724
3.332834244 0.4216270149 0.4073438942
3.330798864 0.420186758 0.5250456929
3.31491518 0.4170092046 0.6411810517
3.298857212 0.4144027233 0.7576317191
3.305644751 0.4140850008 0.881072104
2.750230551 0.3406097293 -0.7309570909
3.114049435 0.3845643103 -0.7144411802
3.440701723 0.4236861169 -0.6656045914
3.473266125 0.4270790517 -0.5475721955
3.454619408 0.4235638976 -0.4222119749
3.443435669 0.4209711254 -0.2997903526
3.426018476 0.4176281393 -0.1786760986
3.426198244 0.4170432389 -0.05954581499
3.403560877 0.4209217429 0.0591618605
3.298568487 0.4067667425 0.1719770879
3.35803628 0.4135067463 0.2922949791
3.358000994 0.4123109579 0.4102687836
3.340158939 0.4089368582 0.526297152
3.343703985 0.4081879556 0.6465236545
3.32937026 0.4058468342 0.7643802762
3.326317787 0.4042948782 0.8862484694
2.749542236 0.3302975297 -0.7304394245
3.127047539 0.3745393753 -0.717140615
3.469523191 0.4143291116 -0.6709472537
3.480692387 0.41504848 -0.5485107899
3.477832079 0.4134745896 -0.4248930812
3.464740515 0.4106934667 -0.3015334904
3.455294371 0.4083508253 -0.1801415086
3.437633514 0.4056552947 -0.05972033739
3.426920891 0.4110614955 0.05954581499
3.327800989 0.3979953825 0.1734425128
3.359529495 0.4011937082 0.2922949791
3.383143663 0.4028176665 0.4131936431
3.36713624 0.3997198045 0.5303644538
3.356875658 0.3973120153 0.6488133669
3.355993748 0.3966153264 0.770228982
3.339288712 0.3934577107 0.8893542886
2.750734329 0.3202183545 -0.7304394245
3.116784573 0.3617269099 -0.7144411802
3.500272036 0.4049953818 -0.676671505
3.499851227 0.4043277502 -0.5513266325
3.499044657 0.4029969871 -0.4273304641
3.484037399 0.4000363946 -0.3031022847
3.460736752 0.3961371779 -0.180350855
3.470885277 0.396685183 -0.06027881801
3.434363604 0.3991918564 0.05965052918
3.355028868 0.3887851834 0.1748032421
3.376810789 0.3907104433 0.2936894596
3.386569262 0.3906432986 0.4134373963
3.382315636 0.3889548182 0.5325545073
3.362210274 0.3854537308 0.6495766044
3.372913837 0.3860844374 0.7738282084
3.356063604 0.3829689324 0.8934954405
2.759350777 0.3129253387 -0.7325099707
3.106225491 0.3511646986 -0.7117417455
3.528701782 0.3983027041 -0.6820141673
3.518702269 0.3959302604 -0.5541424751
3.508115768 0.3934974074 -0.4283054471
3.50296092 0.3923018575 -0.3046710789
3.477708817 0.388243109 -0.1811882257
3.483971834 0.3877127767 -0.06048824638
3.463350534 0.3921505213 0.06013919413
3.37204504 0.3806200624 0.1756406128
3.395773888 0.3826966286 0.2952582538
3.403494835 0.3823654056 0.4153872728
3.41486454 0.3824357986 0.5375604033
3.388637543 0.3788998127 0.6545376778
3.38566494 0.3773709536 0.7765276432
3.380225658 0.3755685687 0.8997070789
2.768107414 0.304136008 -0.7345805168
3.119055748 0.3415918946 -0.7144411802
3.539828539 0.3870505095 -0.6839222312
3.539700508 0.3857845664 -0.5572711229
3.527229309 0.3831796348 -0.4304990768
3.526097536 0.3824340701 -0.3065885305
3.502871037 0.3786779642 -0.1824442893
3.509161949 0.3781189024 -0.06090710312
3.480600595 0.3818039 0.06041843444
3.379309416 0.3694990873 0.175954625
3.428779125 0.3743026555 0.2980472445
3.420596123 0.3722012639 0.4173371792
3.425997972 0.3715774715 0.5391247272
3.417265892 0.3700269759 0.6598803401
3.385024071 0.3653404415 0.7760777473
3.396882296 0.3654208481 0.9038481712
2.761468172 0.2936537862 -0.7325099707
3.124104738 0.3311137259 -0.7153409719
3.545128107 0.3744853735 -0.6846854687
3.566563606 0.3761202991 -0.5613384247
3.550261736 0.3731482327 -0.433180213
3.539364815 0.3707538843 -0.3076343834
3.539991856 0.3695704639 -0.1843283772
3.518415928 0.3666972518 -0.06104671955
3.501797438 0.3717621565 0.06076748297
3.402426481 0.360011667 0.1771060228
3.437990427 0.3631680012 0.2987444997
3.445565224 0.3627521098 0.4202620685
3.442991018 0.3612660766 0.5416277051
3.440077305 0.3597464561 0.6640781164
3.430857658 0.3581769764 0.7864254713
3.409666061 0.3547615409 0.9069540501
2.754838705 0.2827421725 -0.7304394245
3.125297308 0.3196602762 -0.7153409719
3.571867704 0.3640764356 -0.6896465421
3.577744722 0.3640446067 -0.5629028082
3.573330402 0.3623353541 -0.4358613491
3.556558132 0.3593822122 -0.3090288639
3.557220459 0.3581931293 -0.1851657629
3.539633036 0.3557999134 -0.06139576808
3.513082743 0.3599448204 0.06094200537
3.431540251 0.3503797948 0.1785714328
3.441280365 0.3507658243 0.2989188135
3.470570326 0.3525290787 0.423186928
3.465910673 0.3508319259 0.5450692773
3.449186563 0.347922802 0.6656045914
3.441842079 0.3465751708 0.7886750102
3.422476292 0.343418479 0.9100598097
2.755856514 0.2726425827 -0.7304394245
3.110933065 0.3066745996 -0.7117417455
3.58093214 0.3523759246 -0.691173017
3.592816591 0.3522792161 -0.5650929213
3.594390869 0.3511669636 -0.438298732
3.57365489 0.3485114276 -0.3104233742
3.574352026 0.3473199904 -0.1860031337
3.564798117 0.3451356888 -0.06181462854
3.526318789 0.3482445478 0.06115143746
3.454665422 0.3399508297 0.1797228158
3.446508408 0.3385408223 0.299267441
3.475790501 0.3401922584 0.4236744046
3.478969574 0.3392775059 0.546946466
3.460150003 0.3368325531 0.6675127149
3.476063013 0.3371568918 0.796323359
3.435249329 0.3319879174 0.9131656885
2.76063776 0.2633887529 -0.731474638
3.119744778 0.2965503633 -0.7135413885
3.582140207 0.3398747444 -0.691173017
3.623523474 0.3425233364 -0.5697859526
3.611405849 0.3401060998 -0.4402486384
3.606588125 0.3390173912 -0.3132123649
3.587474346 0.3359574974 -0.1866311729
3.597837925 0.335662961 -0.06237310171
3.553391933 0.3383968771 0.06160520017
3.463784456 0.3286450803 0.1801415086
3.469488144 0.3285736144 0.3011848629
3.496720076 0.3299228549 0.4261117876
3.511600256 0.3300885558 0.5519523621
3.482806206 0.3267704248 0.6717104912
3.483039379 0.3255642653 0.7976730466
3.472934484 0.3233969808 0.9230008125
2.773082972 0.2548105717 -0.7345805168
3.116879463 0.2853039801 -0.7126415372
3.579394579 0.3270104527 -0.6904097199
3.654205799 0.3325590491 -0.5744789839
3.630363941 0.3291116655 -0.4424422681
3.639497995 0.3292993009 -0.3160013556
3.612495184 0.3255849183 -0.1878872365
3.610938072 0.3241739869 -0.06258253008
3.586412668 0.3289156556 0.06216367334
3.476844311 0.3176415265 0.1807695329
3.478550196 0.3171869218 0.301882118
3.523550749 0.3200484812 0.4292804003
3.522567272 0.3187195063 0.5535167456
3.51129961 0.3170822263 0.6770531535
3.497741222 0.3146270514 0.8008223772
3.497132063 0.3133400977 0.929212451
2.770106554 0.2447896451 -0.7335452437
3.121739149 0.2747631967 -0.7135413885
3.576602697 0.3141712248 -0.6896465421
3.671087265 0.3211778104 -0.5769819021
3.635445595 0.3167826831 -0.4429297447
3.65054965 0.3174551725 -0.3168728948
3.641466856 0.3153864443 -0.1893526316
3.624001265 0.3125993609 -0.0627919659
3.615426302 0.3188532293 0.06265234202
3.501807213 0.307601124 0.1820256114
3.4836061 0.3053896725 0.3022307456
3.542444706 0.3093017936 0.4314740598
3.533498287 0.3072762787 0.5550810695
3.53585577 0.3068612516 0.6816325188
3.516291618 0.303925097 0.8048714995
3.517451525 0.3027901649 0.9343888164
2.767094612 0.2347912639 -0.7325099707
3.122679234 0.2638667822 -0.7135413885
3.57963419 0.3018486202 -0.690028131
3.678017616 0.3082053959 -0.4480482638
3.657592058 0.3052099943 -0.3173958361
3.658468962 0.3039955795 -0.1901900023
3.652917624 0.3028941453 -0.06328062713
3.628473043 0.3072424829 0.06286177039
3.526690006 0.2980057299 0.1832816601
3.482665539 0.2930597365 0.302056402
3.569218874 0.2990884483 0.4346426427
3.560088396 0.2976976931 0.5591483712
3.544731379 0.295167625 0.6831590533
3.546410799 0.2946842611 0.811619997
3.52998805 0.2920790315 0.9374946952
2.76785779 0.2256145179 -0.7325099707
3.123537064 0.2535093129 -0.7135413885
3.594313145 0.2910865247 -0.692699492
3.584583759 0.2890392244 -0.5629028082
3.704742432 0.2980773747 -0.4512168765
3.686388493 0.2953056097 -0.3198361993
3.675384521 0.2931312621 -0.191027388
3.677822828 0.2926815748 -0.06369948387
3.637444258 0.2958557904 0.06300138682
3.547565937 0.2879239023 0.1843283772
3.493547678 0.2823106349 0.3029279709
3.591956615 0.2890028059 0.4373237491
3.578777313 0.2873121202 0.5619641542
3.565260887 0.284976244 0.6869751811
3.574564695 0.2850903571 0.8179186583
3.550195217 0.281901449 0.9426710606
2.772442818 0.2167350948 -0.7335452437
3.116588831 0.2425456792 -0.7117417455
3.610917807 0.2803806365 -0.6957524419
3.601278782 0.2783693671 -0.5654057264
3.707739592 0.2852948904 -0.4514606297
3.705226183 0.284452796 -0.3214049935
3.692267895 0.2821598649 -0.1918647587
3.700755358 0.2815092504 -0.06408344209
3.664322615 0.2858159542 0.06345514953
3.564479589 0.2767748237 0.1851657629
3.514328957 0.2722653747 0.3046710789
3.596853971 0.2773941159 0.4378112257
3.609302282 0.2770886421 0.5666572452
3.58967638 0.2749500573 0.691554606
3.594968796 0.2740950286 0.8224176764
3.576199532 0.2714067996 0.9494003654
2.775108576 0.2072018683 -0.7340628505
3.125190258 0.2322421223 -0.7135413885
3.592295408 0.2663237154 -0.6919362545
3.724369764 0.2748082876 -0.5848036408
3.739976883 0.2739911675 -0.3243682981
3.713150263 0.2707228661 -0.1929114759
3.711688042 0.2693120837 -0.06425796449
3.689228296 0.2748048902 0.06387401372
3.583350182 0.2656605542 0.1861078143
3.507310152 0.2594076395 0.3039738536
3.621556759 0.2665866315 0.440736115
3.618127823 0.2650644779 0.5679087043
3.604320526 0.2634205818 0.6942259073
3.601734638 0.2619677186 0.823767364
3.600246906 0.2605962455 0.9556120038
2.777742147 0.1976500601 -0.7345805168
3.125981808 0.2213324308 -0.7135413885
3.589286566 0.2535067797 -0.691173017
3.776539803 0.2654075027 -0.5929382443
3.614588737 0.2527563274 -0.4397611618
3.754823208 0.2619057596 -0.3255884647
3.741967201 0.2596948147 -0.1943769008
3.732554674 0.2577342987 -0.06460700929
3.716095686 0.2637649179 0.06432776898
3.604178667 0.2545585632 0.1871545315
3.545956135 0.2498227507 0.3072857559
3.652168989 0.2560264468 0.4443922043
3.630854607 0.2532587349 0.5697859526
3.632637501 0.2527460158 0.6995685697
3.631788254 0.2514131963 0.8305159211
3.61655283 0.2490884066 0.9597530961
2.766850471 0.1871696711 -0.731474638
3.134512663 0.2109419107 -0.7153409719
3.615614414 0.242684558 -0.6961340308
3.777443409 0.2522222698 -0.5929382443
3.724389076 0.2473740727 -0.4531667829
3.761678457 0.249191463 -0.3261114061
3.774737597 0.2487332672 -0.1960516423
3.753385782 0.2460105419 -0.06495606154
3.720983982 0.2510617673 0.06439758837
3.640915155 0.2443827689 0.1890386194
3.542830467 0.237178117 0.3069371283
3.680770159 0.2451221198 0.4478045106
3.661282301 0.2425407469 0.5744789839
3.65700531 0.2416163832 0.7041479945
3.663756609 0.2407780886 0.8377143741
3.627038956 0.2370935977 0.9623413086
2.779054403 0.1782529503 -0.7345805168
3.135230064 0.1999983191 -0.7153409719
3.602764606 0.2285617292 -0.6934626698
3.790129185 0.2397823483 -0.594815433
3.812401533 0.2398572266 -0.4638912976
3.783597708 0.2353916019 -0.1964703351
3.782163858 0.2346415669 -0.06544473022
3.745784998 0.23960419 0.06481644511
3.667657614 0.2333212793 0.1903993487
3.569485903 0.2264505178 0.3092031777
3.693490505 0.2330230772 0.4492669702
3.697593927 0.2319844812 0.5801106095
3.661785126 0.2284564823 0.704911232
3.685969353 0.2293177694 0.8426632285
3.654838562 0.2261004001 0.9695882201
2.787402391 0.1685329825 -0.7366511226
3.124270439 0.1878048629 -0.7126415372
3.617296219 0.2161743045 -0.6961340308
3.80675745 0.2268300205 -0.5973183513
3.846942663 0.227876991 -0.4680348635
3.634123087 0.2139975578 -0.3147811592
3.796398163 0.2222235352 -0.1970983595
3.802961349 0.2219417393 -0.06579377502
3.770591259 0.2273166627 0.06523530185
3.682444096 0.2207143605 0.1911320686
3.590180397 0.2145538181 0.3109463155
3.70819068 0.2203073502 0.4509731233
3.712222576 0.2192466259 0.582300663
3.690036297 0.2166438103 0.7102538943
3.694566965 0.2162628025 0.8444628716
3.692286253 0.2148361504 0.9794233441
2.791858912 0.1585338563 -0.737686336
3.1366117 0.1770120859 -0.7153409719
3.606268167 0.2028853744 -0.6938443184
3.847009182 0.215082258 -0.6035757661
3.853698254 0.2141069323 -0.4687660635
3.8019526 0.2105664462 -0.3294233382
3.817093134 0.2100667655 -0.1981450766
3.817726135 0.2087650299 -0.06603810936
3.793360472 0.2147392929 0.06561925262
3.691204786 0.207663849 0.1915507466
3.620781422 0.2030680031 0.3135609627
3.734739542 0.208149761 0.454141736
3.72878027 0.2065138817 0.5848036408
3.720174074 0.2053842396 0.7159781456
3.708955526 0.2034681141 0.8476122022
3.70655179 0.2020368725 0.9830468297
2.784678459 0.148376897 -0.7356157899
3.133318424 0.1658553332 -0.7144411802
3.610874891 0.1905035377 -0.6946075559
3.883244753 0.2035122514 -0.6092073917
3.882175446 0.2020974606 -0.4721783996
3.88026309 0.2013188899 -0.3362214565
3.636293411 0.187388435 -0.1886199266
3.834408045 0.196257785 -0.06631734967
3.828033686 0.2032985091 0.06621263176
3.717835665 0.1961465776 0.1929114759
3.645344257 0.1916823536 0.3156527281
3.767161608 0.1967711449 0.4580415487
3.739341974 0.194007501 0.5863679647
3.752238512 0.1940218061 0.7220840454
3.738835812 0.1920184791 0.8543606997
3.728457212 0.1901806742 0.9887408614
2.773602962 0.1380785853 -0.7325099707
3.13777113 0.155110091 -0.7153409719
3.60955739 0.1778005213 -0.6942259073
3.899715662 0.1907287538 -0.6117103696
3.902685165 0.1895066649 -0.4746157825
3.654880047 0.1755557209 -0.189561978
3.863001823 0.1848786026 -0.06680601835
3.738414049 0.184801802 0.1939581931
3.657930851 0.1795416325 0.316698581
3.795583725 0.1849718392 0.4614538848
3.771533966 0.1831382215 0.5913738608
3.770541668 0.181772694 0.7255185843
3.764787674 0.1801781952 0.860209465
3.748363972 0.178736493 0.9939172268
2.781787395 0.1287526041 -0.7345805168
3.128534794 0.1442558467 -0.713091433
3.608194828 0.1651090384 -0.6938443184
3.924006462 0.1788759977 -0.615464747
3.937004328 0.1780896038 -0.4787593484
3.9134202 0.1756540537 -0.3390104473
3.894874096 0.1741405129 -0.2021226138
3.66552949 0.1696558297 0.06335043907
3.762978077 0.1728499383 0.1952142566
3.69436121 0.168407619 0.3198361993
3.80410862 0.1727433652 0.4624288678
3.807670593 0.1715751737 0.5970055461
3.782891512 0.1697952747 0.7278082967
3.794566631 0.1689939946 0.8669579625
3.774054527 0.1667587608 1.000646472
2.782198668 0.1195290387 -0.7345805168
3.12901926 0.1333335042 -0.713091433
3.5989151 0.1527291536 -0.6919362545
3.956185579 0.1665055901 -0.6204707026
3.939360619 0.1623539776 -0.2044253945
3.668391705 0.1499021351 -0.06338534504
3.777526617 0.1603089869 0.1959469765
3.702861786 0.1564912349 0.3205334544
3.824522018 0.160293743 0.4648662508
3.837851763 0.159512341 0.6016985774
3.806999922 0.157562688 0.7323877215
3.816551685 0.1566254199 0.8719069362
3.799707174 0.1546056569 1.007375836
2.790339708 0.1096323058 -0.7366511226
3.143096447 0.1229442134 -0.7162407637
3.615144968 0.1401432008 -0.6949892044
3.992299557 0.153370142 -0.6261023283
3.963938951 0.1515859365 -0.4819279611
3.976270914 0.15066953 -0.344414115
3.955895901 0.1485128254 -0.2052627653
3.666624308 0.144061476 0.06335043907
3.796025038 0.147820428 0.1968890131
3.751192331 0.1447633058 0.3247168958
3.844894648 0.1477073729 0.4673036337
3.848254442 0.1464912742 0.6032629013
3.836979866 0.1447190493 0.7381119728
3.824889421 0.1429279298 0.8737065196
3.825320482 0.1422736794 1.014105082
2.786844015 0.09975523502 -0.7356157899
3.135735989 0.1111464351 -0.7144411802
3.603839874 0.1271104068 -0.692699492
3.992810488 0.1394324303 -0.6261023283
3.980338812 0.1376059204 -0.4838778377
4.002681732 0.136979565 -0.3466801345
3.982339382 0.1355876029 -0.2066235095
3.961160421 0.1334823072 -0.06848144531
3.803444862 0.1334842294 0.3292489946
3.885087729 0.1349936575 0.4721783996
3.87048173 0.1331317276 0.6067044139
3.862968922 0.1321983337 0.7430730462
3.852632046 0.1304982752 0.8800051212
3.837400675 0.1286414117 1.01721096
2.787191153 0.08953822404 -0.7356157899
3.149738789 0.1006362736 -0.7175904512
3.614092827 0.1142082289 -0.6946075559
3.994683743 0.1241416633 -0.4855840206
4.025042057 0.1236807555 -0.3485975862
4.01275444 0.1219012439 -0.2081935704
3.995581388 0.1206815913 -0.06907482445
3.667561531 0.1178200319 0.06335043907
3.799925804 0.1194186807 0.3289003968
3.90934515 0.122174412 0.4751032889
3.900539637 0.1205364466 0.6113975048
3.883050919 0.1186375171 0.7468892336
3.880354166 0.1172012985 0.8863037229
3.860998154 0.1159403995 1.023422599
2.787472725 0.0802956298 -0.7356157899
3.138383389 0.08930759877 -0.7148910761
3.612489223 0.1021680608 -0.6942259073
4.048975945 0.1130983382 -0.634862721
4.058591843 0.1119492054 -0.4933836758
4.057296276 0.1112048402 -0.3513865769
4.029109001 0.1090248972 -0.209030956
4.021965504 0.1074267253 -0.06952859461
3.727916479 0.1067366004 0.06439758837
3.812250376 0.1071536466 0.3299462497
3.921653509 0.1088569462 0.4765656888
3.92265749 0.10751459 0.6148390174
3.906973362 0.106402345 0.7514686584
3.907994032 0.105065085 0.8926023841
3.882621765 0.103026785 1.029116631
2.803185701 0.07095671445 -0.7397568822
3.13672781 0.07830408216 -0.7144411802
3.60889864 0.08946094662 -0.6934626698
4.082771778 0.09835594147 -0.4963085651
4.073594093 0.09742156416 -0.3527810574
4.047435284 0.09538436681 -0.2099730074
4.056301594 0.0941767022 -0.07012197375
4.020129681 0.1010590419 0.06949368864
3.892272711 0.0958058089 0.3369187117
3.937885523 0.09555321932 0.4785155952
3.948681355 0.09443422407 0.6189063191
3.930873394 0.09332379699 0.7560480833
3.931715727 0.0919688195 0.8980012536
3.917722225 0.09027516097 1.038434148
2.795691013 0.06100202724 -0.737686336
3.138930559 0.06739538163 -0.7148910761
3.605263472 0.07677843422 -0.692699492
4.09102869 0.08426818252 -0.4972835183
4.097813129 0.08369051665 -0.3548728228
4.068601131 0.08025252819 -0.07033140212
4.052445889 0.08771879971 0.07005216926
3.972261429 0.08390243351 0.3438911736
3.965980768 0.08238296211 0.4819279611
3.968736649 0.08105435967 0.6220350266
3.958655119 0.08015730977 0.761390686
3.959289551 0.07878762484 0.9042998552
3.948916912 0.077202335 1.046716213
2.788160563 0.05110184848 -0.7356157899
3.154733896 0.05671895668 -0.718490243
3.601583242 0.06412410736 -0.6919362545
4.000418663 0.0705267638 0.3463315368
4.001969814 0.06915681809 0.4863152206
3.982821226 0.06743532419 0.62422508
3.994244576 0.06693144888 0.7682598829
3.969282627 0.06512732804 0.9065493345
3.962683916 0.06363554299 1.050339818
2.792185307 0.04142561927 -0.7366511226
3.152964354 0.0456789732 -0.7180404067
3.609637737 0.05166327581 -0.6934626698
3.753882408 0.05241904408 -0.5879323483
3.734234095 0.05083923787 -0.4534105062
3.723762274 0.05004844442 -0.3221022487
3.720690012 0.04870646074 -0.1928068101
3.715144634 0.04733689874 -0.06415324658
3.726619005 0.05333758146 0.1931208223
4.029975891 0.05556902662 0.4897276163
3.996858597 0.05371893942 0.6264151931
4.014084339 0.05324787274 0.7720760107
3.979228973 0.0513982363 0.9087988734
3.987993956 0.05011733249 1.057069063
2.796176434 0.03172324225 -0.737686336
3.149207354 0.0346291028 -0.717140615
3.617648602 0.03914871067 -0.6949892044
3.711288214 0.03433035687 -0.06408344209
3.699218273 0.04132277146 0.06387401372
3.688836813 0.03991908208 0.1911320686
3.678065062 0.03916053474 0.3180930614
3.712581873 0.03693604469 0.5813620687
3.768851042 0.03683804721 0.7243737578
2.803997278 0.02202385105 -0.7397568822
3.135667801 0.02353438921 -0.7139912248
3.617763042 0.02652128227 -0.6949892044
4.103717327 0.02721687965 -0.4987459183
4.196207047 0.02709793299 -0.363414079
4.188289165 0.02558484301 -0.2173000425
4.201298714 0.02493106574 -0.07263512164
3.769327164 0.02894631587 0.06509567797
3.690945864 0.02770196088 0.1912367195
3.694118023 0.02643452585 0.3194875717
3.682882547 0.02507033013 0.4470733404
3.698856592 0.02453174256 0.5791720152
3.678648949 0.02311540768 0.7068193555
3.665749311 0.0217530448 0.8363646269
3.742901564 0.02155941725 0.9913290739
2.807920694 0.01225205231 -0.7407921553
3.149369955 0.01319378428 -0.717140615
3.623723269 0.01391442213 -0.6961340308
4.236784935 0.01405019499 -0.5150763988
4.258039951 0.0126344189 -0.3688177168
4.214315414 0.01176918112 -0.2186607718
4.211359024 0.01029096264 -0.07280964404
4.181335449 0.01824479736 0.07228606939
3.70699811 0.01488114521 0.1920741051
4.012968063 0.01471060142 0.3473774195
3.694855928 0.0128978705 0.4485357404
4.064362526 0.01277100854 0.6370527744
4.07528019 0.01209213678 0.7839061618
3.69503212 0.00967236422 0.843113184
2.800218582 0.002931716386 -0.7387216091
3.153294325 0.002202234464 -0.7180404067
3.629639387 0.001899725758 -0.6972788572
4.212535858 0.0007364540361 -0.660517931
4.278495789 -0.0007467383402 -0.5201949477
4.277982235 -0.001493297634 -0.3705608249
4.246286869 -0.002964467742 -0.2203355283
4.231366634 -0.003692564555 -0.07315869629
4.215369225 0.003679655492 0.07287944853
4.166408539 0.00145552156 0.3607993722
3.720684528 -0 0.4517043531
4.117717743 -0.0007186773 0.6455001831
4.136158943 -0.002165687969 0.7957363725
3.702838182 -0.003231336363 0.8449127674
4.06944418 -0.004261513241 1.078809857
2.792484283 -0.006823340431 -0.7366511226
3.161079168 -0.008275703527 -0.7198399901
3.602138281 -0.01068779174 -0.6919362545
4.291897297 -0.01647978462 -0.3717809916
4.282204151 -0.01718995906 -0.2222196162
4.273321152 -0.01864599809 -0.07389169186
4.243353844 -0.01036849152 0.07336812466
4.176350594 -0.01312043425 0.3616709709
4.16929245 -0.01382594835 0.5067893267
4.151270866 -0.01521527115 0.650818944
4.145945072 -0.01591936313 0.7976444364
4.111904621 -0.01865935884 1.090197921
2.798238993 -0.01660527848 -0.7382039428
3.153232813 -0.01981260628 -0.7180404067
3.62563777 -0.02341367304 -0.6965156198
4.22626543 -0.02876772173 -0.6627080441
4.32404232 -0.03094272688 -0.5258009434
4.331660748 -0.0317532979 -0.3752672374
4.306078911 -0.03306895867 -0.2234756798
4.303218365 -0.03454918787 -0.07441526651
4.210148811 -0.0279231742 0.3646342456
4.183108807 -0.02920408174 0.50849545
4.176867008 -0.03061858006 0.6548862457
4.163527489 -0.03124750964 0.8010789752
4.148513317 -0.03403121233 1.100033045
2.802027464 -0.02640926838 -0.7392392755
3.143401384 -0.03072409146 -0.7157908678
3.623570681 -0.03604983538 -0.6961340308
4.232065678 -0.04358099028 -0.6636466384
4.335817337 -0.04616305977 -0.5272633433
4.357422829 -0.04715369269 -0.3775332868
4.333896637 -0.04841210321 -0.2249410897
4.325066566 -0.04982338846 -0.07479921728
3.667284727 -0.03520448878 0.0633155331
3.874606133 -0.03854731098 0.2008665502
4.243894577 -0.04296202585 0.3675975502
4.206801414 -0.04405512661 0.5114203691
4.22809124 -0.04575413465 0.6630208492
4.20069313 -0.04619089141 0.808329761
3.757162571 -0.04262548313 0.8575100303
4.177344322 -0.04885086045 1.107797503
2.813508272 -0.03633970395 -0.7423450947
3.151068926 -0.04179981351 -0.7175904512
3.613607407 -0.04856632277 -0.6942259073
4.237812996 -0.05843509361 -0.6645852327
4.379297256 -0.06191498041 -0.5326256156
4.369648457 -0.06406698376 -0.2268251926
3.669139147 -0.04803166166 0.06335043907
4.030220032 -0.05416552722 0.209030956
4.289539337 -0.05839954317 0.3716067076
4.236395359 -0.05915507674 0.5150763988
4.237782001 -0.06065400317 0.6645852327
4.216209888 -0.06108127162 0.8113826513
4.228534222 -0.0627361685 0.9663863778
4.206123352 -0.06387221813 1.115562201
2.803706169 -0.04600199685 -0.7397568822
3.152852297 -0.05283148959 -0.7180404067
3.613415956 -0.06117986888 -0.6942259073
4.263258934 -0.07367115468 -0.6686524749
4.43661356 -0.07821595669 -0.5396940112
4.390852928 -0.07817579061 -0.3804965615
4.405342579 -0.07997202128 -0.2287092805
3.66282773 -0.06777182966 -0.06324572861
4.356750011 -0.07224427164 0.0753576979
4.235694408 -0.07171586156 0.2198121548
4.311222076 -0.07374730706 0.3735240996
4.27188921 -0.07456610352 0.5194637179
4.267169952 -0.07597371191 0.669278264
4.249341011 -0.07639817148 0.8178701401
4.253619194 -0.07796036452 0.9722350836
4.229052544 -0.07898683101 1.121773839
2.801597357 -0.05575004593 -0.7392392755
3.160442114 -0.06399447471 -0.7198399901
3.626920462 -0.07407328486 -0.6968972683
4.264951229 -0.08859328181 -0.6689653993
4.474021912 -0.09449860454 -0.5443250537
4.422424316 -0.09418099374 -0.3832855523
4.380462646 -0.08793333918 0.07577655464
4.26736784 -0.08715326339 0.2214869112
4.332850933 -0.08924717456 0.375441581
4.297403812 -0.09001776576 0.5226323605
4.288602829 -0.0913310945 0.6727197766
4.280453205 -0.09190496057 0.8239760399
4.27670002 -0.09331792593 0.9776338339
4.246133327 -0.09413385391 1.126432538
2.801385641 -0.0655291006 -0.7392392755
3.148510456 -0.07474859059 -0.717140615
3.626639605 -0.08673315495 -0.6968972683
4.231044292 -0.1026655957 -0.6636466384
4.499463081 -0.1107502729 -0.5474936962
4.467879772 -0.1107531488 -0.3872947097
3.641965389 -0.09155184776 -0.1887246072
4.439894199 -0.11316102 -0.07682370394
4.412115097 -0.103977263 0.07633502781
4.304974556 -0.1029559225 0.2234756798
4.358406067 -0.1049948856 0.3777076304
4.326830864 -0.1057454646 0.5262883902
4.327753544 -0.1072795987 0.6789772511
4.299733162 -0.1073359251 0.8277922273
4.307518482 -0.1090348214 0.9848322868
4.284403324 -0.1099462286 1.136785269
2.81658864 -0.0757227093 -0.7433803678
3.154074192 -0.08589763194 -0.718490243
3.638089895 -0.09971468896 -0.6991869807
4.254354954 -0.1180917993 -0.6674010158
4.518891811 -0.1270134002 -0.5499310493
4.495347977 -0.1271368563 -0.3897351027
3.719484568 -0.1064933836 -0.1928068101
4.483446598 -0.1299328655 -0.07759159803
4.449705601 -0.1204054952 0.07699821889
4.324553967 -0.1185296625 0.2245224118
4.395853996 -0.1212516874 0.3810195029
4.350247383 -0.121513404 0.5292132497
4.360920906 -0.1233350039 0.6842960119
4.338581562 -0.1234610379 0.835424602
4.326590538 -0.1246313155 0.989331305
4.322614193 -0.1260269135 1.147138
2.808583736 -0.08531934768 -0.7413098216
3.155703068 -0.09696673602 -0.7189401984
3.643606663 -0.1125953048 -0.7003318071
4.259840012 -0.1331266612 -0.6683396101
4.536277771 -0.1433507949 -0.5521246791
3.696331978 -0.1174534634 -0.3198361993
4.525567055 -0.1453842819 -0.2350942791
4.514944077 -0.1466207057 -0.07815007865
4.485236645 -0.1370363683 0.07762651145
4.348069668 -0.1343647391 0.2257784754
4.459129333 -0.1385757476 0.3865974844
4.421224117 -0.1389425695 0.5379878879
4.429566383 -0.1407524943 0.6952463388
4.410727501 -0.1409244537 0.8495445251
4.400143147 -0.1421238035 1.006427646
4.383934021 -0.1431321651 1.163702488
2.808268785 -0.09512260556 -0.7413098216
3.163135529 -0.1082481965 -0.7207397819
3.617683887 -0.1244358197 -0.6953707933
4.267246723 -0.1482698619 -0.6695910692
4.563524246 -0.1601592451 -0.555537045
3.654062748 -0.1295183003 -0.3161756396
4.574931145 -0.1629579961 -0.2377110571
4.538385868 -0.1632424891 -0.07856894284
4.522702694 -0.1539847553 0.07828969508
4.385499477 -0.1508460194 0.2277672291
4.484504223 -0.1550350636 0.3888635337
4.46237421 -0.1558295339 0.5431063771
4.460634708 -0.1573277861 0.7002522349
4.439638615 -0.1573630571 0.8552687168
4.421041965 -0.1582490951 1.0113765
4.400783539 -0.1590621024 1.168361306
2.804040194 -0.1052698344 -0.7402745485
3.168580532 -0.1195092946 -0.7220894694
3.619165659 -0.1377691478 -0.6957524419
4.250883102 -0.1633024663 -0.667088151
4.607219696 -0.1794074625 -0.3996708393
4.602243423 -0.1808226556 -0.2391764522
4.579749107 -0.1807394028 -0.07930193841
4.546116829 -0.1706712395 0.07870855927
4.426858902 -0.1677414775 0.2299653441
4.519743443 -0.1728410274 0.392001152
4.503459454 -0.1730054468 0.548224926
4.491641045 -0.1741216481 0.7052581906
4.454726696 -0.174247995 0.8583217263
4.457429886 -0.1759120822 1.01992476
4.433016777 -0.1757235229 1.177161098
2.803655624 -0.1150571257 -0.7402745485
3.168121338 -0.1311219186 -0.7220894694
3.644163132 -0.1514614224 -0.7007134557
4.252260685 -0.1782225072 -0.6674010158
3.643983603 -0.1540023983 -0.4426860213
4.66027689 -0.1985827833 -0.4043772519
4.625529766 -0.1979109049 -0.2404325306
4.627004623 -0.1995921433 -0.08013965935
4.573432922 -0.1884852499 0.0791972205
4.472111702 -0.1858732253 0.2323728055
4.548971653 -0.1898630708 0.3946157992
4.534528255 -0.1908458322 0.5521246791
4.522550106 -0.191923216 0.7102640867
4.493320942 -0.1914684772 0.8659541011
4.489886761 -0.1928922683 1.027572989
4.469014168 -0.1935584396 1.186996222
2.807075024 -0.1255048364 -0.7413098216
3.159857273 -0.1418304145 -0.720289886
3.635738373 -0.1644620448 -0.6991869807
3.621610403 -0.1657231897 -0.4400048852
4.695380688 -0.2165008336 -0.4075148702
4.654699802 -0.2162533402 -0.2420026213
4.658239365 -0.217232585 -0.08069812506
4.614698887 -0.2063240409 0.07993023098
4.493382931 -0.2024716437 0.2335241884
4.592032909 -0.2085229903 0.3984506726
4.553664207 -0.2075770795 0.5545620918
4.555398941 -0.2092496008 0.7155828476
4.537694931 -0.210023731 0.8747313023
4.510562897 -0.2103458196 1.032521963
4.510765553 -0.2111442536 1.198384285
2.808549404 -0.1353956312 -0.7418274879
3.157369614 -0.1533163786 -0.7198399901
3.639064074 -0.1773432791 -0.6999502182
3.635300159 -0.1784318388 -0.5697859526
4.707482338 -0.2327050865 -0.5735737085
4.728384495 -0.2353929132 -0.4104781747
4.691816807 -0.234393388 -0.243991375
4.683375359 -0.2356105745 -0.08115188777
4.645869732 -0.224782601 0.08048870414
4.514554501 -0.2200087309 0.2346755713
4.62709713 -0.2263028026 0.4015882611
4.590544224 -0.2261213064 0.5591931343
4.594059944 -0.2279020548 0.7218402028
4.587916374 -0.228399992 0.8846533895
4.550673008 -0.2281383574 1.041969895
4.536972523 -0.2290392369 1.205631256
2.796458721 -0.1450879872 -0.7387216091
3.164599895 -0.164741978 -0.7216396332
3.632507801 -0.1903716773 -0.6988053918
3.634621859 -0.1917546839 -0.5697859526
4.746287823 -0.251234442 -0.5784484744
4.749418736 -0.2530627251 -0.4123955667
4.7348032 -0.2539414465 -0.2462941557
4.710480213 -0.2534614205 -0.08164056391
4.686994076 -0.2431741506 0.08122170717
4.555644512 -0.2379539311 0.2368737012
4.6560812 -0.2448297441 0.4042029679
4.637303352 -0.2446539551 0.5650428534
4.616907597 -0.2451940626 0.7255946994
4.606652737 -0.2462620139 0.8884695768
4.594562531 -0.2472241372 1.052317619
4.570868015 -0.2467492521 1.214948654
2.803677797 -0.1547865421 -0.7407921553
3.173734188 -0.1763280034 -0.7238891125
3.627936125 -0.2021979392 -0.6980421543
4.79691267 -0.2707086205 -0.5847856998
4.778391838 -0.2705000937 -0.4150102735
4.779797077 -0.2722534835 -0.2487016171
4.755484104 -0.2725340426 -0.08244337887
4.708079338 -0.2607496977 0.08160565794
4.592675686 -0.2559663355 0.2388624698
4.685082912 -0.2619367838 0.406817615
4.668131828 -0.2626237273 0.5689426661
4.663356781 -0.2639880776 0.7331035137
4.578369141 -0.2599786222 0.8831268549
4.636520386 -0.2649043798 1.062215567
4.600838184 -0.2644769847 1.223230839
2.812762976 -0.1651383787 -0.7433803678
3.167263269 -0.1870606393 -0.7225394249
3.638967276 -0.2155571133 -0.7003318071
4.23465538 -0.2523266077 -0.6652109623
4.85538435 -0.2910142839 -0.5920978189
4.835093498 -0.2906450629 -0.4200653136
4.810715675 -0.2908650637 -0.2503763437
4.796420097 -0.2916811109 -0.08317637444
4.741076469 -0.2791807353 0.08219903708
4.633623123 -0.2744763494 0.2410605699
4.723917961 -0.2806524336 0.4103038311
4.692946911 -0.280456394 0.572111249
4.693956375 -0.2821610868 0.7381094098
4.583312988 -0.2763129473 0.8842716813
4.676415443 -0.2835641801 1.071663499
4.646165371 -0.2833577096 1.235654235
2.819881916 -0.1754355878 -0.7454509139
3.158811092 -0.1976285726 -0.7207397819
3.651908398 -0.2291186899 -0.7030031085
4.261349201 -0.2688480616 -0.6695910692
4.866279125 -0.3078657091 -0.5935602784
4.875805378 -0.3101772368 -0.4237258434
4.83558321 -0.3093132675 -0.251737088
4.831346989 -0.3098889887 -0.08380465955
4.787972927 -0.2987169027 0.08303675801
4.664580822 -0.2918358743 0.2427353263
4.758701801 -0.299392134 0.4134414494
4.723637581 -0.2988414764 0.5760110617
4.730452061 -0.3001015484 0.7440539598
4.609749794 -0.2940597832 0.8896143436
4.692952633 -0.3001897633 1.075712562
4.68954134 -0.3016152382 1.247559905
2.815429449 -0.1845330149 -0.7444156408
3.167860985 -0.208743155 -0.7229892612
3.64721036 -0.2409687489 -0.7022399306
4.258463383 -0.2828468382 -0.669278264
4.924652576 -0.3279583752 -0.600872457
4.908545017 -0.3286067545 -0.4266891181
4.878371239 -0.3282972872 -0.2540398836
4.862215042 -0.3280625045 -0.08436313272
4.834845066 -0.3177399337 0.08387447149
4.695474625 -0.3094038069 0.2444100827
4.805395126 -0.3183315992 0.4176249206
4.77808094 -0.3181973994 0.5828357935
4.762937546 -0.3180238903 0.7493727207
4.728239059 -0.3173649311 0.9128930569
4.724984646 -0.317974925 1.08336091
4.721281528 -0.3193812072 1.256359816
2.807092667 -0.1933373064 -0.7423450947
3.17492795 -0.2197853178 -0.7247889042
3.632681608 -0.2521105409 -0.6995685697
4.251590252 -0.296554476 -0.6683396101
4.951201439 -0.3470900655 -0.6042847633
4.935192108 -0.3476990461 -0.4291294813
4.925070286 -0.3478498161 -0.2565520108
4.89096117 -0.3471565247 -0.08488670737
4.875658512 -0.3366639018 0.08460746706
4.726245403 -0.3280045986 0.2460848242
4.840089798 -0.3367543221 0.4207625389
4.812644005 -0.3365328014 0.587223053
4.793326855 -0.336863488 0.7543786168
4.77807951 -0.3366299868 0.9228151441
4.770498753 -0.3377693892 1.09415853
4.747115612 -0.3377791643 1.263606668
2.796731234 -0.2029254884 -0.7397568822
3.183859348 -0.2315733582 -0.7270384431
3.639564991 -0.2659956515 -0.7010950446
4.22683382 -0.3103992939 -0.6645852327
5.017271042 -0.369325757 -0.6125718951
4.96176672 -0.3669814765 -0.4315698743
4.955630779 -0.3682669699 -0.2582267523
4.937579155 -0.3677920103 -0.08572442085
4.896392822 -0.3552729487 0.08499142528
4.772878647 -0.3479858339 0.2485969514
4.866642475 -0.3565299213 0.4232029021
4.853014946 -0.3563831449 0.5923416018
4.837431908 -0.3569365442 0.761574626
4.808139801 -0.3564626575 0.9289210439
4.808095932 -0.3581470251 1.103156567
4.778657913 -0.3567929268 1.272406459
2.801784992 -0.2131262571 -0.7413098216
3.177160025 -0.2427957952 -0.7256886959
3.642529726 -0.2789984345 -0.7018583417
4.23951149 -0.3262126446 -0.6667753458
5.047550201 -0.3901602328 -0.6164717078
5.017993927 -0.3896377087 -0.4366248548
4.990157604 -0.3883524835 -0.2601108253
4.986038208 -0.3897829652 -0.08659704775
4.924966335 -0.3754970431 0.08551499248
4.819365501 -0.3691377938 0.2511090636
4.91304493 -0.3771756589 0.4273863733
4.871468067 -0.3756943345 0.5947790146
4.877449512 -0.3778683543 0.768144846
4.838184357 -0.3756758273 0.9350269437
4.845673084 -0.3779590726 1.112154603
4.815836906 -0.3773231804 1.282759309
2.814465046 -0.2244690061 -0.7449332476
3.166580439 -0.2531082928 -0.7234392166
3.64931035 -0.2929755151 -0.703384757
4.263884068 -0.3438130319 -0.6708426476
5.07781601 -0.410335362 -0.6203715801
5.070221424 -0.4115031064 -0.4413312972
5.036476612 -0.410534054 -0.2626229823
5.036467075 -0.4114181697 -0.08750457317
4.969473362 -0.3963426948 0.08631779999
4.849901676 -0.3885099888 0.2527838051
4.955321312 -0.3986957073 0.4312212169
4.917615414 -0.39652583 0.6006287336
4.917448997 -0.3982401192 0.7747151256
4.883737087 -0.3972259164 0.9441857338
4.877274513 -0.3984140754 1.119803071
4.852998734 -0.3972837031 1.29311204
2.819439888 -0.2347728759 -0.746486187
3.161747456 -0.2643879652 -0.7225394249
3.634570837 -0.3045646548 -0.7007134557
4.244942665 -0.3572039008 -0.6680268049
5.08814621 -0.4299466014 -0.6218339205
5.108459949 -0.4325610995 -0.444817543
5.072824478 -0.4313271046 -0.264611721
5.054849625 -0.4315761328 -0.08785361797
5.021791935 -0.419043839 0.08726023883
4.878299713 -0.4087848663 0.2543538809
4.999563217 -0.4198250175 0.4352304041
4.963602066 -0.4185501933 0.6064783931
4.955322742 -0.4195941389 0.7809724808
4.935139179 -0.4187526405 0.9544894099
4.90692091 -0.4180834889 1.127001405
4.905405045 -0.4196791053 1.307605982
2.814754009 -0.2442790866 -0.7454509139
3.176336527 -0.2767762542 -0.7261386514
3.633485794 -0.3172497451 -0.7007134557
4.277122498 -0.3749519289 -0.6733455658
5.165712357 -0.4546668231 -0.6315835714
5.140658379 -0.4533658624 -0.4477808177
5.130971909 -0.4543166459 -0.2677519023
5.099124908 -0.4532907009 -0.08865643293
5.060142517 -0.4400354326 0.08795833588
4.92061615 -0.4296327233 0.2566566467
5.03180933 -0.440226227 0.4381936789
4.999682903 -0.4391742051 0.6111094952
4.989247322 -0.440012604 0.7866041064
4.978626728 -0.4399516284 0.9632666111
4.944253922 -0.4386536181 1.135999441
4.93662262 -0.4397133291 1.316405773
2.806187868 -0.2534079254 -0.7433803678
3.186995506 -0.2889176309 -0.7288380265
3.642132044 -0.3308190703 -0.7026215196
4.267919064 -0.389162153 -0.6720941067
5.140371323 -0.4705244005 -0.6286586523
5.18864584 -0.475856334 -0.4521385729
5.167142868 -0.47570315 -0.2697406411
5.145299911 -0.4755035937 -0.08949414641
5.096414566 -0.461119622 0.08862151951
4.962845802 -0.4507810175 0.2589594424
5.06397295 -0.4608576 0.4411569536
5.043587685 -0.4607775807 0.6167154312
5.036859035 -0.461935848 0.7944258451
5.004430771 -0.4598426223 0.9686092734
4.99702692 -0.4609213173 1.148596764
4.96391201 -0.4596143663 1.324170351
2.809133291 -0.2635627389 -0.7444156408
3.178206921 -0.2993097305 -0.7270384431
3.6292274 -0.3424239457 -0.7003318071
4.252768517 -0.4027538598 -0.6699039936
5.15450716 -0.4899675548 -0.6306085587
5.23653841 -0.4986873567 -0.4564963877
5.207203388 -0.4977278411 -0.271938771
5.19735384 -0.4986172915 -0.09043657035
5.130610943 -0.4822752178 0.08924981207
5.01095295 -0.4727921188 0.2615762651
5.105971813 -0.4826564193 0.444991827
5.075544357 -0.4815677702 0.6208590269
5.072579384 -0.4830731452 0.8003703952
5.045791626 -0.4814107418 0.9770048857
5.051643848 -0.4837484956 1.161643863
5.010351658 -0.4815594256 1.337111235
2.808196306 -0.2733668387 -0.7444156408
3.173264027 -0.3100229502 -0.7261386514
3.64364171 -0.3566201329 -0.703384757
4.251336575 -0.4175963402 -0.6699039936
5.152765751 -0.5079571009 -0.6306085587
5.286317348 -0.5220541954 -0.4610284865
5.24120903 -0.519446969 -0.273822844
5.247319221 -0.5219022036 -0.09134409577
5.182632923 -0.5054219961 0.09019224346
5.054990768 -0.4947554171 0.2639837265
5.151844978 -0.505142808 0.4491752982
5.113343239 -0.503169775 0.6257337928
5.120007515 -0.5056301355 0.8081920743
5.089015961 -0.5034664273 0.9857820868
5.090647697 -0.5054223537 1.171091795
5.054776192 -0.5036427379 1.349534512
2.816835403 -0.2841370404 -0.7470038533
3.162468195 -0.3201165497 -0.7238891125
3.638468027 -0.3689405322 -0.7026215196
4.269505501 -0.4344334304 -0.673032701
5.154911041 -0.5263438821 -0.631096065
5.328068256 -0.5449637175 -0.4648633599
5.296981812 -0.5436525941 -0.2768583596
5.277291775 -0.5434933305 -0.09190257639
5.230576515 -0.5285357237 0.09106486291
5.087012768 -0.515822947 0.2657631338
5.199604988 -0.5281565785 0.453533113
5.158952713 -0.5258467197 0.6315835714
5.155548573 -0.52731812 0.8141365647
5.132147312 -0.5258297324 0.9945593476
5.121807098 -0.5265769958 1.178740144
5.104872227 -0.5266367197 1.363510847
2.800455093 -0.292363137 -0.742862761
3.178774834 -0.3329808712 -0.7279382348
3.629347563 -0.3808193803 -0.7010950446
4.279750347 -0.4505750835 -0.6749099493
5.164886951 -0.5455858111 -0.632558465
5.371704102 -0.5683807135 -0.4688725173
5.352648735 -0.5682538748 -0.2798938453
5.323085308 -0.5669944286 -0.09274028987
5.27444315 -0.5515742302 0.09186767042
5.12093544 -0.5373283625 0.2676472068
5.247266769 -0.5515099764 0.457890898
5.208412647 -0.5492644906 0.6379206777
5.187071323 -0.5488446951 0.8194553256
5.190802574 -0.55015558 1.006389618
5.164507866 -0.5491917729 1.189087868
5.137579918 -0.5481420159 1.372828245
2.803258896 -0.3025513887 -0.7438979745
3.185342789 -0.3449139893 -0.7297378182
3.647514343 -0.3956027627 -0.704911232
4.272260189 -0.4648704231 -0.6739712954
5.174790859 -0.5649038553 -0.6340209246
5.419201374 -0.5925419331 -0.4732302725
5.412178516 -0.5936858654 -0.2831386626
5.374742031 -0.5914781094 -0.09368272871
5.314236164 -0.574495554 0.09260067344
5.166683674 -0.5603691339 0.2701593637
5.28492403 -0.5741264224 0.4613771439
5.265666485 -0.5738942027 0.6452329159
5.23814249 -0.5727447271 0.8279027939
5.220075607 -0.5716912746 1.012495399
5.216797352 -0.5731751919 1.20168519
5.18556118 -0.5715751648 1.386286855
2.800265551 -0.3121207058 -0.7433803678
3.157006025 -0.3529990911 -0.7234392166
3.64611125 -0.4083324969 -0.704911232
4.270611286 -0.4797805548 -0.6739712954
5.184623241 -0.584297657 -0.6354833245
5.470555305 -0.6174886823 -0.4779367149
5.441826344 -0.6161696911 -0.2848134041
5.432252407 -0.6170061827 -0.09472987056
5.355919838 -0.5979232192 0.09336858243
5.230195999 -0.5857361555 0.2736135423
5.338326931 -0.5987892747 0.4662578404
5.312947273 -0.5978204608 0.6513263583
5.281258583 -0.596121788 0.835098803
5.266819477 -0.595422864 1.022035837
5.267045498 -0.5973106027 1.213832498
5.235359669 -0.5955682397 1.400263071
2.808754921 -0.3229970634 -0.7459685206
3.155754566 -0.3640169501 -0.7234392166
3.648564577 -0.4215079844 -0.7056744695
4.255174637 -0.4930931032 -0.6717812419
5.166777611 -0.6005582213 -0.6335334182
5.513884068 -0.6418793797 -0.4819458425
5.497172356 -0.6418789029 -0.2878488898
5.473759651 -0.6410819888 -0.0954977721
5.407436848 -0.6227926612 0.09431100637
5.271769047 -0.6090320349 0.2759163082
5.383704185 -0.622915864 0.4704412818
5.344348907 -0.6202528477 0.6554698944
5.334085464 -0.6209487915 0.8438591361
5.319310188 -0.6201697588 1.032721162
5.305575371 -0.6204457283 1.223280549
5.288891315 -0.6203660965 1.41527462
2.817202806 -0.3339364827 -0.7485567927
3.173815727 -0.3773310184 -0.7279382348
3.635373831 -0.4328486025 -0.703384757
4.261273384 -0.5088804364 -0.673032701
5.164649487 -0.6185899973 -0.6335334182
5.578868866 -0.6691903472 -0.4878724515
5.534557343 -0.6658349037 -0.2899423242
5.509324551 -0.6637747884 -0.09616096318
5.456860065 -0.6477934718 0.09521853179
5.313352585 -0.6316979527 0.278219074
5.466567993 -0.6518487334 0.4779367149
5.399312019 -0.6457405686 0.6625383496
5.400644302 -0.64685601 0.8548095226
5.375590324 -0.6457585692 1.044169784
5.349811077 -0.644556284 1.234078169
5.32708168 -0.6427609921 1.426144958
2.808349371 -0.3428319395 -0.746486187
3.164809704 -0.3869077861 -0.7261386514
3.633841038 -0.445535779 -0.703384757
4.271326542 -0.5244529843 -0.6749099493
5.158629417 -0.6352280378 -0.6330459118
5.558702946 -0.6864624023 -0.4863036573
5.45303297 -0.6743791103 -0.2857554555
5.556586742 -0.6891550422 -0.09703358263
5.502320766 -0.6717010736 0.09605624527
5.358694077 -0.6560662389 0.2807312012
5.487989426 -0.6738404036 0.4800284207
5.470040321 -0.6726056337 0.6715566516
5.451287746 -0.6722314358 0.8632570505
5.457202435 -0.673927784 1.0605793
5.428871155 -0.6723530889 1.252974033
5.395739079 -0.6701622605 1.445297718
2.809113979 -0.3523833454 -0.7470038533
3.182774782 -0.4003850222 -0.73063761
3.647926331 -0.4595466256 -0.7064377069
4.269469738 -0.5393593907 -0.6749099493
5.211523056 -0.6602166891 -0.6398706436
5.429777145 -0.6897918582 -0.4751477242
5.432813644 -0.6911411285 -0.2848134041
5.615639687 -0.716391623 -0.09811563045
5.55351305 -0.6976332068 0.09699867666
5.405911922 -0.6810083985 0.2833480239
5.487701416 -0.6922848821 0.4802027345
5.487352848 -0.6941869259 0.6739940047
5.464585304 -0.6932448149 0.8657599688
5.460659981 -0.6937151551 1.061724186
5.469019413 -0.6967172027 1.262871861
5.412529945 -0.6914407611 1.450474024
2.807803631 -0.3626768887 -0.7470038533
3.169761896 -0.4099926054 -0.7279382348
3.650111198 -0.4734188914 -0.7072009444
4.23220396 -0.5504184365 -0.669278264
5.226902962 -0.6807115674 -0.642064333
5.413506508 -0.7069352269 -0.4739275575
5.410440445 -0.7084556818 -0.2837666869
5.680517673 -0.7448285818 -0.09930240363
5.602608204 -0.7236747146 0.09790620208
5.458961487 -0.7070577145 0.2862788141
5.479200363 -0.7116238475 0.4796798229
5.463243008 -0.7105209827 0.6713129282
5.466050148 -0.7128264904 0.8663856983
5.436666489 -0.7109246254 1.05752635
5.460632324 -0.7159972787 1.261522055
5.431152821 -0.7130962014 1.456168056
2.80843544 -0.3727299273 -0.7475214601
3.156647921 -0.4200653136 -0.7252388
3.648436308 -0.4861572385 -0.7072009444
4.253753185 -0.5683274269 -0.673032701
5.218470573 -0.6990737915 -0.6413331032
5.4148283 -0.7273022532 -0.4742761552
5.388139725 -0.7246750593 -0.2827199697
5.739183426 -0.7739281654 -0.100384444
5.655421734 -0.7515806556 0.09888353944
5.511766911 -0.7344475985 0.2892096341
5.486557007 -0.7320629954 0.480551362
5.454699516 -0.7297503352 0.6705816984
5.459484577 -0.7323304415 0.8657599688
5.428314686 -0.729113698 1.056381464
5.436855793 -0.7321930528 1.2565732
5.426588058 -0.7327390909 1.455650449
2.814706802 -0.3840655684 -0.7495920658
3.166746855 -0.4326642454 -0.7279382348
3.634959698 -0.4979275167 -0.704911232
4.277082443 -0.587408483 -0.6771000028
5.229764462 -0.7191784978 -0.6430392265
5.408308983 -0.7456550002 -0.4739275575
5.393361568 -0.7455126643 -0.2831386626
5.797852039 -0.8024556637 -0.1014664918
5.720128536 -0.7805091739 0.1000702977
5.542809486 -0.7582848668 0.2909890711
5.548975945 -0.7611017823 0.4863036573
5.503251553 -0.7558087707 0.6769189239
5.494076729 -0.7565027475 0.8717044592
5.482005119 -0.756790638 1.067448378
5.436065197 -0.7523823977 1.257023096
5.433564663 -0.7530028224 1.458238602
2.792372227 -0.3904545605 -0.7438979745
3.176796675 -0.4453389347 -0.73063761
3.637176991 -0.5105245113 -0.7056744695
4.275110722 -0.6015886068 -0.6771000028
5.239015579 -0.7390931249 -0.6445016861
5.382133007 -0.7602415085 -0.4718358219
5.386905193 -0.7628335953 -0.2829293311
5.781157017 -0.8207217455 -0.1012221575
5.778761387 -0.8090666533 0.101152353
5.755716801 -0.8078888059 0.3023982942
5.581935883 -0.7844899297 0.4894412756
5.559549809 -0.7833228111 0.6842310429
5.66939497 -0.8008180261 0.9001755714
5.539726734 -0.7834882736 1.079278588
5.518436432 -0.7824420333 1.276818871
5.495933056 -0.7812085152 1.475838304
2.80055356 -0.4015703499 -0.746486187
3.175222874 -0.4564252198 -0.73063761
3.627599478 -0.5220987797 -0.7041479945
4.272984982 -0.6165078282 -0.6771000028
5.265873432 -0.7616385818 -0.6481577158
5.36367178 -0.7767395377 -0.4704412818
5.364444256 -0.7787634134 -0.2818826139
