# .PCD v0.7 - Point Cloud Data file format
VERSION 0.7
FIELDS x y z
SIZE 4 4 4
TYPE F F F
COUNT 1 1 1
WIDTH 1259
HEIGHT 1
VIEWPOINT 0 0 0 1 0 0 0
POINTS 1259
DATA ascii
3.993285179 -4.167069435 1.113624215
3.996462584 -4.173300743 1.324058533
3.995619297 -4.175336361 1.536919594
2.147935629 -2.250830173 -0.8220613599
2.438864231 -2.556588411 -0.8057712913
2.872909069 -3.013690472 -0.8010789752
3.473745346 -3.646517038 -0.790984273
2.055235386 -2.158209562 -0.3607898057
2.111272097 -2.218603849 -0.2642308176
2.221490145 -2.33605814 -0.166743502
3.483122826 -3.649977922 0.08736494929
3.699592829 -3.879528522 0.2787424326
3.714106321 -3.897470474 0.4673036933
3.998520136 -4.197392464 0.7066550255
4.00093174 -4.202860355 0.9123774171
3.979337931 -4.183100224 1.114005804
3.981139898 -4.18792057 1.324058533
3.98368144 -4.19205904 1.537954807
2.137408257 -2.255509615 -0.8210260868
2.438857317 -2.575415134 -0.8089206219
2.865071535 -3.0265522 -0.8018422723
3.463710546 -3.661490917 -0.7916100025
2.115495443 -2.237855911 -0.3729767501
2.040566444 -2.159347773 -0.2562125027
3.998676062 -4.235879421 -0.1009778306
3.483474493 -3.677237511 0.08771400154
3.691522121 -3.898219585 0.2791611254
3.701848269 -3.91185832 0.4674780071
3.991292477 -4.220673084 0.708117485
3.987593412 -4.218236446 0.9126903415
3.980890274 -4.214090824 1.118585229
3.974523306 -4.21029377 1.326757908
3.967698336 -4.204534531 1.537437201
2.126874208 -2.260143042 -0.8199907541
2.436979532 -2.59058547 -0.8111701012
2.850455284 -3.032243252 -0.8006973863
3.459666014 -3.681593895 -0.7934872508
2.108062744 -2.244858742 -0.3729767501
2.043923378 -2.17808032 -0.2576069832
2.197339296 -2.342384815 -0.1661154628
4.007114887 -4.274612904 -0.1015712097
3.461668253 -3.6785748 0.08746965975
3.681996822 -3.91544652 0.2794751525
3.692263842 -3.929112196 0.4680009484
3.984070539 -4.241119862 0.7093361616
3.979604483 -4.239330769 0.9142546058
3.965550423 -4.225837231 1.11820364
3.971203804 -4.234823227 1.330357194
3.958281279 -4.223997116 1.539507747
2.122005939 -2.270006418 -0.8210260868
2.426591396 -2.597652197 -0.8107202053
2.844404221 -3.045983791 -0.8018422723
3.444098473 -3.690759182 -0.7928614616
2.060757637 -2.211438894 -0.2607446015
2.18778801 -2.348579407 -0.166010797
3.989444733 -4.285647869 -0.1015014052
3.45426774 -3.696480274 0.08760929108
3.692843199 -3.954550982 0.2813592255
3.69280982 -3.955898762 0.4697440565
3.967887402 -4.253549099 0.7090924382
3.976904869 -4.266201019 0.9170704484
3.948098183 -4.23678112 1.117440343
3.964365482 -4.257216454 1.333056569
3.94877696 -4.24344492 1.541578293
2.116299868 -2.280600548 -0.8220613599
2.413533449 -2.601820707 -0.8093704581
2.845232725 -3.069346428 -0.8052767515
3.430547714 -3.703357935 -0.7928614616
2.107153654 -2.277112722 -0.2677170634
2.176453114 -2.353649378 -0.1658014506
3.985319853 -4.311294556 -0.1017806381
3.429101944 -3.69532299 0.0872951448
3.695313454 -3.984991312 0.282615304
3.694536686 -3.986944199 0.4718358219
3.955713749 -4.270287037 0.709579885
3.966014624 -4.284405708 0.9180091023
3.94454217 -4.264194012 1.120875001
3.947412252 -4.270286083 1.332606673
3.943118334 -4.267134666 1.545201778
2.113562584 -2.293656588 -0.824131906
2.403981209 -2.610649347 -0.8093704581
2.826523542 -3.07059288 -0.8029870391
3.430973291 -3.729848623 -0.795990169
2.098793268 -2.284820557 -0.2677170634
2.156066418 -2.34799242 -0.1648593992
3.316473246 -3.61422658 -0.08492161334
3.326115847 -3.610794544 0.08499142528
3.665803194 -3.982344151 0.2814638913
3.677899122 -3.996883869 0.4714871645
3.94541049 -4.290601254 0.7105548382
3.950284719 -4.298913002 0.9180091023
3.937601566 -4.286612034 1.123164654
3.932482004 -4.284039497 1.332606673
3.933981419 -4.288676262 1.547790051
2.092102766 -2.287133217 -0.8189555407
2.40537405 -2.630529881 -0.8129696846
2.815250397 -3.080931902 -0.8029870391
3.419943571 -3.74531579 -0.7966158986
2.157940388 -2.365732431 -0.2764326334
2.156864405 -2.366211414 -0.1655921042
3.306530714 -3.628737688 -0.08499142528
3.285147905 -3.59139657 0.08425842226
3.674788475 -4.020177841 0.2832433581
3.663224936 -4.010337353 0.4714871645
3.942456245 -4.317540169 0.7127485275
3.937917709 -4.315594673 0.9186348319
3.927155256 -4.306818008 1.124691129
3.924628973 -4.307066441 1.335306048
3.9150846 -4.298098087 1.546237111
2.087105274 -2.296917915 -0.8199907541
2.398797035 -2.641795635 -0.8138694763
2.807657242 -3.093158484 -0.8037503362
3.412813663 -3.762488842 -0.7978673577
2.131354094 -2.352205515 -0.2739922702
2.182520151 -2.410363913 -0.1682088971
3.297163248 -3.642647505 -0.08506122977
3.268558025 -3.598401785 0.0841537118
3.6748631 -4.047127724 0.2842900753
3.663294554 -4.037217617 0.4732302725
3.935362101 -4.340099335 0.7142109871
3.93021822 -4.335947514 0.9201991558
3.912852049 -4.319817066 1.124691129
3.91761899 -4.326598167 1.337555647
3.908586979 -4.319652557 1.549342871
2.079476833 -2.303826332 -0.8199907541
2.380886793 -2.639606476 -0.8107202053
2.806587219 -3.112658024 -0.8064216375
3.392384052 -3.764980316 -0.795990169
3.442672253 -3.822132826 -0.6264650226
2.075557232 -2.305948973 -0.2677170634
2.129102945 -2.367099524 -0.1646500677
3.291750908 -3.66099596 -0.08523575962
3.255267859 -3.607736111 0.08411879838
3.666773081 -4.065224171 0.2847087383
3.657890081 -4.058222771 0.4742761552
3.918290615 -4.350175381 0.7137234807
3.921104908 -4.354828835 0.9214506149
3.902444839 -4.337147713 1.125836015
3.908462763 -4.345360756 1.33935523
3.900697947 -4.339773655 1.551931024
2.076984406 -2.316462755 -0.8220613599
2.368219137 -2.643133163 -0.8093704581
2.802253008 -3.129749537 -0.808329761
3.387784958 -3.785040617 -0.7978673577
2.001108646 -2.238904476 -0.2590014935
3.286942959 -3.681414127 -0.08544518799
3.241951704 -3.617022038 0.08408389986
3.663220644 -4.089900494 0.285546124
3.645740986 -4.071815014 0.474450469
3.903843164 -4.363145351 0.7137234807
3.91904664 -4.383215427 0.9245793223
3.893821955 -4.358063221 1.127744079
3.89716506 -4.363337994 1.340704918
3.88809824 -4.356245995 1.552966356
2.073617458 -2.329832077 -0.824131906
2.361105919 -2.65470767 -0.8102703094
2.788154602 -3.137064219 -0.8075664639
3.342400551 -3.761990547 -0.7903585434
3.949862957 -4.451966763 -0.5169824958
3.261490107 -3.67996788 -0.08513104171
3.236648083 -3.637844563 0.08429332823
3.673420191 -4.131659508 0.2875348926
3.777710199 -4.250452518 0.4937990308
3.895734787 -4.386329174 0.7151858807
3.900332928 -4.394595146 0.9239535928
3.888244152 -4.384056091 1.130797029
3.886317492 -4.383424759 1.342504501
3.884916782 -4.384926796 1.558142781
2.057390213 -2.328730106 -0.8210260868
2.359098673 -2.672108889 -0.8129696846
2.773289919 -3.142361641 -0.8064216375
1.927550316 -2.186376572 -0.3527464271
3.399568558 -3.858767748 -0.4462119937
3.251267195 -3.694332361 -0.08520085365
3.232558966 -3.66017437 0.08453766257
3.899553776 -4.416954994 0.3065851629
3.887326956 -4.4062047 0.5103586912
3.888821363 -4.411001682 0.7168920636
3.886275053 -4.409665108 0.9242664576
3.884595394 -4.410861969 1.134231567
3.873568296 -4.399889469 1.343404412
3.867034435 -4.395560265 1.557107449
2.054753542 -2.341347933 -0.823096633
2.360503435 -2.69163847 -0.8165689111
2.758971453 -3.147111654 -0.8052767515
3.908971548 -4.46675396 -0.5155879855
3.230505943 -3.694078207 -0.2549819052
3.236366034 -3.702082634 -0.08513104171
3.215128899 -3.664861202 0.08439804614
3.880711794 -4.431340218 0.7181107998
3.87293148 -4.424014568 0.9245793223
3.872532129 -4.426674843 1.134994745
3.870501995 -4.425912857 1.347453356
3.856251001 -4.412723541 1.558660388
2.049516678 -2.351061106 -0.824131906
2.351564884 -2.699451208 -0.8165689111
2.770437956 -3.181413174 -0.8117642403
3.134908438 -3.602488041 -0.7496855259
3.903286934 -4.490217686 -0.5168081522
3.210379601 -3.69572401 -0.2543538809
3.229978085 -3.720907688 -0.08530557156
3.197702408 -3.669471979 0.08425842226
3.521814823 -4.044251442 0.2788471282
3.515276909 -4.038166046 0.4646890163
3.867298126 -4.445682526 0.7183545232
3.871721268 -4.453905582 0.9280208945
3.852680445 -4.433564186 1.13346839
3.857584715 -4.44233942 1.348353267
3.850953102 -4.437830448 1.56280148
2.043826342 -2.36112237 -0.8251672387
2.328103781 -2.691431046 -0.811619997
2.761884689 -3.194034338 -0.8125275373
3.166226625 -3.664228201 -0.7603231668
3.886007071 -4.500393867 -0.7249354124
3.894098997 -4.511357307 -0.5176797509
3.200068951 -3.709932327 -0.2545632124
3.219581127 -3.735188961 -0.08537537605
3.190108776 -3.686660528 0.08439804614
3.510288954 -4.059540749 0.2790564597
3.518097639 -4.070007324 0.4669550657
3.850458622 -4.457652569 0.7181107998
3.861313581 -4.473374844 0.9292723536
3.843593597 -4.454417706 1.135376334
3.843327284 -4.457253456 1.348803163
3.840482712 -4.457099915 1.564872026
2.043127298 -2.377032518 -0.8282729983
2.330122709 -2.712845802 -0.8156691194
2.751997232 -3.205145359 -0.8129091263
3.307774067 -3.855158806 -0.7978673577
3.875442266 -4.519958973 -0.7259103656
3.889997005 -4.538537502 -0.5192485452
3.200091362 -3.736249208 -0.2556099296
3.20132184 -3.740327835 -0.08523575962
3.183736324 -3.705357313 0.08457256109
3.490892649 -4.065708637 0.2786377668
3.511654854 -4.091334343 0.4680009484
3.847799301 -4.486133575 0.7205481529
3.844389677 -4.48532629 0.9289595485
3.839518309 -4.481225014 1.138810992
3.830279589 -4.473602772 1.349702954
3.83494854 -4.482221603 1.569013119
2.02980113 -2.378272295 -0.8262024522
2.326961756 -2.728376389 -0.8179186583
2.739518881 -3.213238239 -0.8125275373
3.325042009 -3.90276885 -0.8053762317
3.86350131 -4.537993908 -0.7266415954
3.870257139 -4.547536373 -0.5187256336
3.187029839 -3.747396708 -0.2556099296
3.203786612 -3.7697649 -0.08565461636
3.186357498 -3.734703064 0.08499142528
3.484454393 -4.086988926 0.2792657912
3.4973526 -4.103567123 0.4680009484
3.843699694 -4.513138771 0.7227417827
3.828709602 -4.498718262 0.9289595485
3.832757473 -4.505067348 1.141482234
3.818427801 -4.491399765 1.351052642
3.816777945 -4.492636204 1.567977905
2.011495352 -2.373552561 -0.8220613599
2.324979782 -2.745405197 -0.8206180334
2.729554176 -3.224279642 -0.8129091263
3.306295395 -3.908319712 -0.8041247725
3.85404563 -4.55903244 -0.7278603315
3.861278296 -4.570823193 -0.5197715163
3.181661367 -3.767654657 -0.2562379837
3.190607786 -3.780925512 -0.08565461636
3.164253473 -3.735122442 0.08474709094
3.475328684 -4.105224133 0.279684484
3.483006954 -4.115749836 0.4680009484
3.835613728 -4.535623074 0.7242042422
3.821907997 -4.52261734 0.9311496019
3.817008734 -4.518418789 1.141482234
3.811525822 -4.515124321 1.354202032
3.803563833 -4.508884907 1.569013119
2.010243416 -2.389779329 -0.8251672387
2.311619997 -2.749029636 -0.8192683458
2.713929415 -3.229753017 -0.8117642403
3.286868095 -3.914360762 -0.8028733134
3.830450296 -4.563334942 -0.726397872
3.849140167 -4.588852882 -0.5202944279
3.175529003 -3.78847456 -0.256866008
3.183812141 -3.799703121 -0.08582913876
3.147334337 -3.741554022 0.08464238048
3.47639966 -4.135676861 0.2809405625
3.476868868 -4.139167309 0.4692211151
3.814652205 -4.5429039 0.7232292891
3.814985991 -4.546523094 0.9333396554
3.80294466 -4.535387039 1.142245531
3.812473297 -4.549975395 1.360500574
3.800206184 -4.536943913 1.574189425
1.996935844 -2.390851021 -0.823096633
2.294036388 -2.748507261 -0.8165689111
2.710185528 -3.248251677 -0.8140539527
3.29848361 -3.956154108 -0.8091306686
3.828947067 -4.595645428 -0.7293227911
3.838199377 -4.608385086 -0.520991683
3.159729958 -3.796466112 -0.2566566467
3.175644875 -3.816942453 -0.08596875519
3.143852711 -3.765344143 0.08492161334
3.461942196 -4.147786617 0.2809405625
3.473884821 -4.165049076 0.4707899392
3.800517559 -4.559904099 0.7237167954
3.811736584 -4.574988842 0.9364683628
3.792114735 -4.55466938 1.143772006
3.791582346 -4.557263851 1.358700991
3.790523052 -4.557608128 1.576777697
2.005843163 -2.418625355 -0.8303436041
2.279934406 -2.750098467 -0.8147693276
2.705092907 -3.265251875 -0.8159621358
3.290385962 -3.973155975 -0.8103821278
3.818748951 -4.614434719 -0.7302976847
3.828438282 -4.629431248 -0.5218632221
3.150940657 -3.811540842 -0.2569706738
3.167396307 -3.834170818 -0.08610837907
3.141561747 -3.788063049 0.08520085365
3.452540398 -4.165997028 0.2813592255
3.469491005 -4.189425945 0.4721844196
3.791704893 -4.580127716 0.7249354124
3.793225765 -4.585221767 0.9358425736
3.784497261 -4.576297283 1.146061778
3.777690411 -4.571314812 1.359150887
3.780740976 -4.578259468 1.579365849
1.992898345 -2.419299364 -0.8282729983
2.282706022 -2.773085833 -0.8192683458
2.690507889 -3.269656181 -0.8148172498
3.26646018 -3.972411156 -0.8078792095
3.811440229 -4.63847208 -0.7320038676
3.822370052 -4.65508604 -0.5232577324
3.141418219 -3.827148199 -0.2572847009
3.156529427 -3.848296165 -0.08617818356
3.135946274 -3.808267832 0.08541027457
3.443053722 -4.184191704 0.2817779183
3.451782703 -4.1962924 0.4716615081
3.78703928 -4.607137203 0.7271291018
3.778450966 -4.599961281 0.936155498
3.778466463 -4.601617813 1.149114609
3.769127607 -4.593512058 1.361850262
3.765962124 -4.592922688 1.579883575
1.98401773 -2.426587343 -0.8282729983
2.28041172 -2.790090084 -0.821967721
2.671054363 -3.270371914 -0.8125275373
3.25437665 -3.987416983 -0.8085048795
3.802755356 -4.660977364 -0.7334663272
3.78469491 -4.642148018 -0.5202944279
3.142508507 -3.857217312 -0.2585407794
3.15696764 -3.876346827 -0.08656213433
3.127697229 -3.825384378 0.0855499059
3.441063881 -4.211651802 0.2828246355
3.445199251 -4.219718933 0.4728816748
3.779720306 -4.631093025 0.7288352847
3.768613338 -4.620776653 0.9377198219
3.759094954 -4.612391949 1.148351431
3.762111187 -4.619384766 1.365449548
3.748687029 -4.604541779 1.579365849
1.977970719 -2.436497688 -0.8293082714
2.270169973 -2.798429728 -0.821967721
2.66085887 -3.281200647 -0.8129091263
3.230488777 -3.986475229 -0.8060019612
3.793141603 -4.684140205 -0.7349287868
3.773482323 -4.661525249 -0.520991683
3.134049177 -3.874374628 -0.2589594424
3.152219534 -3.89822793 -0.08680647612
3.111135244 -3.833716393 0.08548009396
3.43389082 -4.232944012 0.2834526896
3.437976837 -4.241004944 0.4739275575
3.768968821 -4.652627945 0.7300539017
3.769864798 -4.655395508 0.9420999885
3.745441437 -4.628537655 1.149114609
3.750864983 -4.638549328 1.367249131
3.720446825 -4.602575779 1.574189425
1.975515485 -2.450907707 -0.8318964839
2.268213749 -2.815047026 -0.8246671557
2.670320511 -3.316465139 -0.8193966746
3.239546061 -4.02486515 -0.8116335869
3.783808231 -4.704426765 -0.7361474037
3.782150984 -4.705728531 -0.5244778991
3.118682384 -3.881632328 -0.2587501109
3.156119823 -3.931037903 -0.0872951448
3.108444929 -3.856467247 0.08575933427
3.424105644 -4.251126289 0.2838713527
3.433146238 -4.265397072 0.4753220379
3.749786139 -4.660460949 0.7293227911
3.757305145 -4.673144817 0.9430385828
3.736222267 -4.648584366 1.151022792
3.745224237 -4.663117409 1.370848298
3.726123571 -4.642653942 1.583507061
1.964962244 -2.454428911 -0.8308612108
2.259590864 -2.824469328 -0.8251171112
2.659308434 -3.325301647 -0.8193966746
3.220543861 -4.029975891 -0.8103821278
3.773557663 -4.725361824 -0.7373661399
3.787656069 -4.744714737 -0.5274412036
3.111341715 -3.900301456 -0.2592734694
3.139885664 -3.938903332 -0.08722533286
3.104959726 -3.879784584 0.08603856713
3.40176177 -4.253694057 0.2832433581
3.425202847 -4.284539223 0.4761935771
3.740929365 -4.682827473 0.7307851315
3.74220252 -4.687775612 0.9433515072
3.729768753 -4.673873901 1.154075623
3.72406435 -4.670067787 1.369048715
3.702671766 -4.646567345 1.580401182
1.958786726 -2.464297771 -0.8318964839
2.256990194 -2.841495037 -0.8278164864
2.635476112 -3.319188833 -0.8155804276
3.15488863 -3.976200342 -0.7972416282
3.7669065 -4.750949383 -0.7393160462
3.772308588 -4.759468555 -0.5276154876
3.754932642 -4.740944386 -0.3147495687
3.119912148 -3.941999674 -0.08705081046
3.096373558 -3.896861792 0.08617818356
3.404279947 -4.287440777 0.2847087383
3.415180922 -4.302711964 0.476890862
3.734429121 -4.70829916 0.7327350974
3.729497194 -4.705453873 0.9442900419
3.724404335 -4.700714111 1.157510281
3.718626976 -4.696789265 1.373097897
3.691224098 -4.665523529 1.582471728
1.94299233 -2.462021351 -0.8287906647
2.249471188 -2.852416277 -0.8287162781
2.634812832 -3.342244148 -0.8190150261
3.143435001 -3.990292311 -0.7978673577
3.755210876 -4.770308018 -0.7402909994
3.754440069 -4.771041393 -0.5274412036
3.121073484 -3.969027281 -0.2624136209
3.08646822 -3.912356138 0.08628290147
3.401658297 -4.314982891 0.2857554555
3.405073404 -4.320866108 0.4775880873
3.727796316 -4.733782768 0.7346850038
3.720378876 -4.727757931 0.9461672902
3.709187269 -4.715229034 1.15789187
3.710639954 -4.72046566 1.376247168
3.670142651 -4.6723032 1.580401182
1.941535473 -2.477912426 -0.8318964839
2.228688478 -2.846441984 -0.8246671557
2.626760721 -3.356058836 -0.8201598525
3.100279808 -3.963897228 -0.7903585434
3.740981817 -4.786515236 -0.7407784462
3.745123148 -4.79353857 -0.5284870863
3.74386692 -4.795380592 -0.3166337013
3.733164072 -4.785113811 -0.1052362099
3.07279253 -3.923105955 0.08628290147
3.398885727 -4.342557907 0.2868021727
3.39488101 -4.339002132 0.4782853127
3.713695049 -4.749894142 0.7351724505
3.711150169 -4.750055313 0.9480444789
3.696330547 -4.732789516 1.159036756
3.700134039 -4.741070271 1.378496647
3.662127018 -4.695749283 1.584024668
1.937618613 -2.490773916 -0.83396703
2.219934702 -2.855742931 -0.8251171112
2.612620354 -3.362107277 -0.8193966746
3.091270685 -3.98093605 -0.7916100025
3.735694647 -4.816028118 -0.529532969
3.728683472 -4.813925266 -0.1055852622
3.077493429 -3.957487106 0.08680647612
3.388608217 -4.360703945 0.2872208655
3.391937017 -4.366560936 0.4800284207
3.700743437 -4.767532825 0.7359036803
3.701811314 -4.77234602 0.9499217272
3.687005281 -4.754972458 1.161326408
3.684756279 -4.755497932 1.378946662
3.6386168 -4.69933939 1.580918789
1.933635712 -2.503638029 -0.8360375762
2.214715481 -2.869645119 -0.8269166946
2.596071243 -3.364988565 -0.8178701401
3.149720669 -4.085567951 -0.8103821278
3.712782145 -4.821146011 -0.5286613703
3.704542875 -4.817400455 -0.1053758338
3.711341143 -4.807113647 0.1053060293
3.370926142 -4.369343758 0.287011534
3.388841391 -4.394151211 0.4817715585
3.688926458 -4.786710739 0.7368786335
3.692361355 -4.794629097 0.9517989159
3.676373243 -4.77559185 1.163234591
3.67407465 -4.776054382 1.381196141
3.619836569 -4.708948135 1.579883575
1.915480614 -2.498108149 -0.8318964839
2.214167118 -2.889733315 -0.8305159211
2.601023197 -3.395851135 -0.823212862
3.164255142 -4.134185791 -0.8178910613
3.710452318 -4.853069782 -0.5307531357
3.69619894 -4.84142828 -0.1056201681
3.70062089 -4.827974796 0.1054805443
3.364154816 -4.392182827 0.2877442241
3.378327608 -4.412281036 0.4824687839
3.679432869 -4.809018135 0.7383410931
3.674402714 -4.80591917 0.9514860511
3.672794342 -4.805553913 1.167432308
3.666843414 -4.801239967 1.384795427
3.617441416 -4.739984035 1.586095214
1.909089446 -2.50785327 -0.832931757
2.208785772 -2.903648615 -0.8323155046
2.58321166 -3.397095442 -0.8213047385
3.18804884 -4.195536137 -0.8279027939
3.698307514 -4.872340202 -0.5314503908
3.684108257 -4.860676289 -0.105759792
3.684956551 -4.842454433 0.1055154577
3.357265234 -4.415027618 0.288476944
3.360494137 -4.420874596 0.4821201861
3.669827938 -4.831316948 0.7398035526
3.667159319 -4.831303596 0.9539890289
3.655997753 -4.818344593 1.167432308
3.658303499 -4.824880123 1.387944698
3.584540367 -4.731024742 1.578848243
1.909641981 -2.526831865 -0.8370729089
2.182194948 -2.889569521 -0.8260169029
2.586715221 -3.426461458 -0.8262657523
3.278072357 -4.345413208 -0.8554352522
3.687272549 -4.893176079 -0.5323218703
3.679141998 -4.889484882 -0.1061088368
3.671646833 -4.86007452 0.1056201681
3.357477427 -4.447442532 0.2898376882
3.357043266 -4.44848156 0.4838632941
3.660112619 -4.853606701 0.741265893
3.65859437 -4.855118752 0.9561790824
3.640337467 -4.832645416 1.167813897
3.650814772 -4.850076199 1.391543865
3.574971914 -4.752771854 1.581954122
1.905447364 -2.539663553 -0.8391433954
2.18495369 -2.91432023 -0.8309657574
2.578271151 -3.440182924 -0.8274106383
3.269989252 -4.366316319 -0.8573125005
3.676137686 -4.913994312 -0.533193469
3.674019575 -4.918318272 -0.1064578816
3.666658401 -4.888858795 0.1059692204
3.344327927 -4.462331295 0.2900469899
3.351051092 -4.472929478 0.4852577746
3.643147707 -4.866353512 0.741265893
3.651090622 -4.880513191 0.9586820006
3.634028435 -4.859473705 1.171248555
3.626863241 -4.853424072 1.388844371
3.571074486 -4.782248497 1.587648034
1.896570802 -2.546299219 -0.8391433954
2.172440529 -2.918803215 -0.8300659657
2.562731266 -3.44443655 -0.8262657523
3.301872015 -4.441114426 -0.8698272705
3.67440486 -4.947589874 -0.5354595184
3.649682283 -4.92147541 -0.1062484533
3.655541658 -4.909647942 0.1061437428
3.326346874 -4.470773697 0.2898376882
3.349685669 -4.503783226 0.48734954
3.635612011 -4.891787052 0.7432158589
3.634032249 -4.893228054 0.9586820006
3.626405239 -4.884739399 1.174301386
3.62034893 -4.880140305 1.392893553
3.55896163 -4.80089283 1.589718699
1.885373831 -2.549797535 -0.838108182
2.164555073 -2.929503202 -0.8309657574
2.54719305 -3.448623419 -0.8251209259
3.313329458 -4.48916769 -0.8770232201
3.65356493 -4.955574989 -0.5349366069
3.63248086 -4.934185505 -0.1062484533
3.641947269 -4.927202225 0.1062484533
3.339199305 -4.520914078 0.2923497856
3.330394268 -4.510640144 0.4868265986
3.627942562 -4.917226791 0.7451657653
3.619273901 -4.909063816 0.9593077898
3.617485762 -4.908432007 1.176972866
3.612537622 -4.905301094 1.396492839
3.546761751 -4.819509983 1.591789246
1.874175668 -2.553248405 -0.8370729089
2.164689302 -2.951183081 -0.8350149393
2.55139184 -3.479659319 -0.8304635286
3.291801691 -4.492739201 -0.8754589558
3.106813431 -4.243367672 -0.6406018734
3.642127991 -4.976336479 -0.535808146
3.632933855 -4.971052647 -0.1067720279
3.631823778 -4.949558735 0.1064578816
3.625733852 -4.944876671 0.3191457987
3.617332935 -4.935225487 0.5316246748
3.615448475 -4.936266899 0.7461407185
3.609116077 -4.931231499 0.9611849785
3.599171162 -4.919444084 1.176591158
3.602293015 -4.927320004 1.399192214
3.536754847 -4.841220856 1.594895124
1.867527008 -2.562897444 -0.838108182
2.154374599 -2.958721399 -0.8350149393
2.529987574 -3.475846052 -0.8274106383
3.238917351 -4.453082085 -0.865447104
3.091982126 -4.25418663 -0.6406018734
3.638788462 -5.00836277 -0.5378998518
3.041508436 -4.189351559 -0.2691126168
3.61334753 -4.960589886 0.1064229831
3.61785388 -4.970420837 0.3199831843
3.612978458 -4.965544701 0.5335420966
3.601697206 -4.95367384 0.7468718886
3.598847628 -4.953389168 0.9630622268
3.588899374 -4.94150877 1.178880811
3.598806858 -4.958790302 1.404590964
3.51983428 -4.853537083 1.594895124
1.865363002 -2.578792334 -0.8412139416
2.137183905 -2.956747293 -0.8323155046
2.525887489 -3.495795012 -0.8300819397
3.241855145 -4.489985943 -0.8704530001
3.07711339 -4.26495409 -0.6406018734
3.631773233 -5.035577297 -0.5394687057
3.026866198 -4.199943066 -0.2691126168
3.002152681 -4.168718338 -0.08897057176
3.60889864 -4.990997314 0.1068069339
3.60048151 -4.983019352 0.3199831843
3.602622986 -4.987816811 0.5345879793
3.591354132 -4.97587347 0.7483343482
3.590779305 -4.978737354 0.965565145
3.573924065 -4.957191467 1.179644108
3.576919556 -4.964997768 1.402791381
3.507385254 -4.872065544 1.596965671
1.86085701 -2.591564894 -0.8432845473
2.132529974 -2.972106218 -0.8345649838
2.512525558 -3.502995968 -0.8297003508
3.231915712 -4.509302139 -0.872017324
3.004415274 -4.194975376 -0.6284149289
3.619972467 -5.056323528 -0.5403402448
2.983135223 -4.169873238 -0.2664958239
2.9724648 -4.158024788 -0.0885168165
3.594477892 -5.013315678 0.5359824896
3.578588247 -4.994833946 0.7493093014
3.57567811 -4.994454384 0.9661909342
3.568024635 -4.985602379 1.183460355
3.561833382 -4.980623722 1.403691173
3.507205009 -4.907854557 1.604730129
1.845071435 -2.588605881 -0.8401786685
2.121012449 -2.977944851 -0.8341151476
2.502559423 -3.514943123 -0.8304635286
3.239058495 -4.552748203 -0.8782746792
3.017358303 -4.24426651 -0.634264648
3.573446512 -5.028327942 -0.5359824896
2.982438326 -4.199801922 -0.2677519023
2.963718653 -4.176528931 -0.08869133145
3.405747414 -4.783506393 0.3055384457
3.578111649 -5.02745533 0.5361567736
3.56918478 -5.018619537 0.7510154843
3.559366465 -5.008515358 0.9665037394
3.559695482 -5.010830402 1.186513186
3.553450584 -5.005739212 1.407290459
3.507935762 -4.945278168 1.613012314
1.836024404 -2.595030546 -0.8401786685
2.124104023 -3.00442481 -0.8395139575
2.497073174 -3.533277273 -0.8327532411
3.137683153 -4.4430089 -0.8548095226
3.002524614 -4.25477314 -0.634264648
3.005733728 -4.26405859 -0.2712060809
2.951424837 -4.19011879 -0.08876114339
3.389029026 -4.795365334 0.3055384457
3.565139294 -5.046422958 0.5368540287
3.563092947 -5.047264576 0.7534528971
3.552110434 -5.035437107 0.969319582
3.544445753 -5.026434422 1.187276483
3.553915262 -5.043600082 1.414488912
3.493988752 -4.962232113 1.614565253
1.824734449 -2.598261833 -0.8391433954
2.094573498 -2.984703779 -0.8318656087
2.479087591 -3.533935785 -0.8308452368
3.124423027 -4.457169056 -0.8554352522
2.987654686 -4.265227795 -0.634264648
3.06742692 -4.380739689 -0.464166075
2.99770093 -4.284342766 -0.2718340755
2.939805984 -4.203160286 -0.08883094788
2.940243244 -4.188202858 0.08862151951
3.549790144 -5.06210041 0.5372026563
3.548870087 -5.064548492 0.7541841269
3.544459105 -5.06013155 0.9718225002
3.526878595 -5.038775921 1.187276483
3.532937527 -5.051184654 1.413139224
3.491904736 -4.994373322 1.621294618
1.826701164 -2.62046361 -0.8443198204
2.099148035 -3.01241827 -0.8377143741
2.486930132 -3.571568489 -0.8377143145
3.11639595 -4.47723341 -0.8573125005
3.002964497 -4.317482948 -0.6406018734
3.567215681 -5.13255024 -0.5431292057
2.983476877 -4.294260025 -0.2718340755
2.926256657 -4.215039253 -0.0888658613
2.91375947 -4.179884911 0.08823756874
3.538927555 -5.084272385 0.538248539
3.534323692 -5.079547882 0.7546715736
3.536923409 -5.087070465 0.9746383429
3.51799345 -5.061728954 1.189947844
3.5261724 -5.077277184 1.417188287
3.508594275 -5.055733204 1.63734138
1.818001509 -2.626506805 -0.8443198204
2.084185839 -3.013316393 -0.835914731
2.465023994 -3.565262079 -0.834279716
3.017658472 -4.367818356 -0.8341601491
2.942764282 -4.262595177 -0.6308523417
3.558097124 -5.155830383 -0.5443493724
2.98434329 -4.327667713 -0.2732995152
2.913794994 -4.228521347 -0.08893566579
2.925321102 -4.227852821 0.0890403837
3.537907124 -5.118925571 0.5406888723
3.524467707 -5.103287697 0.756377697
3.520266056 -5.101011276 0.9749512076
3.511451244 -5.090137959 1.193763971
3.508428097 -5.089555264 1.417188287
3.495308399 -5.074313164 1.639411926
1.804446459 -2.626467466 -0.8422492743
2.081375122 -3.031819105 -0.839064002
2.445898771 -3.564132452 -0.8319900632
3.01133132 -4.391358376 -0.8366631866
2.916646004 -4.256466389 -0.6284149289
3.549086094 -5.181369305 -0.5457438827
2.926393986 -4.261116028 0.08952904493
3.523398399 -5.136173248 0.5412117839
3.511122465 -5.122108936 0.7573527098
3.508020401 -5.121417046 0.9765155911
3.501426458 -5.113703728 1.196435332
3.503845215 -5.121070385 1.422587037
3.491748571 -5.107214928 1.646141291
1.799620867 -2.639134645 -0.8443198204
2.072974205 -3.042287111 -0.8399638534
2.437863588 -3.579139233 -0.8335165381
2.957588196 -4.348692894 -0.6406018734
3.533218622 -5.197021484 -0.5460925102
2.882218361 -4.228343487 0.08862151951
3.13251853 -4.598993778 0.2894189656
3.512176752 -5.158322334 0.5422576666
3.504387379 -5.150746346 0.7597901225
3.495675564 -5.141798973 0.978079915
3.486865044 -5.130765915 1.197580218
3.49032712 -5.139719009 1.424386621
3.479323149 -5.127364635 1.648729444
1.790397525 -2.645400286 -0.8443198204
2.067800522 -3.057575703 -0.8422133923
2.429753542 -3.5941329 -0.8350430131
2.843486071 -4.209299564 -0.7978673577
2.942390442 -4.358990192 -0.6406018734
3.522856951 -5.220883846 -0.5473127365
2.840603113 -4.212953568 -0.2640883625
2.869682312 -4.241691113 0.08869133145
3.132106781 -4.633065701 0.2908844054
3.503073931 -5.183756351 0.5436521769
3.488608837 -5.166237831 0.7602775693
3.490964651 -5.17361927 0.981834352
3.470031738 -5.144533634 1.197961807
3.478900194 -5.161566734 1.427086115
3.470037699 -5.152297497 1.652870536
1.789769888 -2.664463043 -0.8484609127
2.05059886 -3.055066586 -0.8395139575
2.428131104 -3.618895531 -0.8388591409
2.841975927 -4.238888741 -0.8016218543
2.927156925 -4.369234562 -0.6406018734
3.510347605 -5.243694782 -0.5483585596
2.839209557 -4.242762089 -0.2653444409
2.841132879 -4.248844624 -0.0885168165
2.937349558 -4.374535084 0.09127429128
3.496055841 -5.212499619 0.5453952551
3.474974632 -5.184979916 0.7612524629
3.483875751 -5.202187061 0.9849630594
3.457514048 -5.164772511 1.199869871
3.464112282 -5.178538322 1.428435802
3.462767363 -5.180439949 1.658046961
1.782134771 -2.674220085 -0.8494961858
2.044243574 -3.068693399 -0.8413135409
2.412675142 -3.624501705 -0.8380959034
2.911887646 -4.379425526 -0.6406018734
3.503047943 -5.272510529 -0.5501016974
2.863408566 -4.313041687 -0.2691126168
3.485757351 -5.238548756 0.5467897654
3.467848063 -5.213606358 0.7636898756
3.465695381 -5.214316368 0.9849630594
3.452681065 -5.198670864 1.204830885
3.450496197 -5.199318886 1.430685401
3.453206778 -5.205374241 1.662188053
1.768526435 -2.673979521 -0.8474256396
2.032982349 -3.076165199 -0.8413135409
2.40650177 -3.642730236 -0.8403856158
2.933457136 -4.44375658 -0.8366631866
2.895816565 -4.390069008 -0.6406018734
3.48462224 -5.284706593 -0.5501016974
2.848335505 -4.323010921 -0.2691126168
3.471842289 -5.257334232 0.5474870205
3.455276251 -5.236223221 0.7651523352
3.448735952 -5.230282307 0.985588789
3.447478294 -5.230361938 1.20941031
3.440901756 -5.224350929 1.434284568
3.434104681 -5.217995644 1.662188053
1.754941583 -2.673676252 -0.8453550339
2.025438547 -3.088131428 -0.8426632285
2.386236429 -3.639615059 -0.8377143145
2.909267187 -4.440750122 -0.8341601491
2.880474806 -4.400150299 -0.6406018734
3.469426632 -5.301840305 -0.550624609
3.453469276 -5.269421577 0.5474870205
3.445677996 -5.261538029 0.7671022415
3.442355156 -5.26047039 0.9890303612
3.433499336 -5.248935699 1.210936785
3.433306217 -5.252641678 1.438783526
3.420095444 -5.236420631 1.66425848
1.751924396 -2.689498186 -0.8484609127
2.014646769 -3.095182896 -0.8426632285
2.38743639 -3.669315338 -0.8426753283
2.91528368 -4.484000206 -0.8404175639
3.453068972 -5.317260742 -0.5509732366
3.438313246 -5.286455154 0.548009932
3.428372383 -5.275197983 0.7673459649
3.428275347 -5.279081821 0.9902818203
3.418363094 -5.265829086 1.212081671
3.422373533 -5.276039124 1.441932917
3.411252737 -5.262917519 1.668917298
1.742525697 -2.695597172 -0.8484609127
2.005944967 -3.105470419 -0.8435630798
2.373548746 -3.675977707 -0.8422937393
2.899613619 -4.494149685 -0.8404175639
3.433408737 -5.327606678 -0.5507989526
3.395426273 -5.258586407 0.3258447945
3.417678356 -5.29507637 0.5476613045
3.403481722 -5.277123928 0.7658835649
3.410897732 -5.292675972 0.9905946255
3.40315032 -5.282680035 1.213226438
3.40499115 -5.289591789 1.442382812
3.398086071 -5.282916546 1.67150557
1.739364266 -2.711419582 -0.8515667319
1.991937637 -3.107531548 -0.8422133923
2.363880157 -3.689199209 -0.8434386253
2.88390851 -4.504243374 -0.8404175639
3.372926712 -5.274097443 -0.5440008044
3.415693521 -5.328668594 0.3295083344
3.416367769 -5.333818436 0.550450325
3.392531633 -5.300675392 0.7675896883
3.389068842 -5.297302723 0.9893431664
3.382575035 -5.291219234 1.21246326
3.37916255 -5.289949894 1.439233541
3.394064665 -5.315322876 1.678234816
1.723664522 -2.707696438 -0.8484609127
1.981621623 -3.114120245 -0.8422133923
2.34677434 -3.690801382 -0.8419120908
2.862598181 -4.503779888 -0.8385403752
3.415513992 -5.377838135 -0.7770954967
3.395063877 -5.349763393 -0.550624609
3.378776073 -5.326153755 -0.3283569515
3.413765669 -5.362668514 0.1102625057
3.406719685 -5.355726242 0.3304503858
3.404141188 -5.355799675 0.5514962077
3.396225929 -5.345407009 0.7724644542
3.380086422 -5.324109077 0.992159009
3.37763381 -5.32229805 1.217042685
3.368906975 -5.312646389 1.442382812
3.363081932 -5.307556152 1.672023177
1.712612152 -2.710131407 -0.8474256396
1.981143832 -3.137495756 -0.8467124104
2.337666273 -3.703543425 -0.8430569172
2.846859455 -4.513745308 -0.8385403752
3.405188084 -5.403162956 -0.7790454626
3.415535927 -5.42168045 -0.5568998456
3.404851913 -5.408905983 -0.3327531517
3.395348549 -5.397986889 -0.110611558
3.40356946 -5.388076782 0.110541746
3.400797367 -5.387852192 0.3317064345
3.388488293 -5.370428562 0.5518447757
3.390250444 -5.377379417 0.7753893733
3.380433559 -5.365960121 0.997790575
3.37786603 -5.363959789 1.223911762
3.36383462 -5.345815659 1.448231578
3.348647594 -5.325805187 1.674093723
1.713404536 -2.732459784 -0.852602005
1.975353122 -3.152648926 -0.8489618897
2.325766325 -3.713345289 -0.8434386253
2.828990221 -4.520305634 -0.8379146457
2.893724203 -4.627331734 -0.6649757028
3.402926445 -5.443706512 -0.5579457283
3.392298937 -5.430921555 -0.333381176
3.387073278 -5.42677021 -0.1109606028
3.394299507 -5.415174484 0.1108558849
3.390450478 -5.413232327 0.3325438201
3.378180027 -5.395733356 0.5532392859
3.371459723 -5.38918066 0.7753893733
3.365870714 -5.384427547 0.9990421534
3.36120224 -5.379047871 1.224675059
3.364763021 -5.388931274 1.456779599
3.349466324 -5.368602276 1.683928847
1.701814771 -2.735143661 -0.8515667319
1.956105113 -3.146285057 -0.8453626633
2.321080685 -3.734780788 -0.8464915156
2.815278769 -4.533509254 -0.8385403752
2.854527712 -4.600296497 -0.6596134901
3.369303465 -5.434128761 -0.5556796193
3.374372721 -5.444427967 -0.3334858716
3.359686375 -5.42495966 -0.1106813699
3.339467764 -5.36925602 0.1096691266
3.365208864 -5.414855957 0.331915766
3.371941566 -5.427802086 0.5553310513
3.356814861 -5.407662868 0.7763643265
3.355384588 -5.409573555 1.001545072
3.348613262 -5.400758743 1.226964712
3.35003686 -5.407269955 1.458579302
3.341891289 -5.398329735 1.68962276
1.695836663 -2.747938633 -0.8536372781
1.94817996 -3.158069849 -0.8467124104
2.298104525 -3.728221178 -0.8430569172
2.81936264 -4.57743597 -0.8447977304
2.825963736 -4.589947224 -0.6566886306
2.833542109 -4.605855942 -0.4693954587
3.362714291 -5.472432613 -0.1114143655
3.275547028 -5.307705879 0.108168222
3.276049376 -5.312668324 0.3249027729
3.360385895 -5.453694344 0.556725502
3.34832859 -5.436249733 0.7788016796
3.342693806 -5.431346416 1.00342226
3.343193293 -5.436409473 1.232307434
3.333256721 -5.42449379 1.459928989
3.329093218 -5.419838905 1.692728639
1.686234236 -2.753841639 -0.8536372781
1.942694664 -3.175162315 -0.8494117856
2.273808718 -3.717797518 -0.8388591409
2.795126438 -4.573765278 -0.8422947526
2.809121847 -4.600274086 -0.6566886306
2.811218977 -4.60551548 -0.468349576
2.810129642 -4.607346535 -0.2806265354
3.235192776 -5.285564899 0.107470125
3.23976469 -5.295108318 0.3231233358
3.344445944 -5.470490456 0.5572484732
3.34079957 -5.468814373 0.7817265391
3.319596767 -5.436238289 1.002170801
3.333399534 -5.463128567 1.235741973
3.32444644 -5.45273447 1.464428067
3.318197489 -5.444623947 1.69686985
1.67460537 -2.756408453 -0.852602005
1.92203927 -3.16493082 -0.8449127674
2.287297726 -3.76935029 -0.8487812281
2.779943705 -4.583009243 -0.8422947526
3.350498915 -5.527975082 -0.7885512114
2.795125246 -4.615300179 -0.468349576
2.804144621 -4.632016659 -0.2815685868
2.800718307 -4.630004406 -0.0937525332
3.198958397 -5.265501022 0.1068418324
3.201569557 -5.273946762 0.3211345673
3.328429937 -5.487242222 0.5577713847
3.327791452 -5.488349438 0.7829452157
3.32107234 -5.481582642 1.008428216
3.308145761 -5.462398052 1.233070612
3.316435099 -5.480401039 1.468927026
3.301170588 -5.459479332 1.697905064
1.669445753 -2.768564224 -0.8546725512
1.91902566 -3.184973955 -0.8485119939
2.274785995 -3.776914597 -0.8487812281
2.778189898 -4.616380215 -0.8466749787
3.339366198 -5.553246975 -0.7905011773
3.33922267 -5.555203438 -0.5633493662
3.330935478 -5.545799732 -0.3368353546
2.788655043 -4.646610737 -0.09389214963
3.102102757 -5.146475792 0.1041890681
3.107916832 -5.16019392 0.31349352
3.323575258 -5.520439148 0.5600374341
3.308613777 -5.499931812 0.7829452157
3.308023691 -5.50330019 1.010305405
3.291080713 -5.477278233 1.233833909
3.305309296 -5.505310059 1.472526193
3.29203248 -5.487535477 1.703081369
1.661755204 -2.777690172 -0.8557078242
1.905896425 -3.188308001 -0.8476122022
2.256552935 -3.776405811 -0.8468731046
2.755982637 -4.615873337 -0.8447977304
3.332165956 -5.585327148 -0.7934260368
3.332057238 -5.587359905 -0.565441072
3.317690849 -5.567687988 -0.3374633789
3.318716764 -5.573832512 -0.1125313193
3.312458277 -5.545691013 0.5614319444
3.288378 -5.509743214 0.7827014923
3.294864416 -5.524992943 1.012182593
3.284005165 -5.50896883 1.238413334
3.285074949 -5.515140057 1.472076416
3.285701513 -5.52057457 1.709810734
1.659937263 -2.796764135 -0.8598489165
1.89276731 -3.191589117 -0.8467124104
2.240353346 -3.779193163 -0.8457282186
2.745893478 -4.635663033 -0.8466749787
3.316694021 -5.603757381 -0.79440099
3.316591263 -5.605815887 -0.5661383271
3.304333925 -5.589550972 -0.338091433
3.299240112 -5.585383415 -0.1125313193
3.031406879 -5.109533787 0.1030023098
3.01478076 -5.085554123 0.30763188
3.305268526 -5.57778883 0.5635236502
3.287330151 -5.551934719 0.7870888114
3.281593323 -5.5466609 1.014059782
3.274748802 -5.537296772 1.242229462
3.270760775 -5.534962177 1.474325895
3.273286581 -5.543654919 1.7134341
1.644283295 -2.792553425 -0.8567431569
1.89248538 -3.216652155 -0.8516612649
2.235110283 -3.800528526 -0.8487812281
2.731696844 -4.648626328 -0.8473007083
3.301132917 -5.622148037 -0.7953759432
3.305070877 -5.631104946 -0.5675328374
3.300969362 -5.628615856 -0.3397661746
3.292867184 -5.619294167 -0.1129850894
2.978051424 -5.059766769 0.1017806381
3.001061201 -5.10293293 0.3080506027
3.290826321 -5.597879887 0.5643951893
3.274967909 -5.575357437 0.7887949944
3.264211416 -5.561489582 1.014685631
3.267321587 -5.569014549 1.246808887
3.260289669 -5.561475277 1.478374958
3.253916025 -5.555046558 1.7134341
1.632576585 -2.794939518 -0.8557078242
1.890086412 -3.238386154 -0.8557104468
2.221830368 -3.808307409 -0.8487812281
2.707495213 -4.644480228 -0.8447977304
3.289481163 -5.647359371 -0.7973257899
3.291410446 -5.652938366 -0.5685787201
3.284314871 -5.645283699 -0.3400802016
3.280266523 -5.642856121 -0.1132294163
2.957347393 -5.064950466 0.1016759202
2.950016737 -5.05644846 0.3045964241
3.271265984 -5.609333038 0.5643951893
3.264481544 -5.602191925 0.7909886837
3.260682106 -5.60016346 1.019691467
3.249836922 -5.583778858 1.247572184
3.251632929 -5.59135294 1.483323812
3.244211435 -5.58307457 1.718610525
1.622810245 -2.800621271 -0.8557078242
1.874864936 -3.238218307 -0.8539108634
2.212456703 -3.822836637 -0.850307703
2.70708847 -4.681263924 -0.8498036861
3.277693033 -5.672558308 -0.7992757559
3.277636766 -5.674744606 -0.5696246028
3.278565407 -5.680931568 -0.3415456116
3.270538568 -5.671595097 -0.1135784686
2.939649105 -5.075242519 0.1016759202
2.93434906 -5.07017231 0.3048057556
3.260645628 -5.636238575 0.5659640431
3.246893167 -5.616989613 0.7914761305
3.245065928 -5.61835289 1.020942926
3.23621583 -5.60529089 1.249861836
3.24183321 -5.619549274 1.48782289
3.232420921 -5.607754707 1.722751737
1.618800998 -2.816318035 -0.8588136435
1.858697176 -3.236293554 -0.8516612649
2.199099064 -3.830536366 -0.850307703
2.704491854 -4.714673519 -0.8541837931
3.263795614 -5.694297791 -0.8007382154
3.264741182 -5.698252678 -0.5708447695
3.257723331 -5.690607548 -0.3414409459
3.258663893 -5.696863174 -0.1138577014
2.925899744 -5.092408657 0.1018155366
2.917627573 -5.082116604 0.3049104214
3.248884916 -5.661410809 0.5673585534
3.233191013 -5.638621807 0.7929385304
3.237218618 -5.650215149 1.024697423
3.228338718 -5.636996269 1.254441261
3.224133968 -5.634213448 1.488722682
3.217621088 -5.627389431 1.72533977
1.612787843 -2.82866478 -0.8608842492
1.848353982 -3.244455099 -0.8521112204
2.193486929 -3.851837873 -0.8533607125
2.678249121 -4.706915855 -0.8510551453
3.248804331 -5.71428442 -0.801956892
3.250736952 -5.720006466 -0.5718905926
3.245729446 -5.715838909 -0.3422783017
3.242705584 -5.71516037 -0.1139973253
2.909096241 -5.104328632 0.10185045
2.90184617 -5.095740795 0.3051197529
3.236002445 -5.684837818 0.5685787201
3.22526598 -5.670579433 0.7958634496
3.222355604 -5.670066833 1.026261687
3.216400146 -5.661887646 1.257494211
3.208294868 -5.652213097 1.490522265
3.210348368 -5.660431385 1.732069135
1.602904081 -2.834277153 -0.8608842492
1.846604586 -3.267853498 -0.8566102386
2.178097248 -3.856051922 -0.8525974154
2.675395489 -4.740320206 -0.8554352522
3.235663414 -5.737693787 -0.8036630154
3.241512775 -5.750411987 -0.573808074
3.237519503 -5.748016357 -0.3435343802
3.224698067 -5.729929447 -0.1140671298
2.902086496 -5.133600235 0.1022344008
2.892882109 -5.121490002 0.3060618043
3.221037388 -5.704773426 0.5694502592
3.212279797 -5.69390583 0.7975695729
3.207393885 -5.689885139 1.027826071
3.19950819 -5.678211689 1.258639097
3.200973749 -5.685452461 1.496371031
3.194358349 -5.678338051 1.734139681
1.592055678 -2.83817029 -0.8603665829
1.829469681 -3.264079809 -0.8539108634
2.170381308 -3.873908281 -0.8548871279
2.664621592 -4.759972095 -0.8573125005
3.225306273 -5.76627779 -0.8061004281
3.229199171 -5.775603294 -0.5752025247
3.223279715 -5.769744396 -0.3441624045
3.217347383 -5.763850212 -0.1145208925
2.883171082 -5.141955376 0.1021994948
2.880844355 -5.142012119 0.3066898584
3.204024553 -5.721197128 0.5699731708
3.201108694 -5.720674992 0.7997632027
3.196189404 -5.716563702 1.030641913
3.192118883 -5.711624622 1.263600111
3.187759161 -5.708501339 1.499520302
3.180165768 -5.699576378 1.73724556
1.580260158 -2.840333939 -0.8593313098
1.819958329 -3.273852587 -0.8548106551
2.155891657 -3.879744291 -0.8545054793
2.649907827 -4.772698879 -0.8579382896
3.214788675 -5.794859886 -0.8085377812
3.212883711 -5.793809414 -0.5758997798
3.20505619 -5.784454346 -0.344371736
3.207862377 -5.794290543 -0.1149048507
2.870064259 -5.16072607 0.1023740172
2.870638609 -5.166003227 0.3075272143
3.194676161 -5.751505375 0.5718905926
3.186901093 -5.742228508 0.8012256622
3.186753273 -5.746688366 1.034083486
3.16835475 -5.715863705 1.262073517
3.176310539 -5.734936714 1.503569484
3.167734146 -5.724164963 1.741386652
1.575936198 -2.855981112 -0.862437129
1.808519721 -3.280185223 -0.8548106551
2.142335653 -3.88724637 -0.8545054793
2.625608683 -4.76807642 -0.8554352522
3.201239586 -5.818221569 -0.8102440238
3.205121756 -5.827684879 -0.5781658292
3.189654589 -5.804358482 -0.3448950946
3.193391562 -5.815969944 -0.1151142716
2.858793259 -5.18296957 0.1026183516
2.855480194 -5.181240082 0.3078412414
3.179387093 -5.771348 0.5727621913
3.172580481 -5.763751507 0.8026880622
3.17524147 -5.773355484 1.036899328
3.157841921 -5.744092464 1.265889764
3.160026073 -5.752820969 1.505369067
3.156099796 -5.750428677 1.746045351
1.565957308 -2.861464739 -0.862437129
1.795188785 -3.283058643 -0.8539108634
2.136286259 -3.908482552 -0.8575584292
2.624098539 -4.804951668 -0.8604412079
3.180910587 -5.829360485 -0.8102440238
3.197162151 -5.861575603 -0.5804318786
3.181798935 -5.838255882 -0.3462558389
3.174027443 -5.828837395 -0.1151491851
2.846441984 -5.203443527 0.1028277799
2.839292765 -5.194681168 0.3080506027
3.174506426 -5.810385704 0.5755511522
3.159099817 -5.786987782 0.8043942451
3.159798622 -5.793074608 1.038463593
3.147169828 -5.77231741 1.269705892
3.146451473 -5.77579546 1.508518338
3.148937702 -5.785165787 1.753292322
1.554116368 -2.863517761 -0.8614018559
1.789291382 -3.299583435 -0.8566102386
2.130115271 -3.929723501 -0.8606113791
2.607309818 -4.814082146 -0.8604412079
3.172825336 -5.863123894 -0.8134126067
3.155827522 -5.834146976 -0.5765970349
3.168997049 -5.863383293 -0.3470931947
3.162213087 -5.855716705 -0.1154633239
2.838750362 -5.232682705 0.1032117382
2.828757286 -5.218606949 0.3088879585
3.161798477 -5.835445881 0.5769456625
3.149276018 -5.817182541 0.8070754409
3.148016214 -5.81970644 1.041279435
3.136339188 -5.800538063 1.273522139
3.136459589 -5.805603981 1.513467431
3.128724337 -5.796122074 1.753292322
1.538617849 -2.858718872 -0.8582960367
1.786992431 -3.322972059 -0.8611092567
2.110807657 -3.926759958 -0.8583217263
2.590489626 -4.823153973 -0.8604412079
3.17017436 -5.90739727 -0.8180435896
3.162756443 -5.896043777 -0.5816521049
3.157946348 -5.892012596 -0.3481399119
3.149305582 -5.880822182 -0.1157425642
2.822362185 -5.246081829 0.1032815427
2.817143202 -5.240764141 0.3096206486
3.143295527 -5.849957466 0.5772942901
3.136463165 -5.842131615 0.8090252876
3.13421917 -5.842844486 1.043469548
3.12534976 -5.828753471 1.277338386
3.121696711 -5.826823235 1.516166806
3.109384537 -5.808711529 1.753809929
1.532268047 -2.870889425 -0.8603665829
1.777216077 -3.332628727 -0.8620090485
2.103552341 -3.946231604 -0.8609930277
2.584780931 -4.853089333 -0.8641956449
3.159792423 -5.937703609 -0.8207247853
3.14776969 -5.917601585 -0.582697928
3.141109228 -5.910054684 -0.3485586047
3.142826796 -5.918271542 -0.1162661314
2.811563492 -5.270016193 0.1035607904
2.812924862 -5.277003288 0.3111907542
3.13128829 -5.876718998 0.5788630843
3.119782686 -5.860053062 0.8100002408
3.125864744 -5.876421452 1.04753685
3.109593153 -5.848293781 1.279246449
3.115052223 -5.863498688 1.522915244
3.091807127 -5.82464838 1.755362868
1.527659893 -2.886465073 -0.8634724617
1.761928678 -3.331921101 -0.860209465
2.092516661 -3.958757162 -0.8621379137
2.575204611 -4.876056194 -0.8666985631
3.140084743 -5.948149204 -0.8207247853
3.139178038 -5.951462746 -0.5849639773
3.12790966 -5.935118675 -0.3493959904
3.126912117 -5.93573761 -0.1164057627
2.795955896 -5.285100937 0.1036655009
2.792609453 -5.281005383 0.3108767271
3.121925116 -5.908751965 0.5809547901
3.10116148 -5.874418736 0.8104877472
3.11281395 -5.898984432 1.049726963
3.098316193 -5.876479626 1.283062577
3.095591784 -5.873796463 1.522915244
3.079675436 -5.848544121 1.759503961
1.523467422 -2.901777983 -0.8665782213
1.745438218 -3.327391148 -0.8575100303
2.076642752 -3.960458279 -0.8609930277
2.555354595 -4.877570152 -0.865447104
3.125868559 -5.969080448 -0.8221871853
3.127738714 -5.97772789 -0.5865327716
3.115613222 -5.959618568 -0.3502333462
3.111841917 -5.954935551 -0.1165802777
3.110637903 -5.93495512 0.582523644
3.098241091 -5.916324139 0.8148750067
3.095066786 -5.912774563 1.050352693
3.086090803 -5.900639057 1.286115527
3.081513405 -5.894391537 1.525614738
3.063841581 -5.86557436 1.761574626
1.510267377 -2.899960041 -0.8645076752
1.754184127 -3.371192932 -0.867407918
2.058062315 -3.956872463 -0.8587033153
2.548274755 -4.903544903 -0.8685758114
3.108672619 -5.98700285 -0.8231621385
3.114323139 -6.000445843 -0.5877529383
3.10686636 -5.991194248 -0.3514894247
3.100236177 -5.983516216 -0.1169293299
3.097373009 -5.957612038 0.5837438107
3.085010052 -5.938897133 0.8165811896
3.079868793 -5.934061527 1.052229881
3.078260422 -5.933495045 1.291076541
3.066300869 -5.915492535 1.528314114
3.036240578 -5.862510204 1.757433414
1.49836278 -2.901781559 -0.8634724617
1.738831639 -3.370368004 -0.8656082749
2.054136038 -3.983225822 -0.8629010916
2.507618189 -4.866755009 -0.8604412079
3.098658323 -6.018997192 -0.826086998
3.100651741 -6.025453091 -0.5891474485
3.094154119 -6.017988682 -0.3524314761
3.086640835 -6.00853157 -0.1172085702
3.079296589 -5.973700523 0.5842667222
3.078803301 -5.977866173 0.8204810023
3.065463305 -5.957072258 1.054419994
3.065611839 -5.959916592 1.29451108
3.055431128 -5.945225239 1.533263087
2.995461702 -5.833546638 1.745527744
1.495267034 -2.920750618 -0.8676134944
1.728831649 -3.379887342 -0.8665081263
2.045582056 -4.000860214 -0.865190804
2.50858736 -4.910661221 -0.8666985631
3.080336094 -6.03508091 -0.8268182278
3.085032701 -6.046888351 -0.5901933312
3.079477787 -6.041208267 -0.353164196
3.074723482 -6.037088871 -0.117557615
2.75836587 -5.390318871 0.104991883
3.071399689 -6.007210255 0.3513847589
3.066586018 -6.000380516 0.5858355761
3.056113005 -5.985040665 0.8199935555
3.056320667 -5.990611076 1.058487177
3.046572924 -5.974079609 1.295274377
3.050584555 -5.987109184 1.541361332
2.983845711 -5.86118269 1.75070405
