# .PCD v0.7 - Point Cloud Data file format
VERSION 0.7
FIELDS x y z
SIZE 4 4 4
TYPE F F F
COUNT 1 1 1
WIDTH 1251
HEIGHT 1
VIEWPOINT 0 0 0 1 0 0 0
POINTS 1251
DATA ascii
-3.819022655 4.145887375 0.8860964775
-3.860382318 4.192257404 1.099504352
-3.834788799 4.167379379 1.297514319
-3.821532726 4.155883789 1.501202583
-2.44396615 2.664318562 -0.9571649432
-2.878683805 3.140431166 -0.9735848308
-3.440284252 3.754410744 -0.9815843105
-3.529224873 3.854172468 -0.8210197091
-3.515467644 3.841840267 -0.634264648
-3.522135258 3.85047555 -0.4528358579
-2.201939821 2.408896923 -0.1688369364
-2.484709263 2.719197512 -0.06359477341
-2.542159796 2.772336483 0.06495606154
-2.7208426 2.968238115 0.2088216096
-2.979780197 3.252998352 0.3822396696
-3.80833292 4.16043663 0.6873996854
-3.833257198 4.189133167 0.8926666975
-3.809955597 4.166587353 1.089200735
-3.793926477 4.151968956 1.288516283
-3.768642902 4.125742912 1.485673308
-2.43465066 2.672833443 -0.9571649432
-2.881374359 3.164369106 -0.978083849
-2.774438143 3.049067259 -0.7930650711
-3.495157242 3.842474222 -0.816013813
-3.506714106 3.857883692 -0.6349958777
-3.527427435 3.883394003 -0.455276221
-2.159031153 2.377741098 -0.1661154628
-2.477890253 2.730815411 -0.06366458535
-2.562577248 2.813275099 0.06572397053
-2.697020292 2.962947369 0.2077748924
-3.823895931 4.205354214 0.6927619576
-3.786728859 4.167400837 0.8851578236
-3.756516457 4.135601521 1.077752113
-3.740844965 4.121237755 1.275019169
-3.717876673 4.098807812 1.471179605
-2.417996883 2.672297478 -0.9540590644
-2.870311737 3.174407005 -0.978083849
-2.72876668 3.018926382 -0.7827612758
-3.516150475 3.89276433 -0.8241484165
-3.545228958 3.929092884 -0.4592853785
-2.145368099 2.379329681 -0.1656967849
-2.487082958 2.760246515 -0.06415324658
-2.544692755 2.813304901 0.06551453471
-2.685322285 2.97086215 0.2076702267
-3.773273945 4.17889595 0.6861810088
-3.736428976 4.140995502 0.8767104149
-3.70918417 4.112243176 1.068211675
-3.697732687 4.102425098 1.265121341
-3.669930696 4.074439526 1.457720995
-2.413818359 2.686469316 -0.9561296105
-2.833173752 3.155407429 -0.9690858126
-2.707721233 3.016745329 -0.7797083855
-3.655539274 4.075596333 -0.8604412079
-3.565817118 3.978354931 -0.6508389115
-3.712310314 4.143252373 -0.4829917252
-2.075765371 2.318356514 -0.1608818769
-2.477432489 2.768911123 -0.06415324658
-2.558909893 2.848948479 0.06614282727
-2.650921822 2.953463554 0.2057861239
-3.709631443 4.137356281 0.6771626472
-3.692950964 4.121645927 0.8698272705
-3.662060738 4.088605404 1.058671236
-3.646999121 4.074650288 1.252524137
-3.632503033 4.061308384 1.448403478
-2.40699935 2.697761536 -0.9571649432
-2.827329636 3.171096087 -0.970885396
-2.671049595 2.996865749 -0.7720760107
-3.507035017 3.940361738 -0.6425517201
-3.740204811 4.203818798 -0.4885697067
-2.057042837 2.313647509 -0.1600444913
-2.458455563 2.767077446 -0.06390891969
-2.554273844 2.863832712 0.0662824437
-2.629965544 2.950770378 0.2049487531
-3.662166834 4.113214016 0.6710692048
-3.644401789 4.096140385 0.861692667
-3.619063377 4.069088936 1.050275683
-3.602978468 4.053854942 1.242176294
-3.592647791 4.045073509 1.438050628
-2.387318611 2.694579124 -0.9530237913
-2.826577902 3.192617655 -0.9744845629
-2.638452768 2.981178761 -0.765588522
-3.360030413 3.799157858 -0.7966158986
-3.58790946 4.059675217 -0.6601009369
-3.71099782 4.200423241 -0.4866522849
-2.022516966 2.290869236 -0.157951057
-2.454072952 2.781641245 -0.06404853612
-2.546912432 2.875725985 0.06635225564
-2.605088949 2.943480968 0.2037973553
-3.624119282 4.099202156 0.6666818857
-3.590845346 4.064424992 0.8523066044
-3.573646545 4.04638052 1.041116714
-3.563016891 4.037184238 1.233178258
-3.54272747 4.017021179 1.423556805
-2.380450487 2.705797195 -0.9540590644
-2.805122852 3.190756559 -0.970885396
-2.609885216 2.969725132 -0.7602458
-3.204667807 3.649079561 -0.7625132203
-3.671921015 4.184074879 -0.6783813238
-3.659522772 4.171415329 -0.4817715585
-2.014508486 2.297914743 -0.157951057
-2.453571796 2.800719261 -0.06429287046
-2.536859512 2.884598494 0.06635225564
-2.590842247 2.948056459 0.203483358
-3.58752346 4.086469173 0.6625383496
-3.553187132 4.050205708 0.8466749787
-3.533610106 4.029310226 1.03348434
-3.525783777 4.023216248 1.225080132
-3.501955986 3.998843431 1.412686467
-2.363364935 2.705360651 -0.9509532452
-2.8042202 3.212273121 -0.9744845629
-2.573686838 2.949232578 -0.7526135445
-3.487923384 3.999689579 -0.8338473439
-3.629906178 4.165439129 -0.6732628345
-3.6187644 4.154118538 -0.4782853127
-1.977624655 2.271790981 -0.1556482762
-2.435905933 2.800214529 -0.06408344209
-2.513621569 2.8783741 0.06600320339
-2.571343899 2.946547747 0.2027506381
-3.534105301 4.054075241 0.655226171
-3.511778831 4.03130579 0.8401046991
-3.495026588 4.013489246 1.026233673
-3.487411737 4.007568359 1.216531992
-3.461355925 3.980429173 1.40181601
-2.364033937 2.725268364 -0.9550943375
-2.757250309 3.180811882 -0.9618873596
-2.540234089 2.931491852 -0.7457444072
-3.41575098 3.944641113 -0.8197681904
-3.22696209 3.729249716 -0.6003850102
-3.574262142 4.13206768 -0.4742761552
-1.940948248 2.245438337 -0.1533454955
-2.496704102 2.890418291 -0.06596829742
-2.535000324 2.923389673 0.06684091687
-2.549271107 2.941920996 0.2018086016
-3.493948221 4.036369324 0.6503514051
-3.47313118 4.015153885 0.8341601491
-3.448893309 3.988538265 1.016693234
-3.444096565 3.985804081 1.206184149
-3.428500891 3.970556021 1.394051552
-2.359549761 2.739358902 -0.9571649432
-2.763928175 3.211094618 -0.9681859612
-2.504375696 2.910577297 -0.7381119728
-3.234536886 3.761823177 -0.7790952921
-3.157002449 3.674242735 -0.5896604657
-3.524766922 4.103710175 -0.4695697427
-1.929196 2.247653484 -0.1530314833
-2.533467054 2.953758717 -0.06722487509
-2.516951799 2.923128843 0.06663149595
-2.522051573 2.931120157 0.2004478574
-3.500540495 4.072628021 0.6542512178
-3.432066441 3.995783567 0.8275899291
-3.411928654 3.973741293 1.009824038
-3.400977135 3.963784933 1.195836425
-3.385699749 3.948767185 1.382145882
-2.34243989 2.738769293 -0.9540590644
-2.742574215 3.208871365 -0.9645867944
-2.480173111 2.902881861 -0.7339141965
-3.130318642 3.666425943 -0.7568815351
-3.100986242 3.63335371 -0.5813733339
-3.485856533 4.087185383 -0.4662578404
-1.901904941 2.231573105 -0.1514613926
-2.47697258 2.907345295 -0.06596829742
-2.514528751 2.941016674 0.06684091687
-2.509723186 2.936430454 0.2002385259
-2.488859653 2.916139126 0.4655974507
-3.384178638 3.966568947 0.8191425204
-3.375110865 3.958734512 1.00295496
-3.3625319 3.94537878 1.186838388
-3.340018034 3.92173481 1.368687272
-2.320836067 2.731799841 -0.948882699
-2.734439611 3.220920086 -0.9654865265
-2.457828999 2.896122456 -0.7300980687
-3.077257633 3.628577471 -0.7468698025
-3.052976847 3.601220369 -0.5745486617
-3.440086603 4.060719013 -0.4619000554
-1.868685126 2.207379818 -0.1493679583
-2.485402107 2.936914444 -0.0664569661
-2.484051704 2.924951315 0.0662824437
-2.505141497 2.950827837 0.2006572038
-2.486876965 2.933462143 0.4670598805
-3.349296093 3.952150106 0.8138237596
-3.332781792 3.935447216 0.9941777587
-3.326766253 3.929734707 1.178740144
-3.29580307 3.895915985 1.355746269
-2.316748619 2.745386362 -0.9509532452
-2.713694096 3.218051672 -0.9618873596
-2.439354658 2.89374876 -0.7274267077
-3.016847849 3.581351519 -0.734980762
-2.993088245 3.555664301 -0.5655303001
-3.41120863 4.053809643 -0.4598083198
-1.853641987 2.204393148 -0.1487399191
-2.508583546 2.985376358 -0.06736449152
-2.49496913 2.957627773 0.06684091687
-2.506412029 2.973297596 0.2015992552
-3.310043812 3.933587313 0.8075663447
-3.288119316 3.90891695 0.9846372008
-3.279173851 3.901046276 1.166592836
-3.25733161 3.877812862 1.345393538
-2.307150602 2.753457069 -0.9509532452
-2.7024436 3.227505445 -0.9618873596
-2.431758165 2.905258179 -0.7281899452
-2.962504148 3.54185915 -0.7246560454
-2.936099768 3.512782097 -0.556999445
-3.377873659 4.042758942 -0.4571936131
-1.825455308 2.186319828 -0.1470651776
-2.523768425 3.024824381 -0.06806258857
-2.530856133 3.021505594 0.06809749454
-2.492171526 2.977434635 0.201285243
-3.293754101 3.936493158 0.4453404844
-3.283060312 3.926496744 0.62329638
-3.277293205 3.922380686 0.8028733134
-3.24928236 3.890235901 0.9770048857
-3.235566616 3.876563549 1.155795217
-3.221504211 3.862454891 1.336076021
-2.297525883 2.761493444 -0.9509532452
-2.67122817 3.2129426 -0.9546889067
-2.4165833 2.907688618 -0.7266634703
-2.918571234 3.514186859 -0.7168343067
-2.914946795 3.512316227 -0.555293262
-3.335755825 4.020790577 -0.4533587992
-1.805065632 2.177302361 -0.1460184604
-2.53563714 3.048771381 0.06851635128
-3.276174545 3.943368196 0.444817543
-3.249047041 3.913494825 0.6193965673
-3.23583436 3.90034914 0.795990169
-3.206858635 3.866796255 0.9682276845
-3.200876713 3.862325668 1.148146868
-3.185822964 3.846893787 1.326758504
-2.285410643 2.766518116 -0.9499179721
-2.674884796 3.240280867 -0.9600877762
-2.412665844 2.92367816 -0.7285715342
-2.910057783 3.528924704 -0.7177729011
-2.900142908 3.519406796 -0.5548058152
-3.284964085 3.987812042 -0.4483037591
-1.788568616 2.172796249 -0.1452857554
-2.538985014 3.074565649 0.06890030205
-2.528528929 3.06408143 0.2059954703
-3.23322773 3.919431686 0.4408083558
-3.215162516 3.900304794 0.6154967546
-3.189545155 3.871977568 0.7878555655
-3.17586875 3.856750011 0.9628850222
-3.1613729 3.841874599 1.138698816
-3.144153833 3.823672056 1.314852834
-2.263489008 2.759541988 -0.9447416067
-2.689499378 3.281249285 -0.9695356488
-2.399957657 2.929044485 -0.7278082967
-2.897897243 3.54179883 -0.5567557216
-3.239487648 3.96069932 -0.4439459443
-1.76833415 2.163561344 -0.1442390382
-2.479835272 3.035166025 -0.06771353632
-2.51682663 3.069492102 0.06858616322
-2.524685383 3.080172539 0.2065188289
-3.189227819 3.893700361 0.4366248548
-3.171353817 3.874636412 0.6096470356
-3.151668787 3.85195756 0.7815982103
-3.138776302 3.838933468 0.9556342959
-3.129447222 3.83025074 1.131950378
-3.103350639 3.799663544 1.302947164
-2.251403093 2.764429808 -0.9437063336
-2.660148859 3.267480373 -0.9627870917
-2.403348207 2.954155684 -0.7320061326
-2.697769642 3.317236423 -0.6705297232
-2.879877329 3.543686152 -0.555537045
-3.211825609 3.954971313 -0.4420285523
-1.729680061 2.130647659 -0.1416222453
-2.480563164 3.057781219 -0.0680276826
-2.514211178 3.087123871 0.06879559159
-2.515178204 3.090516329 0.2066235095
-3.149218798 3.87234807 0.4329643548
-3.142207384 3.86510849 0.6064783931
-3.118275642 3.838403225 0.7765922546
-3.08889842 3.803601503 0.9441857338
-3.093396187 3.811858177 1.123402238
-3.07181716 3.787965059 1.295182586
-2.253157616 2.785398722 -0.9483650327
-2.631575108 3.255529404 -0.9564884901
-2.395488024 2.965582132 -0.7327693701
-2.82640624 3.500302792 -0.7058839202
-2.676764965 3.317350626 -0.5182450414
-2.630226612 3.262003899 -0.3628911376
-1.709327459 2.121421099 -0.1405755281
-2.395866632 2.974537373 -0.06596829742
-2.50719142 3.100547075 0.06890030205
-2.465461731 3.051118851 0.2033786774
-3.11757946 3.859521866 0.430349648
-3.09129262 3.829712629 0.5991662741
-3.078813314 3.816977501 0.7700220346
-3.057688951 3.793497324 0.9388431311
-3.050727844 3.786213398 1.112604618
-3.034343958 3.768571138 1.284829736
-2.246562243 2.798156977 -0.9499179721
-2.615967751 3.260592461 -0.9551388025
-2.383375168 2.972809792 -0.7323877215
-2.885209799 3.600040674 -0.7240303159
-2.860649824 3.571950197 -0.5567557216
-3.134890556 3.917186022 -0.4352304041
-1.691561818 2.11519289 -0.1397381425
-2.500817776 3.115952969 0.06903992593
-2.495498896 3.111550331 0.206832841
-3.08222723 3.844495773 0.4273863733
-3.053653955 3.811581135 0.5945352316
-3.04381609 3.802020073 0.7647032738
-3.024140358 3.78015089 0.9327372313
-3.011271477 3.765408278 1.103156567
-2.998801708 3.752503633 1.275512338
-2.225455761 2.792775631 -0.9452592731
-2.622207403 3.293026209 -0.9618873596
-2.365646839 2.971895695 -0.7300980687
-2.926101208 3.678613424 -0.7377966046
-2.853105068 3.588129997 -0.5577306747
-3.08773303 3.885986567 -0.4305239916
-1.676715732 2.111700296 -0.1391101032
-2.515544176 3.157944918 0.0697729215
-2.484621525 3.120242834 0.206832841
-3.04578495 3.827704906 0.4242487848
-3.026072025 3.805657148 0.5918540955
-3.003483534 3.778602839 0.7578201294
-2.985284805 3.758399725 0.9247231483
-2.97993207 3.753005505 1.096408129
-2.958067894 3.728140593 1.263606668
-2.208989382 2.791050673 -0.9421533942
-2.607647181 3.29711771 -0.9605376124
-2.376477957 3.005905151 -0.7365855575
-2.875923872 3.640246868 -0.7280976176
-2.847343206 3.605360508 -0.5589494109
-3.050143003 3.864925623 -0.4270377755
-1.659810185 2.104702234 -0.1382727325
-2.484671831 3.151792765 -0.06935407221
-2.491410732 3.149018288 0.06938897073
-2.481694937 3.137863398 0.2074608654
-2.998484612 3.794014931 0.4193680286
-2.986368895 3.78139782 0.5864918232
-2.970128775 3.762183428 0.7525013685
-2.948486567 3.737451315 0.9170908332
-2.942129612 3.730731964 1.086960077
-2.924166441 3.710617304 1.25428915
-2.203302622 2.80291748 -0.9437063336
-2.570216417 3.272031784 -0.9506397843
-2.364071369 3.010681629 -0.73582232
-2.832134008 3.609355927 -0.7199630141
-2.837821007 3.617907286 -0.5594369173
-3.01887536 3.851495266 -0.4244230688
-1.64912641 2.105478525 -0.1379587203
-2.473540545 3.147829533 0.06917954236
-2.492250443 3.172776461 0.2092402875
-2.962512016 3.774161339 0.4160561562
-2.949309111 3.760042429 0.5816170573
-2.935695887 3.744032383 0.7468698025
-2.911858082 3.716301441 0.9094584584
-2.911716461 3.717456818 1.080211639
-2.890411854 3.692911386 1.244971752
-2.201129198 2.819344521 -0.9468121529
-2.530582428 3.243662596 -0.9398421645
-2.352867842 3.016955853 -0.7354406714
-2.801934481 3.59535718 -0.7152699828
-2.820928812 3.621033192 -0.5584619045
-2.993846893 3.845764637 -0.4226799607
-1.615156174 2.076253414 -0.1356559396
-2.352007151 3.024551153 -0.06617773324
-2.480313301 3.178084135 0.06966821104
-2.470657587 3.166851759 0.2082982659
-2.935281277 3.765108109 0.4139643908
-2.911206007 3.736916065 0.5764985681
-2.901417971 3.725692511 0.7412381172
-2.88263917 3.704245329 0.9041158557
-2.876639128 3.69786644 1.071663499
-2.861551762 3.681122541 1.237724781
-2.175399303 2.807540655 -0.9400828481
-2.515096664 3.248293638 -0.9384924173
-2.344198227 3.028663874 -0.7362039089
-2.822576523 3.649354458 -0.7240303159
-2.807004929 3.631837368 -0.5584619045
-1.601432204 2.074255228 -0.135132581
-2.333046675 3.024060726 -0.06596829742
-2.898573637 3.744907379 0.2459801435
-2.904393435 3.753779411 0.4115240574
-2.881705999 3.72714448 0.5733299851
-2.86655879 3.710232496 0.7359193563
-2.851041555 3.691479683 0.8983915448
-2.840986967 3.681116581 1.063565254
-2.833237886 3.67372632 1.231513143
-2.162738562 2.812432528 -0.939047575
-2.515620232 3.272502661 -0.9429914355
-2.325905561 3.027894497 -0.7339141965
-2.816399574 3.669076681 -0.7259075046
-2.861982346 3.729807377 -0.572111249
-2.911020279 3.796457529 -0.4148359299
-1.573168755 2.053159237 -0.1333531588
-2.890252352 3.7584939 0.08205942065
-2.872096539 3.737582684 0.2448287606
-2.871199369 3.739116192 0.4087350667
-2.848129034 3.710412502 0.5691864491
-2.834354639 3.695137262 0.7309134603
-2.821966648 3.681647539 0.8934305906
-2.813257217 3.672939062 1.058166385
-2.788688183 3.642178774 1.217536926
-2.145875216 2.810751438 -0.9359417558
-2.497699499 3.273953676 -0.9407418966
-2.293891668 3.007895947 -0.7270451188
-2.896967411 3.801434517 -0.7503113151
-2.889844894 3.793464899 -0.5803983808
-2.869992733 3.770134449 -0.4108267725
-1.553900599 2.042741537 -0.1323064417
-2.850981474 3.735678911 0.08132641762
-2.84086132 3.72376585 0.24325867
-2.832764387 3.715841293 0.4050744772
-2.816465378 3.697140694 0.5655303001
-2.801094532 3.678291082 0.7255946994
-2.786508083 3.661791563 0.8861798048
-2.779825211 3.654329062 1.05006814
-2.757251263 3.62728405 1.209254622
-2.141210318 2.824009895 -0.9380123019
-2.488005161 3.28377223 -0.9411918521
-2.262568951 2.987315178 -0.7201759815
-2.868846893 3.790544271 -0.7462440133
-2.86766839 3.79036212 -0.5784484744
-2.844258308 3.762147665 -0.4089093506
-1.537486196 2.035134792 -0.1314690709
-2.819250345 3.719614506 0.08076794446
-2.814022779 3.714063883 0.2420026213
-2.796372652 3.693445921 0.4015882611
-2.781434059 3.676381111 0.5608992577
-2.767432213 3.659200907 0.7199630141
-2.748309135 3.636553526 0.8777841926
-2.746546745 3.635540009 1.041969895
-2.728913069 3.614821434 1.202007771
-2.134158611 2.834180832 -0.939047575
-2.478274584 3.293561459 -0.941641748
-2.247930288 2.988525391 -0.718649447
-2.845579863 3.785825014 -0.7434281707
-2.828193188 3.76542902 -0.5730862617
-2.815559864 3.75133872 -0.4066433012
-1.51514709 2.019453049 -0.1301083267
-2.792469501 3.709770679 0.08034908026
-2.778230906 3.693536997 0.2400138527
-2.764951706 3.677218676 0.3987992704
-2.745377541 3.653844595 0.5560244918
-2.73803854 3.646723032 0.7155828476
-2.715020895 3.617384672 0.8709151149
-2.709286213 3.612366199 1.032521963
-2.698900223 3.601136208 1.194243193
-2.128381491 2.848174572 -0.9411181211
-2.466763258 3.302191734 -0.941641748
-2.229914427 2.987305403 -0.7163597941
-2.813967943 3.772478819 -0.738735199
-2.793672085 3.746634007 -0.5686989427
-2.784592628 3.737178802 -0.4040286541
-1.494614124 2.007371426 -0.1289569288
-2.760349512 3.693866491 0.07979059964
-2.741924286 3.674553156 0.3974047899
-2.720738411 3.647492886 0.5535871387
-2.707583427 3.632501841 0.7108898759
-2.687672138 3.608416796 0.86633569
-2.675083637 3.594133615 1.024423718
-2.670168161 3.588837147 1.186996222
-2.109219074 2.843174219 -0.9369770288
-2.461606026 3.320604324 -0.9443411827
-2.214798212 2.988760948 -0.7148333192
-2.77962327 3.753702641 -0.7331035137
-2.757487297 3.726528406 -0.5640679002
-2.744279861 3.710033894 -0.4000194967
-1.486411333 2.010969877 -0.1288522631
-2.727735043 3.678259134 0.07923213392
-2.09459281 2.827581167 0.3041481376
-2.047141552 2.765542269 0.4173371792
-2.672562838 3.611759663 0.7049453259
-2.661053658 3.598832607 0.8617562056
-2.655573845 3.594045162 1.021724343
-2.630079508 3.560841084 1.174572945
-2.096991062 2.847407818 -0.9359417558
-2.462133169 3.344443083 -0.9488402009
-2.214823246 3.010706425 -0.718267858
-2.739072323 3.72470665 -0.7255946994
-2.726307392 3.710057259 -0.5601680279
-2.705368519 3.684261084 -0.3961846232
-1.475006461 2.009448051 -0.1284335703
-2.696549892 3.661521196 0.0786736533
-2.018608809 2.744989872 0.2943867147
-2.02620101 2.756321907 0.4148997962
-2.647074223 3.603555679 0.7015036941
-2.627026081 3.577571869 0.8545054793
-2.626347065 3.579265118 1.014975786
-2.597070456 3.541957617 1.165255427
-2.085255623 2.851227999 -0.9349064827
-2.44699502 3.348296404 -0.9474904537
-2.207142591 3.021205664 -0.7190310955
-2.700430632 3.699144125 -0.718711555
-2.694621563 3.693892956 -0.5562682748
-2.680755854 3.677580833 -0.3944415152
-1.453869104 1.995214105 -0.1271775216
-1.497542024 2.049882174 0.1308410317
-2.000095129 2.738796234 0.2929922044
-1.997845292 2.737721205 0.4110000134
-2.61818552 3.590427399 0.6971235871
-2.590236902 3.553403139 0.8464915156
-2.597774506 3.566357851 1.008677125
-2.567638874 3.527572632 1.157490849
-2.080464125 2.866669655 -0.9374946952
-2.42499423 3.34262085 -0.9434413314
-2.200662851 3.035633564 -0.7205575705
-2.674106121 3.691420555 -0.7152699828
-2.659588575 3.672729015 -0.5516372323
-2.627021551 3.630422831 -0.3883405924
-1.432503581 1.981107473 -0.125921458
-1.466926932 2.022760153 0.1287475973
-2.006412029 2.768694878 0.2954325676
-2.002250671 2.763969898 0.4139248729
-2.583629608 3.569141865 0.6911790371
-2.564538002 3.545376062 0.8422937393
-2.552720547 3.531633854 0.9960799217
-2.545125723 3.522421598 1.15283215
-1.322894573 1.836264372 -0.5948182344
-2.404755592 3.340416193 -0.9402920008
-2.192347288 3.046483517 -0.7213208079
-2.640446424 3.671864033 -0.7096382976
-2.626417637 3.655046463 -0.5474936962
-2.62247014 3.650897026 -0.3895607591
-1.411603093 1.966625452 -0.1246653795
-1.529498577 2.1316607 -0.04509522021
-1.448187709 2.011659622 0.1277008802
-1.96661675 2.735828638 0.4085626006
-2.551558018 3.550868273 0.6858602762
-2.536115885 3.531978846 0.8369510174
-2.519928932 3.512022257 0.9879816175
-2.515926123 3.507736444 1.145067453
-1.306363463 1.826728225 -0.5901594758
-2.394799232 3.349957228 -0.9407418966
-2.18170023 3.054117203 -0.7213208079
-2.38603735 3.341400385 -0.6436229944
-2.596987724 3.639496803 -0.5438376069
-2.459339619 3.449137926 -0.366900295
-1.400437355 1.964789867 -0.1242467016
-1.503487229 2.110925436 -0.04453674331
-1.441157341 2.016701937 0.1277008802
-1.950614333 2.732640743 0.4071001709
-2.516204596 3.527590513 0.679602921
-2.508433104 3.517990112 0.8316084146
-2.498090744 3.506076813 0.9839325547
-2.484619856 3.489743471 1.136267662
-1.29246819 1.820024729 -0.5865359902
-2.398879051 3.38054657 -0.9470405579
-2.171559811 3.061335802 -0.7213208079
-2.57997942 3.639793158 -0.6999394298
-2.2951262 3.240323544 -0.4824154079
-2.282097816 3.22312212 -0.341799438
-1.384341478 1.956623077 -0.1234093308
-1.4964782 2.11590004 -0.04453674331
-1.402097821 1.975863218 0.1247700602
-1.922700167 2.713517904 0.4032003582
-2.490792513 3.516570568 0.675848484
-2.476855516 3.499483109 0.8251209259
-2.468958378 3.490908861 0.9771839976
-2.452958584 3.469570637 1.126950264
-1.281655669 1.818209291 -0.5844655037
-2.36520648 3.356622934 -0.9380425811
-2.17442441 3.0881598 -0.7259002328
-2.270006895 3.225103378 -0.6179677248
-2.27523303 3.234926701 -0.4804655313
-2.271979332 3.232697964 -0.3419737518
-1.364068031 1.94159174 -0.1221532673
-1.456912398 2.075284243 -0.04355940968
-1.364138722 1.936658144 0.1219439209
-1.451999545 2.062922716 0.216992408
-1.902269125 2.703643799 0.4007629752
-2.466005564 3.507467747 0.6724069118
-2.440402746 3.472339869 0.8167253137
-2.449529648 3.487913847 0.974034667
-2.423077822 3.452810287 1.118668079
-1.27451086 1.820866942 -0.5839478374
-2.254068851 3.22273469 -0.8980012536
-2.168670654 3.101789713 -0.7274267077
-2.258734703 3.233008146 -0.6179677248
-2.250290394 3.223317623 -0.4775406718
-2.261820316 3.242243528 -0.3421480656
-1.336717844 1.91685307 -0.1202691719
-1.419934154 2.037700891 -0.04265188798
-1.350503087 1.931587219 0.1213158891
-2.442441225 3.499855757 0.669278264
-2.417033195 3.464735985 0.8129091263
-2.416164875 3.466068983 0.9654865265
-2.405488729 3.453322172 1.116079807
-1.271134853 1.830285907 -0.5855007768
-1.871620655 2.695919514 -0.747733891
-2.155050039 3.106491089 -0.7266634703
-2.250246525 3.246134996 -0.6189063191
-2.266161442 3.270311832 -0.4833904207
-2.450113297 3.538411617 -0.3728268743
-1.330820084 1.923381686 -0.1203738302
-1.365036011 1.973570704 -0.04118588194
-1.343752623 1.93628931 0.1213158891
-1.437562346 2.073009491 0.216992408
-2.40658927 3.474259138 0.6627080441
-2.389793396 3.452585697 0.8079480529
-2.376838923 3.436436653 0.9546889067
-2.375841618 3.436272383 1.107797503
-1.259255528 1.826759338 -0.5829125643
-1.853989363 2.69152689 -0.74458462
-2.146419287 3.117228985 -0.7274267077
-2.359830379 3.429727316 -0.6526961923
-2.438603878 3.54686141 -0.5233635902
-2.44113183 3.551869392 -0.3733498156
-1.316183805 1.916490316 -0.1196411327
-1.315131664 1.915676713 -0.03985949978
-1.364994526 1.980889082 0.04129059985
-1.332453966 1.934388399 0.1208971962
-2.373183966 3.451710701 0.656763494
-2.366608858 3.444725752 0.8041319251
-2.352697849 3.427039623 0.9497399926
-2.344155788 3.415874481 1.098480105
-1.246326327 1.821577311 -0.5798066854
-1.83845222 2.688009501 -0.7418851852
-2.139956713 3.131185532 -0.7289531827
-2.401932001 3.515825033 -0.6677139401
-2.421231508 3.54673171 -0.5221448541
-2.404018641 3.524158478 -0.3695149422
-1.30081892 1.907643676 -0.1188037544
-1.281412601 1.880594373 -0.03902178258
-1.344867349 1.965600729 0.04087174311
-1.330202103 1.945623279 0.1213158891
-1.342133164 1.964545727 0.2044419795
-2.341077328 3.430603743 0.6511318088
-2.335259438 3.423361301 0.7972627878
-2.330345154 3.418719769 0.9452409744
-2.312642574 3.39529562 1.089162588
-1.242450595 1.828896046 -0.5808419585
-1.814828634 2.67345047 -0.7360364199
-2.098695517 3.092777252 -0.718267858
-2.080340147 3.068035126 -0.5804234743
-2.081469774 3.07200551 -0.4504856467
-1.279599547 1.890670061 -0.1174430177
-1.259156585 1.861865997 -0.03853311762
-1.33125782 1.96035707 0.04066231102
-1.330131769 1.960170507 0.1219439209
-1.32666409 1.95579493 0.2030474991
-2.319117546 3.424036026 0.6483160257
-2.301282406 3.398977757 0.7896304727
-2.306384563 3.409079313 0.9402920008
-2.283466578 3.377740383 1.080880523
-1.242538452 1.842832923 -0.5839478374
-1.784797549 2.649062157 -0.7274883389
-2.058275223 3.056118488 -0.7079641819
-2.048663855 3.044140577 -0.5744789839
-1.293091893 1.922873378 -0.2793810964
-1.268440485 1.88692677 -0.1952034831
-1.265195966 1.883519888 -0.1167103201
-1.245963335 1.856287479 -0.03832368925
-1.328876853 1.971625328 0.04080192745
-1.316586733 1.954862475 0.1213158891
-1.324279189 1.967025042 0.2037447393
-2.276262999 3.387436152 0.7850509882
-2.273830891 3.386369467 0.9317438602
-2.261973858 3.371253014 1.076221704
-1.239321828 1.851975203 -0.5855007768
-1.765791059 2.640696287 -0.7234392166
-1.256837964 1.881700873 -0.3517162204
-1.250006557 1.872888088 -0.2713377178
-1.255212188 1.881398797 -0.1941576153
-1.246426225 1.86964488 -0.1155589223
-1.235041142 1.853968978 -0.0381840691
-1.324210644 1.979575872 0.04087174311
-1.301985979 1.947822809 0.1205831841
-1.320726037 1.976605177 0.2042676806
-2.25353241 3.379027128 0.7812348604
-2.243625402 3.366717577 0.9240955114
-2.23627162 3.358225346 1.06949234
-1.2253685 1.845024824 -0.5818772912
-1.737165809 2.617617369 -0.7153409719
-1.24570179 1.877773046 -0.429764688
-1.252444267 1.889369965 -0.3523419499
-1.23797965 1.868965507 -0.2701190114
-1.243136764 1.877462626 -0.1932860464
-1.246505141 1.883978128 -0.1161869615
-1.227459431 1.856600285 -0.03814916313
-1.319504142 1.98751843 0.04094155133
-1.300699711 1.960677028 0.1211065501
-1.309413314 1.97456193 0.2035704255
-1.478293657 2.232611179 0.4174186885
-2.22763586 3.365590572 0.776273787
-2.222183704 3.359900951 0.9200463891
-2.205363512 3.336999893 1.060174823
-1.207225323 1.831548214 -0.5761832595
-1.24781096 1.894561768 -0.5137848258
-1.241298318 1.885389805 -0.4305279255
-1.239327669 1.883828163 -0.3504647315
-1.241262555 1.888204336 -0.2723126411
-1.237670183 1.883455396 -0.1934603602
-1.248691678 1.901673794 -0.1170243397
-1.225359797 1.867561102 -0.03828878701
-1.308157802 1.985432625 0.04080192745
-1.300436974 1.97521472 0.121734567
-1.301417947 1.977456093 0.2033961266
-1.31685245 2.002429724 0.2891306281
-2.204018831 3.355296135 0.7720760107
-2.198678493 3.34971714 0.9150974751
-2.183107615 3.328523397 1.054998517
-1.197651625 1.830901504 -0.5746303201
-1.232659936 1.885856748 -0.5101855993
-1.231487393 1.884781122 -0.4293830693
-1.229504228 1.883180857 -0.3495261073
-1.239003062 1.899175763 -0.2732876241
-1.233264446 1.891102314 -0.1938089877
-1.235502958 1.895981193 -0.1163963005
-1.223197341 1.878530264 -0.03842840344
-1.295747876 1.981618166 0.04062740505
-1.295718789 1.983086586 0.1219439209
-1.298865795 1.988658905 0.2040933669
-1.301174641 1.993715644 0.2871807218
-2.171921492 3.331721306 0.7648252845
-2.176336765 3.34104228 0.9105984569
-2.159882307 3.318314552 1.049304485
-1.192305684 1.836691022 -0.5751479864
-1.223948836 1.886877775 -0.509285748
-1.223833203 1.887420774 -0.4290014803
-1.230442643 1.899065733 -0.3517162204
-1.231286764 1.901822925 -0.2730438709
-1.237481117 1.912122011 -0.1955520958
-1.228877664 1.900282025 -0.1163963005
-1.223144889 1.892865777 -0.03863783181
-1.290999651 1.989484668 0.04069721699
-1.289875627 1.989272833 0.1220485866
-1.295166731 1.998196721 0.2046162933
-1.293128729 1.996579051 0.2869369984
-2.151747942 3.326094866 0.7617723942
-2.15090847 3.327342987 0.9047497511
-2.137804985 3.309605598 1.04412806
-1.168101668 1.813232899 -0.5663481355
-1.218410254 1.892776966 -0.5097357035
-1.216175437 1.890029907 -0.4286198318
-1.2248739 1.905010939 -0.3520290852
-1.214982986 1.891078949 -0.2708502412
-1.222185373 1.903019071 -0.1941576153
-1.227630019 1.912965059 -0.1169196591
-1.205735207 1.880290866 -0.03828878701
-1.287294507 1.999022961 0.04080192745
-1.276439905 1.983685613 0.1214205623
-1.292494535 2.009408712 0.2053135335
-1.288298368 2.00442028 0.287424475
-2.119287729 3.303666592 0.896201551
-2.112685204 3.295905113 1.037398815
-1.157602549 1.81078887 -0.5642775893
-1.217040658 1.905230165 -0.5119851828
-1.205343604 1.887645125 -0.4270933867
-1.222467303 1.915935993 -0.3532805741
-1.228987455 1.926896453 -0.2754812539
-1.923336506 3.017870665 -0.3093775213
-1.228455544 1.929031134 -0.1176523715
-1.200567603 1.885965466 -0.03832368925
-1.281386018 2.00518918 0.04083683342
-1.277380347 1.999689698 0.1221532673
-1.281185031 2.007189989 0.2046162933
-1.28769815 2.018947363 0.2888869047
-1.430160284 2.244901419 0.5091412067
-2.097853661 3.294238329 0.8917025328
-2.088262081 3.281704426 1.03066957
-1.13917017 1.795044065 -0.5580659509
-1.219065189 1.922421336 -0.5155844092
-1.207486391 1.904896975 -0.430146277
-1.240418553 1.95836103 -0.3604765534
-1.906461716 3.011066198 -0.4324489832
-1.902666807 3.007394314 -0.3076343834
-1.225252867 1.938158989 -0.1179663762
-1.194307208 1.88993609 -0.03832368925
-1.271515369 2.004361868 0.04073211923
-1.270742536 2.003914595 0.1221532673
-1.273454905 2.009744644 0.2044419795
-1.286306024 2.031592131 0.2901056111
-1.276708722 2.017215014 0.3714269698
-2.07650423 3.284705877 0.8872035742
-2.06395483 3.267379284 1.023940206
-1.137329698 1.805350184 -0.560136497
-1.201263309 1.90831244 -0.5106354952
-1.875310183 2.982558012 -0.5513266325
-1.884322166 2.999213457 -0.4297678471
-1.888978601 3.008955717 -0.3071114421
-1.217757821 1.940519691 -0.1178617179
-1.200450301 1.914423704 -0.03874254599
-1.261666059 2.003489971 0.04062740505
-1.270121455 2.018481016 0.1227812916
-1.267844558 2.01564312 0.2046162933
-1.273223281 2.025762558 0.2886431515
-1.277014017 2.033368826 0.3736170232
-2.058813095 3.282028913 0.8845041394
-2.041251421 3.256557703 1.018246174
-1.137871504 1.820974469 -0.563759923
-1.592064142 2.548824072 -0.6838478446
-1.867751122 2.992510796 -0.6774347425
-1.86750257 2.994439125 -0.5522652864
-1.864390612 2.990611315 -0.4275742173
-1.875302672 3.010458469 -0.3065885305
-1.203249693 1.933100224 -0.1171290129
-1.200098515 1.928790092 -0.03895197436
-1.26314187 2.021448851 0.04090664536
-1.262010694 2.021207809 0.1226766258
-1.265722156 2.028728008 0.2054878622
-1.2598418 2.020088196 0.2871807218
-1.267819405 2.034460783 0.3729912937
-2.035444498 3.271352291 0.8795552254
-2.01762867 3.243977547 1.012034535
-1.132525802 1.826577425 -0.5642775893
-1.605289817 2.591087103 -0.6937456727
-1.847989917 2.983990669 -0.6740002036
-1.851840615 2.992541313 -0.5507009029
-1.845064163 2.983917713 -0.425624311
-1.865831017 3.018680573 -0.3067628443
-1.201741576 1.945785522 -0.1176523715
-1.186005473 1.92105639 -0.03870764375
-1.254671454 2.024365187 0.04087174311
-1.250739455 2.018809795 0.1222579256
-1.261778474 2.038216352 0.2060107887
-1.260783195 2.038197994 0.2891306281
-1.260709643 2.038874149 0.3729912937
-2.003539324 3.245273352 0.870557189
-2.004262686 3.247713327 1.010999322
-1.741599441 2.830928802 -0.8790015578
-1.731437802 2.81551218 -0.7531327009
-1.828312516 2.975368738 -0.6705656648
-1.843975186 3.002031803 -0.5513266325
-1.83515954 2.990019321 -0.425624311
-1.851116538 3.01838088 -0.3060655892
-1.200502276 1.958273292 -0.1181757301
-1.185560226 1.935415626 -0.03891707212
-1.251094341 2.033624411 0.04097645357
-1.247869134 2.029969215 0.1226766258
-1.256742001 2.046003342 0.2063594162
-1.260249972 2.052517653 0.2905930579
-1.255651474 2.046629906 0.3736170232
-1.284812212 2.09498024 0.4694529474
-1.982585073 3.235283375 0.8660581708
-1.976773739 3.228328705 1.002717018
-1.721126556 2.818552732 -0.8733075261
-1.742913961 2.856473446 -0.7625806928
-1.810256839 2.968006849 -0.6675127149
-1.821147919 2.988209009 -0.5475721955
-1.826776862 2.999797821 -0.4261117876
-1.834880352 3.014292002 -0.3050197065
-2.016724348 3.315622091 -0.2011805624
-1.182950974 1.946377873 -0.03905668855
-1.243988633 2.037978888 0.04097645357
-1.245975018 2.042838573 0.1231999844
-1.243727684 2.039952517 0.2053135335
-1.255142689 2.060295105 0.2910805345
-1.244390607 2.044251442 0.3723655641
-1.257080317 2.065909386 0.4618206024
-1.964192271 3.23052907 0.8629088998
-1.954458117 3.217048407 0.9970231056
-1.699265599 2.80471611 -0.8670958877
-1.72385025 2.847536087 -0.7585315704
-1.773458719 2.930636168 -0.6575906277
-1.756534338 2.904957294 -0.5309901834
-1.821426392 3.014651537 -0.4273304641
-1.823318124 3.018972874 -0.3048453927
-1.983466506 3.286732197 -0.1989824474
-1.172019601 1.943645358 -0.03891707212
-1.235830784 2.040598869 0.04094155133
-1.247109294 2.060845137 0.1240373552
-1.242786169 2.054510355 0.2063594162
-1.24794364 2.06466341 0.2910805345
-1.24133265 2.055346012 0.3736170232
-1.246817708 2.065242529 0.4606757462
-1.951897502 3.235696316 0.8624589443
-1.935239196 3.210614443 0.9928820133
-1.684489131 2.802351236 -0.8645076752
-1.695839643 2.823465586 -0.7504333258
-1.749071002 2.913244009 -0.6522479653
-1.727076173 2.878885984 -0.5250456929
-1.80782938 3.015883923 -0.4265992641
-1.813263535 3.027344942 -0.3050197065
-1.964798927 3.281640768 -0.1982497424
-1.173440218 1.96145308 -0.0391963087
-1.233849287 2.053471088 0.04111607373
-1.227571607 2.044637203 0.1227812916
-1.237656832 2.062252998 0.2067080289
-1.237666726 2.063899279 0.2903493047
-1.242273688 2.07322216 0.3761200011
-1.245653272 2.079687834 0.4629654586
-1.922578096 3.212391138 0.8543606997
-1.914104342 3.200770855 0.9877055883
-1.664314151 2.791913033 -0.8593313098
-1.680984974 2.820998192 -0.7481838465
-1.727332473 2.901079893 -0.648050189
-1.705402136 2.866523027 -0.5216041207
-1.794247866 3.01705718 -0.4258680642
-1.800650239 3.030230045 -0.3046710789
-1.942561865 3.271646261 -0.1972030252
-1.164545417 1.962097645 -0.03912649676
-1.232817888 2.068071127 0.04132550582
-1.222470641 2.052341938 0.122990638
-1.235185504 2.075335741 0.2075795829
-1.235529065 2.076737404 0.291568011
-1.228972077 2.067358017 0.3742427528
-1.244038582 2.09436655 0.4652551413
-1.896865487 3.195955515 0.848062098
-1.893063307 3.190817833 0.982529223
-1.639808178 2.772762775 -0.8515667319
-1.663695097 2.815395594 -0.7450344563
-1.701220155 2.880045176 -0.6419442892
-1.690365911 2.86395216 -0.5200397372
-1.783176899 3.023613691 -0.4258680642
-1.796133161 3.046794891 -0.3057169616
-1.922005892 3.262919903 -0.1962609887
-1.157346606 1.966352463 -0.03912649676
-1.224212408 2.070853949 0.04129059985
-1.212909102 2.053369284 0.1227812916
-1.227934241 2.079634428 0.2075795829
-1.222866178 2.072703123 0.2903493047
-1.219380736 2.068444967 0.3736170232
-1.246688008 2.115610361 0.4690713286
-1.876799703 3.187443495 0.8440129757
-1.866660595 3.172759295 0.9747645855
-1.61838758 2.758475304 -0.8453550339
-1.647943377 2.811099529 -0.7423350811
-1.682222366 2.870721817 -0.6385097504
-1.66838026 2.849379539 -0.5162853599
-1.783638954 3.048666716 -0.4285491705
-1.787497759 3.05648613 -0.3060655892
-1.90858984 3.266159534 -0.1960516423
-1.152491927 1.973834515 -0.0391963087
-1.215964079 2.073389769 0.04125569016
-1.211792231 2.067929983 0.1234093308
-1.212610841 2.070155144 0.2061851174
-1.223644853 2.090665102 0.2922992408
-1.217138648 2.081214905 0.3751813769
-1.233350158 2.109780312 0.466781646
-1.843054533 3.155273438 0.8336651921
-1.806884885 3.095832348 0.948882699
-1.605834007 2.759098291 -0.8438021541
-1.625385761 2.794934988 -0.7364863753
-1.663312078 2.86130023 -0.6350751519
-1.635604858 2.815898657 -0.5090893507
-1.778503776 3.063147783 -0.4297678471
-1.785816669 3.07821703 -0.3076343834
-1.876143336 3.236515045 -0.1938535422
-1.150953174 1.986296177 -0.0393708311
-1.20670855 2.074164629 0.04118588194
-1.208944798 2.078843117 0.1238280237
-1.214386702 2.089879036 0.2077539116
-1.216339946 2.094923496 0.2922992408
-1.21122241 2.086948156 0.3754942715
-1.224008918 2.110675812 0.4660184085
-1.799353123 3.104045153 0.8183684945
-1.787893534 3.086762428 0.9442239404
-1.593777895 2.759389639 -0.8422492743
-1.603444695 2.778367996 -0.73063761
-1.644985914 2.851494789 -0.6316406131
-1.620338202 2.811038971 -0.5072121024
-1.750497937 3.038068295 -0.4253805578
-1.783551097 3.097935915 -0.3090288639
-1.857432127 3.2288692 -0.1930161566
-1.150340676 2.000503778 -0.0395802632
-1.204822421 2.086814165 0.04136040807
-1.200047135 2.079381227 0.1236186624
-1.209439754 2.097346783 0.2081025243
-1.20542264 2.092065334 0.2913242877
-1.212181807 2.104647636 0.3779972196
-1.22483623 2.128335953 0.4690713286
-1.777388334 3.089725256 0.8129696846
-1.770909309 3.080949783 0.9406004548
-1.573089719 2.744547129 -0.8360375762
-1.576790571 2.75323081 -0.7225394249
-1.618938565 2.82796979 -0.6251530647
-1.601199985 2.799249649 -0.5040834546
-1.72510612 3.01830864 -0.4217244983
-1.784140706 3.122862816 -0.3109463155
-1.842754364 3.228072405 -0.1925974637
-1.141369343 2.001032591 -0.03951045126
-1.205848813 2.104678392 0.04163964465
-1.196751118 2.09049058 0.1240373552
-1.203467965 2.103075027 0.2082768381
-1.204389811 2.106390953 0.2927867174
-1.204828382 2.108865976 0.3779972196
-1.213877678 2.125566483 0.4675448835
-1.752105713 3.070521832 0.8062211871
-1.758230925 3.08375597 0.9395651817
-1.552042842 2.729868412 -0.8298259377
-1.562358141 2.75024581 -0.720289886
-1.595485687 2.809702396 -0.619810462
-1.583621025 2.791076899 -0.5015804768
-1.719454169 3.032947063 -0.4229431748
-1.772247434 3.127337694 -0.3107720017
-1.819665074 3.213629961 -0.1913414001
-1.134377003 2.005004883 -0.03951045126
-1.204422474 2.119306564 0.04184907675
-1.187474608 2.091181517 0.1238280237
-1.198086023 2.110728741 0.2086254656
-1.206823468 2.12784934 0.2952241302
-1.195512176 2.109621048 0.37737149
-1.214191318 2.143456936 0.4705978334
-1.738497853 3.071530819 0.8048714995
-1.730337143 3.059607029 0.9302477241
-1.534912109 2.721807957 -0.8256848454
-1.551791072 2.753985167 -0.7198399901
-1.576032877 2.798149347 -0.6159942746
-1.559335709 2.770765781 -0.4968874156
-1.67966795 2.987021685 -0.415631026
-1.790050864 3.185922623 -0.3160013556
-1.802568793 3.209513426 -0.1907133609
-1.129328966 2.012439966 -0.0395802632
-1.193089962 2.116529465 0.04170945287
-1.188008428 2.109235764 0.1246653795
-1.18777895 2.109689474 0.2081025243
-1.201334476 2.135509491 0.2957115769
-1.188140392 2.113781691 0.37737149
-1.206702352 2.147681952 0.4705978334
-1.72204113 3.067385674 0.8021720648
-1.711141109 3.050463915 0.925589025
-1.515498757 2.710553408 -0.8205084205
-1.530760407 2.73897171 -0.7144411802
-1.558109641 2.790193796 -0.6129413247
-1.532808065 2.747136593 -0.4915686548
-1.673099399 2.99980092 -0.4166059792
-1.790558219 3.213035583 -0.3180930614
-1.771359563 3.181199312 -0.1886199266
-1.131049514 2.032095432 -0.03989440575
-1.183743358 2.117190361 0.04163964465
-1.179665089 2.111626148 0.1245607138
-1.180038095 2.114028931 0.2081025243
-1.190004349 2.132755518 0.2947366238
-1.187487483 2.129994154 0.3795615733
-1.195001364 2.145229578 0.4690713286
-1.711733937 3.07537961 0.8026219606
-1.705179453 3.064858913 0.9281771779
-1.506027222 2.715827227 -0.8205084205
-1.507488012 2.720700026 -0.708142519
-1.538847685 2.778441668 -0.6091251373
-1.520339251 2.747285843 -0.4906300604
-1.671698332 3.023285389 -0.4190433919
-1.769692898 3.201829195 -0.3163499534
-1.754451752 3.176872492 -0.1879919022
-1.127815366 2.0430336 -0.04003402591
-1.179852724 2.128510714 0.04177926481
-1.182934046 2.134948254 0.1257120967
-1.182302117 2.135565758 0.2098456323
-1.180257082 2.133629084 0.2942491472
-1.183869004 2.141040564 0.3808130324
-1.189404249 2.152825356 0.4698345959
-1.70475626 3.088160038 0.8044216037
-1.701936603 3.084324598 0.9323183298
-1.4890908 2.707525492 -0.8163673282
-1.500335813 2.729099512 -0.7090423703
-1.518743038 2.764867544 -0.6049273014
-1.50076282 2.733265162 -0.4871884882
-1.67884922 3.060139894 -0.4234306812
-1.739352107 3.173044205 -0.3128637373
-1.736228466 3.168661356 -0.1871545315
-1.11779654 2.041695595 -0.039929308
-1.17857039 2.142924547 0.04198869318
-1.167780042 2.125061274 0.1248747408
-1.17100513 2.132693768 0.209148407
-1.176996231 2.144491911 0.2952241302
-1.170689702 2.134767771 0.3789358437
-1.186977506 2.165365219 0.4717426896
-1.68888998 3.083540678 0.8017221689
-1.693941355 3.095330715 0.93387115
-1.474552631 2.702273607 -0.8132615089
-1.494530916 2.741164207 -0.7108419538
-1.501111269 2.754373789 -0.6014927626
-1.484599352 2.726343632 -0.484998405
-1.676696301 3.081674337 -0.425624311
-1.725963831 3.173544407 -0.312340796
-1.71752882 3.160663128 -0.1863171607
-1.110064864 2.043634415 -0.03989440575
-1.178742647 2.161070108 0.04226793349
-1.16168201 2.130676031 0.1249794066
-1.166785359 2.14181447 0.2096713334
-1.173299909 2.155561209 0.2961990535
-1.169268012 2.149049282 0.3808130324
-1.182224393 2.174670219 0.4728875458
-1.679045439 3.091130257 0.8021720648
-1.672606587 3.080557823 0.9276595116
-1.415461063 2.615657091 -0.7853090763
-1.490996242 2.756389141 -0.7135413885
-1.48495245 2.747507095 -0.5988214016
-1.464283586 2.710395575 -0.4812439382
-1.678726673 3.109926224 -0.4287929237
-1.686502457 3.126941919 -0.3071114421
-1.701352119 3.155792475 -0.1856891215
-1.109563351 2.059820175 -0.04013874009
-1.165860057 2.154414654 0.04205850139
-1.161837578 2.148772955 0.1258167773
-1.154567242 2.13710928 0.2087997794
-1.175577164 2.176907301 0.2986364365
-1.163635731 2.156594515 0.3814387619
-1.173142791 2.175122261 0.4721242785
-1.660465956 3.081241369 0.7981229424
-1.648105979 3.060863018 0.9198949933
-1.286236525 2.397814274 -0.7174984813
-1.480400801 2.762094259 -0.7135413885
-1.475800157 2.75466156 -0.5992030501
-1.442678094 2.695100069 -0.477489531
-1.626514673 3.041080236 -0.4183121622
-1.677847505 3.138373613 -0.3076343834
-1.669459462 3.125307083 -0.1834910065
-1.107656956 2.074457169 -0.04034816474
-1.162304401 2.167686701 0.04223302752
-1.158670902 2.161818743 0.1263401359
-1.147666574 2.143083096 0.2089740783
-1.159716964 2.167402983 0.2966865301
-1.162244678 2.173038483 0.383628875
-1.167557716 2.184805632 0.4732691348
-1.644032478 3.078999519 0.7958734632
-1.630507946 3.054953337 0.9162715077
-1.265156627 2.37841177 -0.7102515101
-1.4739784 2.772149801 -0.7148910761
-1.469859242 2.766731739 -0.6007295251
-1.425395131 2.684167385 -0.4746737182
-1.60339582 3.021907091 -0.4148997962
-1.660350442 3.131888628 -0.306414187
-1.647864699 3.109648466 -0.1822349429
-1.103216648 2.083612442 -0.04045288265
-1.151352644 2.164467812 0.04209340736
-1.147368908 2.158795357 0.125921458
-1.149523735 2.164672852 0.2107172012
-1.14880085 2.164223194 0.2957115769
-1.156503797 2.180572033 0.3842546046
-1.161226153 2.190399647 0.4736507833
-1.623779893 3.065491199 0.7909244895
-1.615316629 3.052088737 0.9136833549
-1.248247266 2.36550808 -0.7050751448
-1.46974659 2.787620544 -0.7175904512
-1.460676789 2.771590471 -0.6007295251
-1.407732964 2.673396111 -0.4718579054
-1.572502732 2.988837004 -0.4095375538
-1.638826251 3.116217136 -0.3043224812
-1.640715241 3.122454166 -0.1826536208
-1.095937133 2.087450743 -0.04045288265
-1.151254296 2.182623148 0.04237264767
-1.135170817 2.153952599 0.1253980994
-1.142338514 2.168473005 0.2107172012
-1.14216435 2.169976473 0.2959553003
-1.161756992 2.209073067 0.3886347413
-1.158141255 2.203128576 0.4755588472
-1.600382447 3.046987534 0.7846258879
-1.602856636 3.054287672 0.9126480222
-1.238190651 2.366427898 -0.7040398717
-1.464520454 2.80136919 -0.7198399901
-1.450992584 2.77667284 -0.6007295251
-1.393821597 2.669538021 -0.4702935517
-1.538188696 2.948547363 -0.4032003582
-1.59109056 3.05125308 -0.2973500192
-1.617809653 3.105135679 -0.1812929064
-1.08494997 2.084168673 -0.04031326249
-1.151041865 2.200804472 0.04265188798
-1.146144867 2.193305016 0.1274915338
-1.136607647 2.175979137 0.2110658288
-1.142848372 2.189789057 0.2981489599
-1.13668561 2.17983532 0.3826902509
-1.152258158 2.210639954 0.4763220847
-1.58343637 3.040456533 0.7814766169
-1.57791853 3.032444239 0.9043658376
-1.217467308 2.346728802 -0.6967929602
-1.458320856 2.813384533 -0.7216396332
-1.448516011 2.795666456 -0.603782475
-1.372689366 2.651581526 -0.4662262499
-1.51238358 2.923923969 -0.3990567923
-1.556639552 3.010772467 -0.2928179204
-1.60146153 3.10011673 -0.1806648672
-1.085004926 2.102159262 -0.0405925028
-1.141511917 2.201258183 0.04258207232
-1.138481259 2.197292805 0.1274915338
-1.127172947 2.176394701 0.2107172012
-1.13793385 2.19905448 0.2988801897
-1.139956832 2.204846144 0.386444658
-1.144533992 2.214648962 0.4763220847
-1.562979221 3.026917934 0.7765276432
-1.554923773 3.013897419 0.8971188664
-1.210152268 2.352681637 -0.6973105669
-1.443147421 2.808058023 -0.7189401984
-1.442337513 2.80769062 -0.6053089499
-1.361620426 2.652842522 -0.4656005204
-1.498543859 2.922120571 -0.3980818391
-1.541575313 3.007323265 -0.2919463515
-1.581524849 3.087911606 -0.17961815
-1.081304669 2.113054276 -0.04073211923
-1.133820653 2.205229759 0.04258207232
-1.134455323 2.20835948 0.1279102117
-1.119568467 2.180316448 0.2107172012
-1.133875847 2.210077524 0.2998551428
-1.140362859 2.224633217 0.3892605007
-1.143959045 2.232608318 0.4793750346
-1.553290963 3.034090281 0.7769775391
-1.539994359 3.010708094 0.8945307136
-1.191401362 2.336239576 -0.6910989285
-1.443067789 2.832178831 -0.7238891125
-1.440547585 2.828452826 -0.6087434888
-1.355040193 2.662860632 -0.4665391445
-1.455947161 2.863630533 -0.3893072307
-1.521139741 2.993147612 -0.2900289297
-1.561693072 3.075605631 -0.1785714328
-1.079722285 2.127327204 -0.04094155133
-1.124300122 2.205610514 0.0425122641
-1.125312924 2.208549976 0.1277008802
-1.12822175 2.216170788 0.2138548046
-1.128854871 2.219330072 0.3005863428
-1.13297987 2.228402376 0.3892605007
-1.127267718 2.219084024 0.4755588472
-1.529461384 3.013427734 0.770228982
-1.524758339 3.005460978 0.8914248347
-1.178880334 2.331763983 -0.688510716
-1.434547424 2.83868742 -0.7243390083
-1.428010225 2.828206778 -0.6075986624
-1.352431893 2.679684401 -0.468729198
-1.433035254 2.841856003 -0.3856511712
-1.503509879 2.984205008 -0.2886344194
-1.542502642 3.062928915 -0.1775247157
-1.068694115 2.123938084 -0.04080192745
-1.126001716 2.22717309 0.04286131263
-1.117596149 2.212464809 0.1277008802
-1.117785215 2.214759588 0.2133318633
-1.121488452 2.223061562 0.3005863428
-1.13408494 2.249983549 0.3923892081
-1.127852201 2.238590002 0.478993386
-1.508944869 2.997595549 0.7648301721
-1.507313132 2.996958733 0.887283802
-1.164214611 2.321845055 -0.6843696237
-1.426374793 2.847162724 -0.7252388
-1.419503331 2.834681749 -0.6079802513
-1.348373652 2.694988489 -0.4706064463
-1.406242728 2.813104153 -0.3810201287
-1.474389553 2.952003717 -0.2849738896
-1.528233647 3.061146259 -0.1771060228
-1.061274052 2.127655268 -0.04080192745
-1.123597145 2.241816044 0.04307074472
-1.11344409 2.223495722 0.1281195581
-1.104192495 2.205982447 0.2121116966
-1.11993742 2.239390612 0.3022925258
-1.121809959 2.245093107 0.3908248544
-1.12354064 2.24953866 0.4805198908
-1.492381811 2.990638494 0.7616809011
-1.47960341 2.967623711 0.8769309521
-1.149679184 2.313986063 -0.6807461381
-1.426828384 2.873069048 -0.73063761
-1.416084409 2.853935003 -0.6110332012
-1.334977984 2.692832708 -0.4693549275
-1.390244007 2.80554533 -0.3793139458
-1.443744302 2.916064739 -0.2809647322
-1.509918571 3.052405596 -0.1762686372
-1.060931802 2.145687103 -0.04108116776
-1.112205148 2.238561392 0.04293112084
-1.114556909 2.245258331 0.1291662902
-1.101410747 2.220724583 0.2131575644
-1.112995863 2.245064497 0.302536279
-1.116595864 2.25430584 0.3917634189
-1.480145574 2.990903854 0.6404178143
-1.470182657 2.973378658 0.7558321357
-1.457251549 2.948524714 0.8696841002
-1.13818121 2.311052799 -0.6786755919
-1.418009758 2.881775856 -0.7315374017
-1.407847404 2.862383842 -0.6117964387
-1.329925537 2.706341028 -0.4709192812
-1.391325831 2.833786488 -0.3824825585
-1.402833462 2.85848546 -0.2748638093
-1.493100047 3.045104265 -0.1755359471
