# .PCD v0.7 - Point Cloud Data file format
VERSION 0.7
FIELDS x y z
SIZE 4 4 4
TYPE F F F
COUNT 1 1 1
WIDTH 1270
HEIGHT 1
VIEWPOINT 0 0 0 1 0 0 0
POINTS 1270
DATA ascii
1.650638223 1.139975309 0.3816808164
1.616908789 1.115847468 0.4436000884
1.62138164 1.118099093 0.5161372423
1.629274726 1.117677927 -0.2374580353
1.655127764 1.134562612 -0.171845749
1.614714622 1.106446981 -0.100381501
1.640086055 1.122989893 -0.03399549052
1.636278868 1.125004411 0.03396058455
1.603484631 1.101633072 0.09975346923
1.60650754 1.103297114 0.1667907089
1.579977036 1.084265471 0.2301458716
1.602286935 1.09875226 0.3010314405
1.604408383 1.099795341 0.3698506653
1.59989357 1.095879793 0.437751323
1.602955937 1.097156763 0.5088903308
1.708207607 1.165696979 -0.5425367355
1.667997718 1.137831926 -0.4561973512
1.660815597 1.132082224 -0.3824440241
1.64164865 1.118178129 -0.3079145551
1.620039701 1.103045821 -0.2355081141
1.634368539 1.111967206 -0.1692310721
1.625365615 1.105013371 -0.1008001864
1.624148965 1.103770614 -0.03357663378
1.608812928 1.097869158 0.03329739347
1.602370262 1.092653036 0.09943945706
1.620419145 1.104133368 0.1678365767
1.608362436 1.095505834 0.233801946
1.597946763 1.087596178 0.2994670868
1.618168712 1.100532413 0.3721403778
1.60389924 1.090008855 0.437751323
1.661107659 1.128463984 0.5264900327
1.673878074 1.133727074 -0.5301134586
1.659246802 1.122971535 -0.4525981247
1.658252716 1.121877909 -0.3809175789
1.653724551 1.117972136 -0.309478879
1.660260081 1.121547341 -0.2408703715
1.654946566 1.117116809 -0.170974195
1.662325621 1.121675611 -0.1028936282
1.641447544 1.106754184 -0.03385587409
1.626072764 1.100934505 0.03357663378
1.619312644 1.095121503 0.1673136503
1.612366557 1.08960402 0.233801946
1.646124125 1.111578703 0.3079145551
1.701734424 1.148699522 0.3908396661
1.767636895 1.192285657 0.4822916389
1.770961404 1.193630099 0.5606541038
1.636332512 1.099569678 -0.5166548491
1.714516759 1.150804639 -0.3931293488
1.761165261 1.181224227 -0.3291896582
1.733415127 1.16217351 -0.2511073947
1.749875546 1.172324419 -0.180561319
1.815797448 1.215571642 -0.112314105
1.681359053 1.129826188 0.0346586816
1.664677382 1.116931677 0.1716714352
1.660673261 1.113823652 0.2403829098
1.818489432 1.217832327 0.4171712995
1.823820591 1.22048068 0.4966884851
1.802414536 1.205700517 0.5694539547
1.83453083 1.222092986 -0.4202242494
1.831053257 1.21885252 -0.3417043984
1.869890809 1.243764758 -0.270606488
1.848527074 1.229088068 -0.1904970706
1.848310113 1.228015065 -0.1140935272
1.85590601 1.232128024 -0.0381840691
1.794600725 1.19504106 0.1849190891
1.736283898 1.15445745 0.3235580027
1.816188693 1.207130432 0.4156447947
1.829693556 1.215184569 0.4971384406
1.811650157 1.20229125 0.5710068941
1.793012738 1.18587029 -0.4863407314
1.874815106 1.239501476 -0.4286198318
1.869907856 1.235320687 -0.3482746482
1.844490528 1.217142582 -0.1896255165
1.61784339 1.069609165 0.09943945706
1.802085638 1.190967083 0.1852677315
1.783170104 1.176678419 0.3316926062
1.830224633 1.207269073 0.4179345369
1.835550666 1.20986414 0.4975883365
1.827129841 1.20339787 0.5746303201
1.872193694 1.229802847 -0.588606596
1.864356279 1.223257899 -0.425185293
1.870904922 1.226619363 -0.3476489186
1.868351817 1.224479318 -0.2691440582
1.882063866 1.232526898 -0.1931117475
1.868537068 1.222736835 -0.1148262247
1.611386061 1.058080435 0.03294834867
1.654775381 1.086157799 0.1015328914
1.81956017 1.193410277 0.186662212
1.672437191 1.09608078 0.2403829098
1.826719046 1.196738362 0.3392014503
1.834427476 1.200873494 0.4179345369
1.818354607 1.189898372 0.4917396307
1.837578177 1.201560736 0.5767009258
1.894061565 1.235195041 -0.5943005681
1.897372127 1.236408949 -0.5128849745
1.903107047 1.238727093 -0.3529676795
1.882385135 1.224772811 -0.270606488
1.879459381 1.221934438 -0.1924144924
1.576470852 1.023771882 -0.03211063147
1.618235946 1.054915428 0.03301815689
1.82747674 1.189046741 0.2625631094
1.838957191 1.196059704 0.3407658041
1.846630216 1.200133324 0.4198426306
1.833729267 1.191293836 0.4948889017
1.835070252 1.191254258 0.5746303201
1.901390195 1.231007457 -0.5953358412
1.92600441 1.245988131 -0.519633472
1.92188549 1.242848992 -0.4366338253
1.883313894 1.216040611 -0.2701190114
1.593481779 1.02692914 -0.03238987178
1.697271347 1.09843421 0.03458887339
1.802336812 1.165091872 0.1840475351
1.846417189 1.192673206 0.2647567391
1.861377954 1.201416492 0.3442073464
1.847300768 1.19187367 0.4190793931
1.847704053 1.19122076 0.4975883365
1.835969448 1.182748437 0.573595047
1.910552025 1.227495074 -0.5968887806
1.868382454 1.199020267 -0.4232771695
1.874911308 1.202286601 -0.3460845947
1.897576094 1.215884566 -0.271581471
1.572972894 1.00673151 -0.09567126632
1.704874039 1.090313077 -0.03462377936
1.886178493 1.211370587 0.03842840344
1.815472364 1.165065646 0.110848695
1.767822146 1.134049773 0.1800383776
1.858906388 1.190650344 0.3429558873
1.848142862 1.18330133 0.4183161557
1.863341331 1.192115664 0.5007376671
1.849853396 1.182575345 0.5767009258
1.921340585 1.224973202 -0.5989593267
1.921507835 1.224135399 -0.5160343051
1.915611506 1.219910264 -0.4331992269
1.907428861 1.213762403 -0.3514033556
1.579185963 1.003729105 -0.1599925607
1.584907174 1.006588936 -0.0961946249
1.924784899 1.22150588 -0.03909159452
1.883650541 1.200479746 0.03828878701
1.82121253 1.159794569 0.1109533682
1.761685491 1.121453047 0.1789925247
1.874721289 1.191571116 0.3451459706
1.858890772 1.181053758 0.4198426306
1.870781898 1.187692523 0.5016374588
1.860494971 1.180250645 0.578771472
1.927237868 1.219291329 -0.5994769335
1.92906332 1.219503641 -0.5169340968
1.923177838 1.215313315 -0.4339624941
1.597109675 1.007701755 -0.2267335206
1.582679868 0.9982109666 -0.1599925607
1.84862411 1.165042758 -0.112314105
1.897969604 1.200310707 0.03849821165
1.830315471 1.156630754 0.1112673879
1.765589118 1.115297198 0.1789925247
1.87552762 1.182912827 0.344520241
1.87296629 1.180840492 0.4221323431
1.869969606 1.178039312 0.5002877116
1.874412656 1.179924488 0.5818772912
1.938261151 1.215868711 -0.518283844
1.919092059 1.203377247 -0.4320543706
1.555188775 0.9736788869 -0.2201525718
1.587843776 0.9937368631 -0.1601668745
1.927188754 1.205177903 -0.1169196591
1.914611459 1.196382046 -0.03870764375
1.914004207 1.201119065 0.03874254599
1.85464716 1.162966728 0.112523444
1.762718439 1.104894876 0.1782952696
1.884668827 1.17950201 0.3454588354
1.887063265 1.180542231 0.4244220257
1.880680561 1.175636053 0.5020873547
1.875242591 1.171327829 0.5808419585
1.549287915 0.9632219672 -0.2822593153
1.575440407 0.9787191749 -0.2225899547
1.833342314 1.138493538 -0.1850934178
1.939869761 1.20370841 -0.1174430177
1.923874259 1.192853093 -0.03881235793
1.913093209 1.191259146 0.03863783181
1.873957276 1.165982246 0.113465488
1.857924819 1.155557036 0.1877080798
1.86695087 1.160267353 0.2647567391
1.885418057 1.170832276 0.344833076
1.887836456 1.171877503 0.4236587882
1.893053412 1.174199581 0.5043368936
1.879320264 1.164774537 0.5808419585
1.926754236 1.190916538 -0.5953358412
1.926805496 1.190020204 -0.5128849745
1.557684302 0.9609197974 -0.2831979096
1.60757494 0.9909213781 -0.2267335206
1.932294488 1.190616846 -0.1948548555
1.932154655 1.189599156 -0.1167103201
1.934839368 1.190320969 -0.03895197436
1.920642018 1.186676621 0.03870764375
1.8797158 1.160482645 0.1135701686
1.877206802 1.158481121 0.1892768741
1.837196589 1.13290441 0.2598819733
1.902947426 1.172534108 0.3473360538
1.888572812 1.163221002 0.4228955805
1.905437827 1.172692657 0.5065863729
1.88995719 1.162254691 0.5829125643
1.957247972 1.200344443 -0.6036180854
1.559931159 0.9555537105 -0.3473351896
1.569453239 0.9606323838 -0.2847622633
1.936170816 1.184164405 -0.2735313475
1.936439037 1.183864117 -0.1948548555
1.936295152 1.182847857 -0.1167103201
1.949223995 1.189810514 -0.03916140646
1.931592226 1.184144974 0.03884726018
1.883754373 1.153915286 0.1135701686
1.899929881 1.163366556 0.1911943108
1.905484438 1.165854812 0.2691440582
1.912085056 1.168975115 0.3482746482
1.902673125 1.162763596 0.425185293
1.904530406 1.162986994 0.5052366853
1.907195568 1.1637007 0.5870536566
1.979580283 1.204550862 -0.6093121171
1.559901953 0.9480629563 -0.3465719521
1.620072484 0.983858645 -0.2935225964
1.961001396 1.189497471 -0.1969465911
1.943828464 1.178151608 -0.1169196591
1.948233128 1.179892898 -0.03905668855
1.942548037 1.181551456 0.03898688033
1.882650733 1.144220233 0.113256149
1.888654709 1.147416711 0.1896255165
1.912936568 1.161256194 0.2696315348
1.911086798 1.159220457 0.3473360538
1.920149446 1.164259434 0.4282382131
1.906911373 1.155322433 0.5047867298
1.914551377 1.159036636 0.5880889297
1.560380101 0.9412814379 -0.410757184
1.564883351 0.9436255693 -0.3469536006
1.85360682 1.11684382 -0.3360727727
1.956294775 1.177786708 -0.2752375305
1.961727738 1.180589795 -0.1965979636
1.956486583 1.176506877 -0.1174430177
1.948911905 1.17102468 -0.03898688033
1.950083971 1.176831365 0.03905668855
1.903737307 1.147954702 0.1143028662
1.890941262 1.13978982 0.1894512028
1.928882122 1.161740184 0.2713377178
1.911736965 1.150504827 0.3467103243
1.927567005 1.159573436 0.4290014803
1.925964952 1.157694221 0.5088358521
1.918584824 1.152347803 0.5880889297
1.572017312 0.9408324361 -0.4130067229
1.825938225 1.092369199 -0.4053411484
1.950748801 1.166111588 -0.3532805741
1.974028349 1.179093719 -0.2771874666
1.96583724 1.173734426 -0.1965979636
1.970873117 1.175809622 -0.1180710569
1.961372375 1.169676065 -0.03916140646
1.955896139 1.171043992 0.03909159452
1.921244144 1.149840236 0.1151402444
1.903458238 1.138294578 0.1903227568
1.93462944 1.156018853 0.271581471
1.927412629 1.151250124 0.3489003778
1.928230762 1.150825739 0.4282382131
1.919952273 1.144974947 0.506136477
1.922395825 1.145978689 0.5880889297
1.553644419 0.923220098 -0.4726556242
1.986750722 1.179177165 -0.4408316016
1.966496944 1.166692019 -0.3554706573
1.984758139 1.176589727 -0.27816239
1.976778269 1.170928121 -0.1972952038
1.967887402 1.165196657 -0.1176523715
1.975768566 1.168933034 -0.0393708311
1.96148777 1.165572405 0.03912649676
1.916658759 1.138029814 0.1146168858
1.905707002 1.130626321 0.1901484579
1.940159321 1.15060997 0.2718251944
1.948413968 1.154584885 0.3520290852
1.935414791 1.146426797 0.4290014803
1.943862796 1.150513291 0.5115352869
1.929710269 1.141227484 0.5891242027
1.548377156 0.9131563902 -0.4700674415
1.984682918 1.169534683 -0.5218830705
2.000799417 1.178561449 -0.443121314
1.989283681 1.170843005 -0.3589122295
1.988852859 1.169654846 -0.27816239
1.984085917 1.166385412 -0.1976438463
1.971943021 1.158319831 -0.1176523715
1.98480773 1.165411949 -0.03947554529
1.965544224 1.158718705 0.03912649676
1.904935598 1.12254107 0.1136748269
1.919746637 1.130366325 0.1911943108
1.939031363 1.140810013 0.2710939646
1.945420742 1.144112229 0.350777626
1.942790151 1.141652703 0.429764688
1.942825317 1.140761256 0.5101855993
1.948478699 1.143623471 0.5937829614
1.588238716 0.9292083979 -0.4814554751
2.008736372 1.174752474 -0.5272818804
2.004901171 1.171570539 -0.443121314
2.00338912 1.17021811 -0.3607894182
1.992720366 1.163053632 -0.27816239
1.99675107 1.164470673 -0.1985154003
1.987850666 1.158816457 -0.1183850765
1.987136245 1.15746963 -0.03944064304
1.983183742 1.160273314 0.03940573707
1.910567164 1.116892338 0.1137795076
1.916799068 1.119639039 0.1904970706
1.956518173 1.142380714 0.2730438709
1.952814937 1.13930583 0.3514033556
1.956741214 1.1411376 0.4320543706
1.943230152 1.132349372 0.509285748
1.955797434 1.138759494 0.5948182344
1.972423553 1.14475441 -0.5994769335
2.021457672 1.172269702 -0.5295313597
2.003883123 1.161610723 -0.4419764578
2.017921209 1.168807387 -0.3626666367
1.996970177 1.155741572 -0.27816239
1.99907887 1.156496286 -0.1983410865
2.005918264 1.159518719 -0.1192224547
1.991364837 1.150178909 -0.03944064304
1.997801542 1.159017086 0.03961516917
1.897368312 1.099866152 0.1127327904
1.908628345 1.105948448 0.1892768741
1.970999599 1.141170502 0.2745063305
1.965527058 1.137086034 0.3529676795
1.967708468 1.137889862 0.4335808754
1.957491159 1.131069779 0.5119851828
1.961631298 1.132548809 0.5953358412
2.014914513 1.160030961 -0.6113826036
2.032293797 1.169093609 -0.5313309431
2.018137693 1.160480261 -0.4442661703
2.015137911 1.15781951 -0.3614151478
2.009599686 1.153705835 -0.2793810964
1.999647737 1.147527218 -0.1979924589
2.004755497 1.149529576 -0.1189084351
2.004043341 1.148190737 -0.03961516917
1.991435647 1.146052241 0.03940573707
1.897733569 1.091244817 0.112523444
1.891748786 1.08736527 0.1871851534
1.983578086 1.139226079 0.2757250071
1.967771173 1.129234433 0.3526548147
1.975074768 1.132967472 0.4343441129
1.969881177 1.129074693 0.5142346621
1.960543513 1.122814894 0.5937829614
2.044114828 1.167361379 -0.6191471815
2.036361933 1.161992908 -0.5313309431
2.025788307 1.155020833 -0.4450294077
2.019166946 1.150778651 -0.3614151478
2.025690079 1.153559804 -0.2810872495
2.012498379 1.14511764 -0.1988640279
2.014164209 1.145134926 -0.1192224547
2.020208836 1.148105025 -0.03985949978
1.998897672 1.141076088 0.03947554529
1.894591331 1.080655932 0.1121047512
1.898994803 1.082728386 0.187533766
1.984092712 1.130330324 0.2752375305
1.980284333 1.127245188 0.3542191386
1.968974471 1.119897604 0.4320543706
1.983974814 1.127971053 0.5169340968
1.967810512 1.117872357 0.5948182344
2.04669857 1.158910275 -0.6186295748
2.037215948 1.152600765 -0.5304311514
2.043680429 1.155317903 -0.4480823576
2.033690214 1.149200678 -0.3632923663
2.028175592 1.145152092 -0.2808435261
2.027093887 1.14360714 -0.1999098957
2.006169081 1.130879045 -0.1184897348
2.027887583 1.142655611 -0.039929308
2.013507843 1.13965261 0.03968497738
1.882892728 1.064856291 0.1111627147
1.892543554 1.06987834 0.1864879131
1.989950418 1.124027371 0.2754812539
1.994724631 1.125804543 0.3560963869
1.985036373 1.119424462 0.4347257316
1.98639822 1.119734287 0.516484201
1.983676791 1.117289305 0.5984416604
2.054301739 1.153291702 -0.6196648479
2.055023432 1.152753711 -0.5340303779
2.040851355 1.144335866 -0.4465559125
2.048228502 1.147532701 -0.3651695848
2.025232792 1.134184957 -0.279868573
2.039766788 1.141389251 -0.2007814497
2.031023026 1.135567069 -0.1197458133
2.031863689 1.135570407 -0.039929308
2.028134346 1.138137221 0.03989440575
1.89008224 1.06023097 0.1113720536
1.903404117 1.066831708 0.1871851534
1.997521162 1.118665695 0.2759687304
1.991746902 1.114976645 0.3548449278
1.997499228 1.117279887 0.4366338253
1.988593102 1.111844063 0.5160343051
1.995997667 1.115068436 0.6010298729
2.058115244 1.146472573 -0.6196648479
2.06734848 1.15067184 -0.5362799168
2.048066378 1.13947022 -0.4473191202
2.058928251 1.144573808 -0.3664210439
2.048070431 1.138068676 -0.2825496793
2.034830809 1.129783511 -0.1999098957
2.045256615 1.134638548 -0.1203738302
2.035618067 1.128826737 -0.039929308
2.033644915 1.132377625 0.039929308
1.900568366 1.057843208 0.1117907465
1.903449059 1.058576584 0.1868365258
2.015101671 1.119748712 0.2779186368
1.990253091 1.105487466 0.3539063036
2.008059978 1.114460111 0.4381602705
1.997381568 1.108079076 0.5173839927
1.992926121 1.104696512 0.5989593267
2.061905384 1.139641643 -0.6196648479
2.084800243 1.151346087 -0.5398791432
2.058708429 1.136467934 -0.4488455653
2.059253454 1.135831237 -0.3657953143
2.055506706 1.132830262 -0.2830371559
2.04903698 1.128797174 -0.2009557486
2.059506178 1.133628964 -0.1210018694
2.044802666 1.124604702 -0.04003402591
2.030387163 1.121759892 0.03978969157
1.909495115 1.054097772 0.1121047512
1.908693194 1.053221703 0.1870108545
2.022280455 1.114977598 0.2784061432
2.020053148 1.112830281 0.358599335
2.011744261 1.107795358 0.4381602705
2.011481762 1.106736064 0.5200834274
2.001848221 1.10052669 0.6005122662
2.077728748 1.13893795 -0.6232883334
2.083678007 1.141254783 -0.5385293961
2.069551229 1.133046508 -0.4503720701
2.063206196 1.128635526 -0.3657953143
2.06815815 1.130408049 -0.2842558622
2.056461811 1.123547792 -0.2013043761
2.059944868 1.124518633 -0.1207925305
2.0610044 1.124163389 -0.04027835652
2.034290791 1.114665151 0.03978969157
1.923674107 1.053181171 0.1127327904
1.915853977 1.048465252 0.1873594671
2.020934582 1.105054975 0.2776749134
2.022192001 1.104824543 0.3582864404
2.017321825 1.101707816 0.438541919
2.022175789 1.103441238 0.5218830705
2.00737381 1.094456315 0.6010298729
2.086783886 1.134446025 -0.6248412132
2.085936785 1.133043647 -0.5380795002
2.080394983 1.129561901 -0.4518985152
2.074077606 1.125196099 -0.3670467734
2.073836565 1.124128461 -0.2844996154
2.067377567 1.12016058 -0.2020016313
2.069127083 1.120173216 -0.1211065501
2.075469494 1.122670293 -0.04048778862
2.041683435 1.109467387 0.03985949978
1.927338958 1.046459317 0.1127327904
1.924755335 1.044622779 0.1878824085
2.028270006 1.099885821 0.27816239
2.045140505 1.108111978 0.3617280126
2.026334524 1.097463727 0.4396867752
2.027728081 1.097304583 0.5223329067
2.024776936 1.094792724 0.6051709652
2.104334116 1.134490371 -0.6289823651
2.101889372 1.132224321 -0.5412288308
2.080867529 1.120433211 -0.4511353076
2.088430643 1.123564124 -0.3689240217
2.074251175 1.115002275 -0.2840121388
2.090581417 1.123310208 -0.203919068
2.073024273 1.112944126 -0.1211065501
2.070564508 1.110692739 -0.04031326249
2.061386824 1.110870957 0.04017364234
1.925703526 1.036885858 0.1124187708
1.938916445 1.04356277 0.1889282614
2.039089918 1.09656024 0.2791373432
2.04725647 1.100030899 0.3614151478
2.037071228 1.094099998 0.4412132204
2.026395082 1.087454796 0.5209832191
2.037098646 1.092283249 0.6077591777
2.101467133 1.123494148 -0.626911819
2.1127038 1.12855351 -0.5430284142
2.088229656 1.115011573 -0.4518985152
2.101053953 1.120916843 -0.3704883456
2.085137844 1.111489534 -0.284987092
2.085891724 1.110957861 -0.2030474991
2.087474585 1.111332059 -0.121734567
2.076194286 1.104397893 -0.04034816474
2.084652662 1.114035606 0.04055759683
1.938120842 1.034860849 0.1129421294
1.946062922 1.038663983 0.1892768741
2.056917906 1.096909046 0.2810872495
2.040623426 1.08730495 0.3595379591
2.054739952 1.094366312 0.4442661703
2.038779974 1.084952593 0.5232326984
2.040899277 1.085165262 0.6077591777
2.100450277 1.113070011 -0.6253588796
2.120074749 1.122995734 -0.543928206
2.099243641 1.111023307 -0.45342502
2.098163605 1.109514475 -0.3692368865
2.103044748 1.111626029 -0.2869369984
2.089757204 1.103669405 -0.2030474991
2.096832991 1.106470466 -0.1220485866
2.08711195 1.100875139 -0.04048778862
2.079693794 1.102070689 0.04038307071
2.024681807 1.072013974 0.1178617179
2.022063017 1.069723845 0.1964236498
2.06775403 1.093433738 0.2820622325
2.051393032 1.083865881 0.3607894182
2.055265188 1.084994316 0.4435029626
2.058256149 1.085654855 0.5272818804
2.039548159 1.075332046 0.6062062383
2.11629343 1.112022042 -0.6289823651
2.127627373 1.117030025 -0.5448280573
2.110062361 1.107338428 -0.4549514651
2.109021187 1.105853319 -0.3704883456
2.117655754 1.109437227 -0.2883994281
2.104186535 1.101914167 -0.2040933669
2.098913193 1.098217964 -0.1219439209
2.098220825 1.096924186 -0.04062740505
2.078407764 1.091651797 0.04027835652
2.040976524 1.07108295 0.1185944155
2.036371231 1.068211675 0.1974695325
2.068230867 1.084004998 0.2815747261
2.071101189 1.084588051 0.3636052608
2.055561066 1.075992942 0.4427397251
2.067213535 1.08117342 0.528631568
2.050324678 1.071427822 0.608276844
2.130441666 1.109984159 -0.6320881844
2.128056526 1.107795954 -0.543928206
2.124364376 1.105404019 -0.4572412074
2.121632099 1.103040218 -0.3720526993
2.121515274 1.10203898 -0.2883994281
2.11509347 1.098234534 -0.204790622
2.111598015 1.095484018 -0.1224672794
2.116240263 1.096954942 -0.04090664536
2.101715326 1.094550014 0.04066231102
2.046474695 1.06487453 0.1186990887
2.047158003 1.064774871 0.1981667876
2.073763371 1.077694774 0.2818184793
2.074874878 1.077351451 0.3636052608
2.069759846 1.074237108 0.4450294077
2.070975304 1.07395041 0.528631568
2.067774296 1.071374774 0.6124179363
2.151467323 1.111406684 -0.6372645497
2.140568733 1.104830384 -0.5461777449
2.124720573 1.096181035 -0.4564779401
2.137759924 1.101963639 -0.3742427528
2.121819258 1.092809319 -0.2879119217
2.129542589 1.096316934 -0.2058364749
2.120737314 1.090846419 -0.1227812916
2.119866133 1.089931607 -0.04090664536
2.109076738 1.089042306 0.04073211923
2.048219919 1.057165623 0.1185944155
2.059715986 1.062188864 0.1990383416
2.082806826 1.073176622 0.2825496793
2.078435898 1.070465446 0.3636052608
2.083971024 1.07239604 0.4473191202
2.076444149 1.067606211 0.5290814638
2.078188181 1.068044424 0.6144884825
2.145017147 1.098605394 -0.6341587305
2.151159048 1.101278543 -0.5479773879
2.128534317 1.088757038 -0.4564779401
2.1484375 1.098466039 -0.3754942715
2.139574051 1.092991114 -0.2898618579
2.13158226 1.087970495 -0.205662176
2.131459475 1.087438941 -0.1231999844
2.112968683 1.077075839 -0.04069721699
2.116236448 1.083864927 0.04080192745
2.066958904 1.056807041 0.1993869543
2.102263212 1.07439363 0.2847433388
2.090955973 1.067695856 0.3651695848
2.098007679 1.070833921 0.4496088028
2.090389252 1.066027045 0.5317808986
2.078461647 1.059029102 0.6134532094
2.160704851 1.097611189 -0.6377821565
2.168892384 1.100818157 -0.5515766144
2.139136076 1.085245967 -0.458004415
2.152259111 1.090959311 -0.3754942715
2.14691782 1.087310076 -0.2903493047
2.138733387 1.08269608 -0.2060107887
2.142371178 1.083598375 -0.1236186624
2.102437973 1.062477708 -0.0404179804
2.120006561 1.076471686 0.04080192745
2.082267761 1.056395054 0.1201644912
2.066898346 1.048144221 0.1990383416
2.1060009 1.067048192 0.2847433388
2.098195314 1.062174439 0.3657953143
2.105237007 1.065276384 0.4503720701
2.095836878 1.05960238 0.5322307944
2.085593939 1.053509951 0.6144884825
2.167973518 1.09180057 -0.6388174891
2.165758133 1.089737415 -0.5497769713
2.156942368 1.084829926 -0.4610573649
2.156054497 1.083439231 -0.3754942715
2.161345005 1.085152984 -0.2918117642
2.14784193 1.077904344 -0.20653373
2.14078474 1.0734272 -0.1233046502
2.156193495 1.080213189 -0.04139531404
2.087726593 1.050018072 0.1202691719
2.079445124 1.045396924 0.1999098957
2.109711885 1.059691906 0.2847433388
2.110717773 1.059273362 0.367359668
2.105432034 1.05616188 0.4496088028
2.106491804 1.055772185 0.5340303779
2.09616828 1.049682856 0.6165590286
2.176956892 1.086814404 -0.640370369
2.173036814 1.083909988 -0.5506767631
2.167932272 1.080420375 -0.4625838399
2.168663979 1.080311179 -0.3770585954
2.158010244 1.074065447 -0.2908368111
2.166049957 1.07712245 -0.2079282254
2.144704342 1.065574169 -0.1233046502
2.163533449 1.07445848 -0.04146512225
2.13820529 1.067003369 0.04101135954
2.089592218 1.041832328 0.1201644912
2.095563412 1.0443542 0.2011300772
2.115175486 1.053205371 0.284987092
2.123245478 1.056298971 0.3689240217
2.112805843 1.050184369 0.4503720701
2.106673717 1.04667902 0.5331305861
2.117123842 1.05094862 0.621735394
2.193046808 1.084824562 -0.6439938545
2.187476873 1.08111918 -0.5533761978
2.175399303 1.074204087 -0.4633470476
2.179693937 1.07585299 -0.3783100545
2.170835257 1.070536971 -0.2920555174
2.177131891 1.072698951 -0.2086254656
2.162930489 1.064763665 -0.1241420209
2.167456865 1.066522002 -0.04146512225
2.156442881 1.066248298 0.04129059985
2.093396425 1.034167051 0.1201644912
2.110096693 1.041957974 0.202175945
2.126142025 1.048959494 0.2859620154
2.12887454 1.04938364 0.3692368865
2.134253025 1.051108003 0.4541882575
2.112243891 1.03981173 0.533580482
2.127895355 1.046592832 0.6238059402
2.195273161 1.075929642 -0.6434761882
2.201925993 1.078235984 -0.5560756326
2.182661533 1.068331718 -0.4641103148
2.196044683 1.073930979 -0.3805001676
2.183475018 1.067313194 -0.293274194
2.184443712 1.066840887 -0.2089740783
2.177404165 1.062461734 -0.1247700602
2.171166658 1.058948994 -0.04146512225
2.178294182 1.067135215 0.04163964465
2.104168892 1.030366421 0.1205831841
2.10853219 1.0315907 0.2016530037
2.138889313 1.045518994 0.2871807218
2.132524729 1.041945577 0.3692368865
2.141436577 1.045375466 0.4549514651
2.126368999 1.037559271 0.5362799168
2.129798889 1.038312554 0.6232883334
2.193616629 1.066109896 -0.6419233084
2.217760801 1.076886058 -0.5592249036
2.196789742 1.066230774 -0.4663999975
2.201371431 1.067503929 -0.3808130324
2.197720528 1.065261006 -0.2947366238
2.191556215 1.061327338 -0.2093227059
2.191702366 1.060455203 -0.1253980994
2.189068317 1.058707952 -0.04174436256
2.171028376 1.054663658 0.04143021628
2.118354082 1.028616786 0.1212112084
2.113733768 1.025462866 0.2018273026
2.158421755 1.046212554 0.2893743813
2.14663434 1.040036321 0.3711140752
2.148426056 1.039978623 0.4557147026
2.145585537 1.038141489 0.5403289795
2.129751682 1.029563069 0.6222530603
2.214542627 1.067216992 -0.6470996737
2.217807293 1.067836523 -0.5583251119
2.203851223 1.060643077 -0.4671632349
2.197778225 1.056774497 -0.3795615733
2.211975813 1.063127279 -0.2961990535
2.198655844 1.055779457 -0.2096713334
2.188004255 1.049725056 -0.1249794066
2.194369793 1.052307963 -0.04177926481
2.178117752 1.049193621 0.04150002822
2.13255024 1.026786685 0.1218392476
2.126100302 1.022765875 0.2026988715
2.163668394 1.039909482 0.2896181345
2.158974409 1.03718853 0.3726784289
2.148323298 1.031148911 0.4549514651
2.159558535 1.036077857 0.5430284142
2.136638403 1.024164319 0.6232883334
2.226785183 1.064031363 -0.6496878266
2.224853754 1.062154651 -0.5592249036
2.22153163 1.060092688 -0.4702161849
2.21196866 1.054581642 -0.3814387619
2.215489388 1.055785656 -0.2961990535
2.216535807 1.055335045 -0.2110658288
2.19508028 1.044179916 -0.1251887381
2.215907335 1.053611755 -0.04212831706
2.188802242 1.04541266 0.04163964465
2.132338762 1.017987728 0.1216299087
2.136673212 1.019141316 0.2033961266
2.163520813 1.031020164 0.2891306281
2.17310214 1.035120726 0.3745556474
2.162367344 1.029081583 0.4572412074
2.15242362 1.023888588 0.5403289795
2.153981447 1.023707747 0.6274294257
2.248131037 1.06412816 -0.6548642516
2.23577857 1.057324886 -0.561024487
2.225402117 1.051943779 -0.4702161849
2.228322983 1.05237174 -0.383628875
2.219527245 1.047270536 -0.2961990535
2.222191095 1.048053145 -0.2112401277
2.207926273 1.040383577 -0.1257120967
2.212698936 1.041689992 -0.04198869318
2.203464746 1.042515039 0.04184907675
2.136231899 1.009793162 0.1216299087
2.147599697 1.014708161 0.2040933669
2.17626071 1.0273211 0.2903493047
2.166341066 1.021712661 0.3726784289
2.173227549 1.024498224 0.4587676525
2.161628485 1.018106818 0.5416787267
2.171880484 1.022009373 0.631570518
2.24483633 1.052992105 -0.6527937055
2.250042915 1.05447638 -0.5637239218
2.232616425 1.045834184 -0.4709794521
2.246295691 1.051286101 -0.3861318231
2.233958721 1.044561863 -0.2976615131
2.234860659 1.044508457 -0.2121116966
2.220593214 1.036895871 -0.1262354702
2.216321707 1.03395927 -0.04198869318
2.22157526 1.041607857 0.04212831706
2.146978378 1.00571847 0.1220485866
2.149324417 1.006360054 0.203919068
2.190622568 1.024764538 0.2918117642
2.180631638 1.01916337 0.3745556474
2.191020727 1.023553014 0.4618206024
2.166934729 1.011379838 0.5421286225
2.173683643 1.013605952 0.6310528517
2.248498678 1.045149088 -0.6527937055
2.269617558 1.054002404 -0.5677731037
2.250499487 1.04464674 -0.4740323722
2.246367693 1.041775823 -0.3855060637
2.248397827 1.041765213 -0.299123913
2.238493443 1.036700249 -0.2121116966
2.242325068 1.037525773 -0.1272821873
2.236253977 1.033767939 -0.04230283946
2.217943192 1.030476928 0.04198869318
2.16134572 1.003262877 0.1226766258
2.152824163 0.9988518357 0.203919068
2.197788239 1.018780589 0.2922992408
2.189553499 1.014035106 0.3754942715
2.191017151 1.01424861 0.4610573649
2.18637085 1.011171222 0.5461777449
2.178962231 1.006822944 0.631570518
2.264415503 1.042951703 -0.6564171314
2.262660265 1.041187406 -0.565073669
2.261266947 1.040066719 -0.4755588472
2.249990225 1.033928633 -0.3855060637
2.262845278 1.038879514 -0.3005863428
2.243909121 1.029711604 -0.2122860104
2.240486622 1.0271945 -0.1269681752
2.247120619 1.0292871 -0.04244245589
2.221526861 1.022727966 0.04198869318
2.175721645 1.000720263 0.1233046502
2.167159319 0.9963238835 0.2049649209
2.2013309 1.011103153 0.2922992408
2.209237814 1.013801336 0.3783100545
2.194543839 1.006594777 0.4610573649
2.200516462 1.008404732 0.5488771796
2.194758892 1.00483954 0.6351940036
2.283860207 1.042258859 -0.6610759497
2.269827366 1.034899116 -0.5659734607
2.275602579 1.03705132 -0.4778485298
2.262574434 1.030161738 -0.3870703876
2.25922966 1.027686954 -0.2996113896
2.261999369 1.028470397 -0.2136805058
2.240421772 1.017714858 -0.1267588288
2.267088652 1.02887392 -0.04275659844
2.23236084 1.018287301 0.04212831706
2.179201603 0.9931188822 0.1233046502
2.185128689 0.9953606725 0.2063594162
2.204847097 1.003412366 0.2922992408
2.209166527 1.004448652 0.377684325
2.205193996 1.002176881 0.4625838399
2.195150852 0.996689558 0.5466276407
2.207050085 1.001162052 0.6377821565
2.289243698 1.03507781 -0.6615934968
2.280530453 1.03017807 -0.5677731037
2.279207945 1.02910316 -0.4778485298
2.273359537 1.02550602 -0.3883219063
2.262803555 1.019793868 -0.2996113896
2.276475191 1.025477409 -0.2147263587
2.256709814 1.015626311 -0.1274915338
2.261546612 1.01685524 -0.04258207232
2.25047946 1.017076254 0.04240754992
2.179013729 0.9838637114 0.1230953038
2.195854425 0.9910049438 0.2070566714
2.219193459 1.000607133 0.2937616706
2.227068186 1.003221154 0.3801873028
2.222999334 1.000922918 0.4656367898
2.200394154 0.9898199439 0.5470775962
2.22286582 0.9989957809 0.6414057016
2.301658392 1.031028748 -0.6641817093
2.296563387 1.02778399 -0.5709223747
2.282786608 1.021140337 -0.4778485298
2.287745714 1.022400618 -0.390199095
2.277225494 1.016744256 -0.3010738194
2.276401997 1.015901446 -0.214377746
2.271186352 1.012621999 -0.1281195581
2.265082359 1.008954287 -0.04258207232
2.268617153 1.015751243 0.04268679023
2.200666666 0.984406352 0.1241420209
2.199300528 0.9833334088 0.2070566714
2.233547926 0.9977118373 0.2952241302
2.217929125 0.9898064137 0.3779972196
2.240823746 0.9995548129 0.4686897397
2.216295481 0.9876862168 0.5502268672
2.224574804 0.9904440641 0.6408880353
2.29818058 1.019853115 -0.6621111631
2.312607765 1.025289416 -0.5740717053
2.297106981 1.017937541 -0.480138272
2.29671979 1.01680696 -0.3911376894
2.295283556 1.015214443 -0.3030237556
2.287223577 1.011170983 -0.2150750011
2.289322376 1.011144996 -0.1289569288
2.283226967 1.007499218 -0.04286131263
2.26483655 1.004584551 0.04254717007
2.207741976 0.9783363938 0.1243513823
2.199075222 0.9740380049 0.2067080289
2.247909069 0.9947283268 0.2966865301
2.24847126 0.9940388203 0.3826902509
2.244299412 0.99172616 0.4686897397
2.233991861 0.9862395525 0.5538260937
2.229785442 0.9834539294 0.6414057016
2.315874577 1.018044829 -0.666252315
2.317956209 1.017995954 -0.5745216012
2.311432362 1.014648318 -0.4824279845
2.303873539 1.010369897 -0.3917634189
2.30426836 1.009585619 -0.3037549555
2.303514957 1.008774996 -0.2162951678
2.28917861 1.001545906 -0.1287475973
2.297723532 1.004328966 -0.04307074472
2.271991253 0.9982808232 0.04261698201
2.222115993 0.9754411578 0.1249794066
2.218882799 0.9735600352 0.2082768381
2.244095087 0.9836882949 0.2957115769
2.2464993 0.9838062525 0.3817516267
2.244150162 0.9823120832 0.4679265022
2.246348619 0.9823387861 0.5560756326
2.238515615 0.9779840708 0.6429585218
2.328270435 1.013810277 -0.6688404679
2.321495771 1.009897947 -0.5745216012
2.318561077 1.008138657 -0.483191222
2.316444874 1.006258607 -0.3933278024
2.311420202 1.003117085 -0.3042424321
2.308849096 1.001522422 -0.2164694667
2.29632616 0.9951367974 -0.1289569288
2.315896273 1.002657771 -0.04334998131
2.282796144 0.9935365319 0.04275659844
2.232834339 0.9708636999 0.1253980994
2.231403828 0.9697799087 0.209148407
2.252977848 0.9782201052 0.2964428067
2.273478031 0.9861792922 0.3858189285
2.263776779 0.981500566 0.4713610411
2.246186733 0.9729440212 0.5551758409
2.254327059 0.9755344391 0.646582067
2.344212055 1.01103282 -0.6724639535
2.332165718 1.004872084 -0.5763211846
2.325671911 1.001592875 -0.4839544296
2.330830812 1.002850294 -0.3952049911
2.3112607 0.9934741855 -0.3037549555
2.326976061 0.9997481704 -0.2178639621
2.310797691 0.9918421507 -0.1295849681
2.312030315 0.9914157391 -0.04321036115
2.304614067 0.9934776425 0.04310565069
2.236209393 0.9630641937 0.1253980994
2.245756149 0.9667109847 0.2101942748
2.263673067 0.9734871984 0.2974177599
2.276906967 0.9782367349 0.3858189285
2.270796776 0.9751423001 0.4721242785
2.247778654 0.9643285275 0.5547258854
2.266596317 0.9714649916 0.6491702199
2.340620756 0.9998088479 -0.6703934073
2.353582621 1.004374385 -0.5808202028
2.336377382 0.9965503216 -0.4854809344
2.341586351 0.9978061318 -0.39645648
2.329326153 0.9916200638 -0.3057048619
2.32495141 0.9892796278 -0.2173410356
2.325274706 0.9884575009 -0.1302130073
2.32283926 0.9864663482 -0.04334998131
2.30990696 0.9862114191 0.04314055294
2.239557266 0.955253005 0.1253980994
2.258280754 0.962772131 0.2110658288
2.283494234 0.9725808501 0.2996113896
2.265765905 0.9640958905 0.3833159804
2.283219814 0.9710521102 0.4740323722
2.269066334 0.9640974998 0.5592249036
2.269973755 0.9635465741 0.6491702199
2.352992535 0.9953951836 -0.6729816198
2.367844582 1.000703812 -0.5835196376
2.347075939 0.9914437532 -0.4870073795
2.346874952 0.9903936982 -0.3967693448
2.343748093 0.9881105423 -0.3071672916
2.32488966 0.9792042971 -0.216992408
2.339755297 0.9849846959 -0.1308410317
2.329955339 0.9799019098 -0.04341978952
2.31333518 0.9781428576 0.04314055294
2.261276722 0.9552007914 0.1264448166
2.252450228 0.9510090947 0.2101942748
2.294191837 0.9676894546 0.3005863428
2.287321329 0.9638512135 0.386444658
2.292023897 0.9653618336 0.4751772285
2.292176485 0.9644842744 0.5641738772
2.273323298 0.9556174874 0.6491702199
2.365534544 0.9904955626 -0.6755697727
2.374918222 0.9939376116 -0.5844194293
2.361561537 0.9873790741 -0.4892971218
2.350488901 0.9817858338 -0.3967693448
2.354510307 0.9829830527 -0.3081422746
2.346681833 0.9787529707 -0.2187355161
2.347037077 0.9779382348 -0.1310503632
2.351821184 0.9794512987 -0.04376883805
2.316735268 0.9700623155 0.04314055294
2.271967173 0.9503851533 0.1268634945
2.266950607 0.9473558068 0.2112401277
2.301218748 0.9612059593 0.3010738194
2.308902502 0.9634677172 0.3895733654
2.295547009 0.9569541216 0.4751772285
2.295695782 0.9560770392 0.5641738772
2.287346363 0.9521300793 0.6522760391
2.376115561 0.9851922989 -0.6776403189
2.378545523 0.9852257967 -0.5844194293
2.368621588 0.9806321859 -0.4900603294
2.363029003 0.9773494601 -0.3983336687
2.358097553 0.9743461609 -0.3081422746
2.361133575 0.9751181006 -0.2197813988
2.346743584 0.968216598 -0.1308410317
2.366318464 0.9758095145 -0.04397827014
2.331359625 0.966157496 0.04334998131
2.28265214 0.9455054402 0.1272821873
2.284971476 0.9455319643 0.2126346231
2.310229778 0.9550408125 0.3018050492
2.321379423 0.9591745138 0.3911376894
2.302502632 0.9504340291 0.4759404361
2.300821066 0.9488000274 0.5646237135
2.297800303 0.9470851421 0.6543466449
2.393837214 0.9827609658 -0.6817814112
2.389011145 0.9802924991 -0.5862190723
2.379296541 0.975336194 -0.4915867746
2.377224207 0.9740020633 -0.400210917
2.361315489 0.9665215015 -0.3081422746
2.381120205 0.973657608 -0.221350193
2.364731789 0.9664745927 -0.1316784024
2.367858648 0.9667881131 -0.04394336417
2.345649481 0.9629781246 0.04355940968
2.27854681 0.9345006347 0.1268634945
2.297476053 0.9413274527 0.2135061771
2.31889534 0.9496307969 0.302536279
2.322885752 0.9503170252 0.3908248544
2.320179224 0.9487383962 0.478993386
2.307563066 0.9426383376 0.5655235648
2.310035229 0.9427087307 0.6569347978
2.404241323 0.977727592 -0.6838519573
2.406861544 0.9778155684 -0.5898182392
2.386156082 0.9689173102 -0.4923500717
2.395253658 0.9716389775 -0.402713865
2.383072853 0.9657279849 -0.3105796576
2.371408939 0.9605208635 -0.2201300114
2.382902861 0.964206934 -0.1325157881
2.371219158 0.9585162401 -0.04394336417
2.36752224 0.962313652 0.04390846193
2.29659915 0.9325520992 0.1277008802
2.30058527 0.9337028861 0.2135061771
2.336913347 0.9474969506 0.3044861853
2.331680536 0.9444291592 0.3917634189
2.330756187 0.9435799122 0.4805198908
2.319871902 0.9382324815 0.5677731037
2.32047677 0.937533617 0.6590053439
2.41122365 0.9707728624 -0.68488729
2.428339958 0.9766791463 -0.5943172574
2.396810293 0.9635106921 -0.493876487
2.398630857 0.9632714391 -0.402713865
2.39379859 0.9603606462 -0.3115545809
2.383994102 0.9559442401 -0.2210015804
2.389961958 0.9573689699 -0.1327251196
2.385690212 0.9546903968 -0.04415279254
2.363445997 0.9510580301 0.04376883805
2.310959578 0.9289989471 0.1283289045
2.303830147 0.9256671667 0.2135061771
2.354944944 0.9452489018 0.3064360917
2.342297316 0.9392245412 0.3930149376
2.335858107 0.9361679554 0.4809014797
2.332178593 0.9337499142 0.570022583
2.320147514 0.9279934764 0.6579700708
2.423570395 0.9659269452 -0.6874754429
2.424492359 0.9653137922 -0.592517674
2.407454729 0.9580435157 -0.495402962
2.3983078 0.9534326792 -0.4020881355
2.410051107 0.9571270943 -0.3132607937
2.394724131 0.9505563974 -0.2216988355
2.397002459 0.950492382 -0.132934466
2.40016222 0.9507773519 -0.04436222091
2.366751671 0.9428016543 0.04376883805
2.325321913 0.9253588915 0.1289569288
2.320006847 0.92277354 0.2147263587
2.35822916 0.9370244741 0.3064360917
2.352905989 0.9339571595 0.3942663968
2.340936184 0.9287343025 0.4812831283
2.349916935 0.9313467741 0.5736217499
2.334150076 0.9241554141 0.6610759497
2.435912609 0.9610052705 -0.6900636554
2.43872571 0.9611314535 -0.5952171087
2.421744585 0.9539507627 -0.4976926744
2.420002699 0.9522890449 -0.4052168131
2.415224314 0.9494365454 -0.3135044873
2.412862778 0.9480207562 -0.2230933309
2.39658761 0.9406594038 -0.1327251196
2.414637089 0.9467725754 -0.04457164928
2.388630867 0.9418714643 0.04411788657
2.332254887 0.918699801 0.1291662902
2.338044405 0.9205103517 0.216120854
2.361485958 0.928786397 0.3064360917
2.370859861 0.9315177202 0.3967693448
2.351473331 0.9234269857 0.4828095734
2.353153467 0.9231389165 0.5736217499
2.34815383 0.9202306867 0.6641817093
2.446450233 0.9553077817 -0.6921342015
2.442065954 0.9526122212 -0.5952171087
2.428717613 0.9469182491 -0.4984559119
2.43067503 0.9467028379 -0.4064682722
2.414824009 0.9395598769 -0.3130170405
2.427462816 0.9435019493 -0.2241391838
2.414749861 0.9380756021 -0.1335625052
2.412334204 0.9361682534 -0.0444669351
2.403081179 0.9378894567 0.04432731867
2.33730793 0.9112790823 0.1292709559
2.350525618 0.9159598947 0.216992408
2.372112989 0.9234185219 0.3074110448
2.372256517 0.9225196838 0.39645648
2.374811172 0.9230373502 0.4870073795
2.356361866 0.9149186015 0.5736217499
2.365760088 0.9176189899 0.6683228016
2.460747957 0.9505106211 -0.6952400208
2.461737156 0.9504003525 -0.5992661715
2.435835838 0.9394225478 -0.499219209
2.456247807 0.9463101029 -0.4102227092
2.434761524 0.9375441074 -0.3152106702
2.430741787 0.9350221157 -0.2241391838
2.429358244 0.9335166812 -0.1341905296
2.41932106 0.9291751385 -0.04453674331
2.417532682 0.9338179231 0.04453674331
2.351655006 0.907428205 0.1298989803
2.352007866 0.9066226482 0.2168181092
2.384583712 0.9187003374 0.3086297214
2.379148483 0.9156540036 0.3970822096
2.387341022 0.9178491235 0.4889154732
2.372433424 0.9111673236 0.5767711401
2.370752811 0.9100471139 0.6688404679
2.46405077 0.9419157505 -0.6952400208
2.477948427 0.9462357163 -0.6024155021
2.457442045 0.937915206 -0.5030353069
2.455844879 0.936322391 -0.4095969796
2.449311972 0.9328537583 -0.3166731
2.43973875 0.928232789 -0.2246621251
2.447536469 0.9307105541 -0.1350279152
2.441404104 0.9274033904 -0.04488579556
2.41720295 0.9235241413 0.0444669351
2.36056304 0.900940001 0.1302130073
2.355158567 0.8984063864 0.2168181092
2.410194397 0.9184371233 0.3115545809
2.388027668 0.9090343714 0.3980208337
2.392365217 0.9102088213 0.4892971218
2.384707928 0.9063414335 0.5790206194
2.370460033 0.8999808431 0.6678052545
2.481942415 0.9383441806 -0.6993811727
2.483058691 0.9382709265 -0.6028653979
2.464537144 0.9302878976 -0.5037985444
2.466653585 0.9301033616 -0.4108484685
2.467413902 0.9298981428 -0.3186230063
2.454152346 0.9239221215 -0.2257079929
2.44719243 0.9203268886 -0.1348185539
2.459601164 0.9245035052 -0.04516502842
2.427893877 0.9179102182 0.04460655525
2.371167421 0.8955165744 0.1306316853
2.365891933 0.8925807476 0.2175153494
2.404098749 0.9065157175 0.3103359044
2.404126167 0.9055677652 0.400210917
2.395685434 0.9014336467 0.4892971218
2.402606726 0.9030807018 0.5826198459
2.384437799 0.8957765102 0.6709110141
2.492114782 0.9332515001 -0.7014516592
2.482506275 0.9286654592 -0.6019656062
2.485836267 0.9294166565 -0.5076147318
2.484367132 0.9278791547 -0.4133513868
2.468623877 0.921017468 -0.318379283
2.464669943 0.9185624123 -0.2264052331
2.457558632 0.9154223204 -0.1352372617
2.475772381 0.9212241769 -0.04540936649
2.445907354 0.9154609442 0.04488579556
2.379736185 0.8897473812 0.1309456974
2.387347698 0.8921183944 0.2192584574
2.414530516 0.9013158679 0.3113108575
2.418221235 0.9017319679 0.4020881355
2.405863762 0.896645844 0.4908235669
2.39447403 0.891449213 0.5799204111
2.40188098 0.8932510614 0.6750521064
2.510011911 0.9294774532 -0.7055928111
2.500353813 0.9254047871 -0.6055648327
2.481860638 0.9175755978 -0.5060882568
2.491457462 0.9201365709 -0.4139771461
2.475548744 0.9137689471 -0.3188667595
2.488424301 0.9175360799 -0.2283226699
2.477764606 0.9126220345 -0.1361792982
2.480849266 0.9132677913 -0.04544426873
2.456588984 0.9096944928 0.04502541199
2.379080772 0.8800497651 0.1307363659
2.396208286 0.885433495 0.2197813988
2.428834677 0.8970089555 0.3127732873
2.417647362 0.8919171095 0.4014623761
2.418344975 0.8912156224 0.4927316606
2.406868935 0.8860335946 0.58216995
2.421301603 0.890865624 0.6797109246
2.51686883 0.9220398664 -0.7066280246
2.514708519 0.9202530384 -0.6082642078
2.496110916 0.9129533172 -0.5083779693
2.509497881 0.9168565869 -0.416480124
2.486340284 0.9074122906 -0.3198417127
2.485996962 0.9067954421 -0.2277997285
2.484688282 0.9053355455 -0.1363886446
2.476506472 0.9018648267 -0.0453046523
2.478684425 0.9075605869 0.04537446052
2.397143364 0.8772302866 0.1315737367
2.40115571 0.8777483702 0.2199557126
2.443294287 0.8921855688 0.3142357171
2.426312923 0.8855047822 0.4024009705
2.441730499 0.8901659846 0.4969294369
2.415440559 0.8796265721 0.5835196376
2.424396515 0.8824087381 0.6797109246
2.512806892 0.9106164575 -0.704557538
2.526908159 0.9152263403 -0.6105137467
2.510359526 0.9082429409 -0.5106676817
2.516239882 0.9098724723 -0.4171058536
2.508005619 0.9059066176 -0.3222790956
2.496643782 0.9008162618 -0.2284969687
2.498949528 0.9011566639 -0.1370166689
2.502216101 0.9013464451 -0.04572350904
2.477920055 0.8979738355 0.0453046523
2.411458969 0.8729355931 0.132201761
2.411699772 0.8720708489 0.2206529528
2.457441568 0.8881260753 0.3156981766
2.44239521 0.881724596 0.4045910537
2.446516275 0.8827297091 0.4973110855
2.442177296 0.8802009225 0.5893683434
2.429279089 0.8745955229 0.6802285314
2.537634134 0.9101039767 -0.7107691765
2.530086756 0.9064019322 -0.6105137467
2.528144598 0.9052069783 -0.5137206316
2.519400358 0.901084125 -0.4171058536
2.52610755 0.9024886489 -0.324229002
2.507122755 0.8952127099 -0.2291942239
2.509604931 0.8951114416 -0.1374353617
2.512881756 0.8952916861 -0.0458631292
2.481039524 0.8893181086 0.0453046523
2.431414604 0.8705726862 0.1331438124
2.422081709 0.8667541742 0.221350193
2.456787586 0.8782066107 0.3152106702
2.465921879 0.8805011511 0.4080326259
2.451431274 0.8748447299 0.4976926744
2.447070837 0.8723244071 0.5898182392
2.45233655 0.8732382059 0.6859225631
2.540795803 0.9012398124 -0.7107691765
2.535072565 0.8982149363 -0.6109636426
2.538691521 0.8989972472 -0.5152471066
2.533704042 0.8962373137 -0.4189830422
2.525499105 0.8923432827 -0.3237415254
2.525261402 0.8917636871 -0.2305887192
2.508947372 0.8850163221 -0.1372260153
2.531080246 0.8918303251 -0.04614236578
2.499206781 0.8859981894 0.04558388889
2.436321735 0.8627461791 0.1332484782
2.438240051 0.86294806 0.2225703895
2.467324972 0.8722715378 0.3161856234
2.474568129 0.8738619685 0.4089712501
2.456321955 0.8669351339 0.4980743229
2.46112752 0.8676666021 0.592517674
2.457192421 0.8653137088 0.6864402294
2.562155247 0.8987616897 -0.7159455419
2.55106616 0.8938705921 -0.6141129732
2.545519352 0.8914296031 -0.516010344
2.551733732 0.8926047683 -0.4214859903
2.532346725 0.8848311305 -0.324229002
2.539645195 0.8868840337 -0.2316345721
2.530879259 0.8828318119 -0.1382727325
2.534177065 0.8829915524 -0.04614236578
2.509832859 0.8799145818 0.04572350904
2.444972754 0.856218636 0.1335625052
2.454401493 0.8590382934 0.2237905711
2.487218857 0.8695513606 0.318379283
2.486928225 0.8684744835 0.410535574
2.474161148 0.8635329008 0.501127243
2.456781149 0.8565036654 0.5907180905
2.47296834 0.8611789942 0.6900636554
2.5652771 0.8898118734 -0.7159455419
2.568901539 0.8900646567 -0.6177121997
2.556036472 0.8851076365 -0.517536819
2.562301397 0.8862755895 -0.4227374792
2.548554182 0.880523324 -0.325935185
2.542725325 0.8780141473 -0.2316345721
2.541498184 0.876596272 -0.1386914253
2.5410254 0.8754422665 -0.04621217772
2.531782866 0.8776975274 0.04607255757
2.455496311 0.8502924442 0.1339811981
2.449854136 0.8478585482 0.2230933309
2.490239143 0.8608633876 0.318379283
2.486210346 0.858499229 0.4099098444
2.492007256 0.8600142002 0.5041801333
2.472651958 0.852368772 0.5938673615
2.470479727 0.850654006 0.688510716
2.56836772 0.8808513284 -0.7159455419
2.583054543 0.8848808408 -0.6204116344
2.57025528 0.8799949884 -0.5198264718
2.570987225 0.8792430758 -0.4236761034
2.568518162 0.8773988485 -0.3281288445
2.55331707 0.871707201 -0.2323318273
2.555884361 0.8715890646 -0.1393194646
2.55542326 0.8704349399 -0.04642160237
2.53483057 0.8688563704 0.04607255757
2.475455761 0.8475378752 0.1349232346
2.460338354 0.8418835998 0.2237905711
2.519527197 0.861153245 0.3217916191
2.50414753 0.8549206257 0.4124128222
2.502426624 0.8538455367 0.5057066679
2.505125523 0.8537903428 0.6010658145
2.486234903 0.8463849425 0.6921342015
2.587892532 0.8774641752 -0.7206043005
2.591664791 0.8777347803 -0.621761322
2.584468842 0.8747949004 -0.5221162438
2.57404089 0.8702626228 -0.4236761034
2.573446035 0.8690620661 -0.3283725679
2.571446896 0.8678856492 -0.2337263227
2.562696695 0.8639374375 -0.139528811
2.569817066 0.8653390408 -0.04663103446
2.541636229 0.8612857461 0.04614236578
2.491641521 0.8433746099 0.1356559396
2.468924284 0.8352050185 0.2243134975
2.51499486 0.849811852 0.3208166659
2.512731552 0.8480687737 0.4133513868
2.49050951 0.8400857449 0.502653718
2.497010231 0.8413066268 0.5983663797
2.491005421 0.838316679 0.6926518679
2.605593443 0.8733363152 -0.7247454524
2.585473061 0.8655900359 -0.6195118427
2.598677635 0.8695051074 -0.5244059563
2.592050314 0.8662830591 -0.4261790216
2.583995581 0.862588644 -0.3293475211
2.58390975 0.8620588183 -0.2345978767
2.565696955 0.854986012 -0.139528811
2.574569464 0.8574448228 -0.04666594043
2.552211523 0.8549497724 0.04628198594
2.492530584 0.8344739079 0.1355512738
2.492609262 0.8335327506 0.2262309194
2.517946005 0.841027081 0.3208166659
2.53614068 0.8466137052 0.416792959
2.50832653 0.8363544941 0.5057066679
2.518420219 0.8387446404 0.6028653979
2.499270916 0.8318813443 0.6942047477
2.621462822 0.8684891462 -0.7283688784
2.595729113 0.8594608903 -0.6213114262
2.605424881 0.861662209 -0.5251691937
2.602411509 0.8601617813 -0.4274305105
2.588727236 0.8546366096 -0.3295912445
2.598256111 0.8567768931 -0.2356437296
2.583693027 0.851474762 -0.1403661817
2.587044239 0.8515782356 -0.04684046283
2.570218563 0.8515120149 0.04656122625
2.499220848 0.8270224929 0.1357606202
2.506854534 0.8285778165 0.2272767872
2.53391552 0.8370317221 0.3225228488
2.537204742 0.8371360898 0.416480124
2.526002169 0.8329510689 0.5087596178
2.508231401 0.8261205554 0.5997161269
2.524180412 0.8303971291 0.7004163861
2.61514926 0.8567845225 -0.7257806659
2.611678362 0.8546367288 -0.6244606972
2.61199975 0.8542386889 -0.5259323716
2.624175549 0.8572054505 -0.4305591881
2.597356081 0.8474428058 -0.3303224742
2.604872227 0.8493908048 -0.235992372
2.590447903 0.8436871171 -0.1405755281
2.584295988 0.8406873345 -0.04673574865
