# .PCD v0.7 - Point Cloud Data file format
VERSION 0.7
FIELDS x y z
SIZE 4 4 4
TYPE F F F
COUNT 1 1 1
WIDTH 1282
HEIGHT 1
VIEWPOINT 0 0 0 1 0 0 0
POINTS 1282
DATA ascii
0.5034194589 5.542348862 0.09644020349
0.503656745 5.523588657 0.288476944
0.5059496164 5.53801775 0.4828174114
0.5042344332 5.49808979 0.6727753878
0.5024464726 5.457648277 0.8613798022
0.5075703263 5.502784252 1.065921903
0.5057867169 5.462571144 1.2565732
0.5053281784 5.436946392 1.451509237
0.2581366599 2.735909224 -0.7247454524
0.5162726045 5.46159029 -1.2565732
0.5190069079 5.470165253 -1.059816003
0.5231494308 5.493405819 -0.8673243523
0.525701046 5.510037899 -0.6744815111
0.5280183554 5.513941765 -0.4809000194
0.5304538608 5.519073009 -0.2883722484
0.5328221321 5.533572674 -0.09633549303
0.5220076442 5.532594681 0.09630057961
0.5229360461 5.521796703 0.288476944
0.5247346163 5.520258904 0.4814229608
0.5230482817 5.492343426 0.6722878814
0.5220595002 5.461760044 0.8623183966
0.5269845128 5.493070126 1.064395547
0.5254299045 5.456801414 1.255673409
0.5235579014 5.427458286 1.449438691
0.2703204155 2.76190877 -0.7319923043
0.5298085809 5.393721581 -1.241276622
0.5386763811 5.474181175 -1.060960889
0.5411558151 5.479751587 -0.865447104
0.5462883711 5.512024403 -0.6749690175
0.5486391187 5.525943279 -0.4821201861
0.5493212342 5.513212681 -0.2881629169
0.5521335006 5.531679153 -0.09633549303
0.5407250524 5.514722824 0.09602134675
0.5429873466 5.527888298 0.288895607
0.5440021753 5.518393517 0.4814229608
0.5420014262 5.47853756 0.6708254814
0.5407331586 5.455972672 0.861692667
0.5449912548 5.479475021 1.062105775
0.5450539589 5.460751057 1.257023096
0.5425015688 5.425597668 1.449438691
0.5167725086 5.08754921 -1.170641899
0.5583803058 5.478127003 -1.062105775
0.5589219928 5.473996162 -0.8648213148
0.5641581416 5.506233215 -0.6744815111
0.5667037964 5.512102604 -0.4810743034
0.5659626722 5.495466709 -0.2873255312
0.5718518496 5.533696175 -0.09640529752
0.5594120026 5.516878605 0.09609115869
0.5614727139 5.51801157 0.288476944
0.5636625886 5.52042532 0.4817715585
0.5589554906 5.464860916 0.6693630219
0.5601744056 5.45798254 0.8623183966
0.5631603599 5.477637291 1.062105775
0.5627584457 5.455037117 1.256123304
0.5614385605 5.423670769 1.449438691
0.4871541858 4.650603294 -1.241348267
0.5687509179 5.411308765 -1.246225476
0.5724285245 5.437195778 -1.0544734
0.5792728662 5.483798504 -0.8666985631
0.582537055 5.496334076 -0.6735065579
0.585942626 5.510090828 -0.4810743034
0.5857754946 5.499415874 -0.2876395583
0.5903161168 5.523713112 -0.09626568109
0.5786648989 5.514892578 0.09609115869
0.579053998 5.500127792 0.2876395583
0.5832210779 5.530414104 0.4828174114
0.5784472227 5.466824532 0.6698504686
0.579015851 5.454029083 0.8620054722
0.5822789073 5.475637913 1.062105775
0.5805576444 5.441412926 1.253423929
0.5807773471 5.425519943 1.450474024
0.5041996837 4.648786068 -1.241348267
0.5823737383 5.360857487 -1.234977841
0.5798070431 5.319911003 -1.031957984
0.598293364 5.471819878 -0.8651341796
0.6012884378 5.490320206 -0.6730191112
0.6047338843 5.504051208 -0.4807256758
0.6065858006 5.503188133 -0.2879535556
0.6073957086 5.501742363 -0.09591662884
0.5983445644 5.516814232 0.09616096318
0.5982509851 5.498073101 0.2876395583
0.6017562747 5.512394905 0.4814229608
0.5979542732 5.468719006 0.670337975
0.5967569351 5.44019413 0.8601283431
0.6027725935 5.477370262 1.062869072
0.6004963517 5.439248562 1.253423929
0.5992892385 5.419619083 1.449438691
0.5169805288 4.616280079 -1.233065963
0.6076763272 5.409037113 -1.246675372
0.6036408544 5.364677429 -1.041116714
0.6162835956 5.459884167 -0.8635698557
0.6208944917 5.492133617 -0.6735065579
0.6230463386 5.493988037 -0.4800284207
0.6264678836 5.506990433 -0.2882675827
0.6272772551 5.505549431 -0.09602134675
0.6181136966 5.51061058 0.09609115869
0.6178866625 5.499920845 0.2878488898
0.6192108989 5.494421482 0.4800284207
0.6188874841 5.474380493 0.6713129282
0.6157445908 5.438077927 0.8601283431
0.6218873262 5.475233078 1.062869072
0.6185317039 5.437227249 1.253423929
0.6164502501 5.402139187 1.445297718
0.5980616212 5.168885708 -1.191337466
0.6218783259 5.366546631 -1.041880012
0.6337031126 5.451923847 -0.8626312613
0.6400206685 5.49793148 -0.6744815111
0.6412631869 5.491891384 -0.4800284207
0.6435635686 5.494964123 -0.2877442241
0.6459983587 5.50741148 -0.09609115869
0.6350061297 5.496611595 0.09588173032
0.6363527179 5.499825001 0.2879535556
0.6383453012 5.500254154 0.4807256758
0.6361185312 5.464411259 0.670337975
0.6342309117 5.439929485 0.8607540131
0.6377590299 5.453641415 1.059052825
0.6367844343 5.437081814 1.253873825
0.6343598962 5.400065422 1.445297718
0.6276395321 5.27136755 -1.215632081
0.6410673261 5.376151562 -1.044169784
0.6517778039 5.449792385 -0.8626312613
0.6577910781 5.483837605 -0.6730191112
0.6599456072 5.493691444 -0.4803770781
0.659394443 5.472970963 -0.2866975069
0.6673766375 5.52298975 -0.09640529752
0.6532315612 5.494475365 0.09588173032
0.6553092003 5.495587826 0.2878488898
0.6565828323 5.498106956 0.4807256758
0.6532928944 5.454387665 0.6693630219
0.6532173753 5.437682152 0.8607540131
0.6558419466 5.451496601 1.059052825
0.6555275321 5.432890892 1.253423929
0.6536713839 5.40165329 1.446332932
0.5674359202 4.641491413 -1.241348267
0.6457980275 5.26721096 -1.215182185
0.6655707955 5.420648098 -1.053328514
0.671761632 5.45532608 -0.8638827205
0.6759575009 5.473627567 -0.672044158
0.6800951362 5.499263287 -0.4810743034
0.6794794202 5.478563786 -0.2871161997
0.6849225163 5.506735802 -0.09616096318
0.6728916764 5.496130943 0.09595153481
0.672540009 5.477408409 0.287011534
0.67722857 5.507647038 0.4817715585
0.6715982556 5.446163654 0.6686317921
0.6729206443 5.441250324 0.861692667
0.6767964363 5.464760303 1.062105775
0.6735259295 5.422834396 1.251624346
0.673001647 5.403172493 1.447368264
0.5788109303 4.601147652 -1.230995536
0.684487164 5.418292046 -1.053328514
0.6920430064 5.462747097 -0.865447104
0.6940581203 5.463357925 -0.6710692048
0.6987855434 5.492902756 -0.4807256758
0.6985978484 5.476158619 -0.2871161997
0.7033807039 5.498360634 -0.09605624527
0.6935737729 5.505652428 0.09616096318
0.6924053431 5.480971336 0.2873255312
0.6959511638 5.501296043 0.4814229608
0.6916030049 5.451663494 0.6696067452
0.69041574 5.427110672 0.8598154187
0.6958667636 5.46236515 1.062105775
0.6919586062 5.416583538 1.250724435
0.6908751726 5.393126011 1.445297718
0.592887044 4.583771706 -1.226854324
0.6993479729 5.392054558 -1.245325685
0.7039035559 5.419763565 -1.054091811
0.7100858092 5.452462196 -0.8641956449
0.7146656513 5.472712517 -0.6725316644
0.7161455154 5.476601124 -0.4795055091
0.7184894681 5.479627609 -0.2874302268
0.7233501077 5.501819611 -0.09616096318
0.7112455368 5.491299629 0.09595153481
0.7125636935 5.48644352 0.2877442241
0.7125793099 5.479075909 0.4796798229
0.7126837373 5.464962959 0.6715566516
0.7090984583 5.422709465 0.8595025539
0.7139115334 5.452116013 1.0605793
0.711368084 5.418000221 1.251624346
0.7081849575 5.379189491 1.442191839
0.6068490744 4.566354275 -1.222713232
0.7215130925 5.414692402 -1.251174331
0.7228192091 5.417273521 -1.054091811
0.7264962196 5.430371284 -0.8610669374
0.7342913151 5.474119186 -0.6730191112
0.7362149358 5.473938942 -0.4795055091
0.7389415503 5.486983299 -0.2879535556
0.7428196669 5.501243114 -0.0961958617
0.728298068 5.472925663 0.0956722945
0.7322404385 5.48788166 0.2879535556
0.7327547073 5.484455109 0.4803770781
0.7296485305 5.446702003 0.6696067452
0.728813231 5.426074028 0.8604412079
0.7318934202 5.441807747 1.059052825
0.7313191891 5.423208714 1.253423929
0.7279891968 5.38434267 1.444262385
0.6261956096 4.583239555 -1.227889657
0.7052780986 5.155350685 -1.191337466
0.7426684499 5.414587975 -1.054091811
0.7461241484 5.425714493 -0.8607540131
0.7523133755 5.463656425 -0.672044158
0.755861938 5.4752841 -0.4798541367
0.7574084401 5.47236681 -0.2873255312
0.7617423534 5.496635914 -0.09616096318
0.748752594 5.480256081 0.0958468169
0.7508490086 5.481335163 0.2877442241
0.7533974648 5.48567915 0.4807256758
0.7475737333 5.436255455 0.6686317921
0.7480205297 5.425453663 0.8607540131
0.7518324852 5.439089298 1.059052825
0.7511901259 5.420492172 1.253423929
0.7483741641 5.393249989 1.447368264
0.6416529417 4.577199936 -1.226854324
0.7578003407 5.392023087 -1.247125268
0.7604689598 5.404185772 -1.052565336
0.7656123042 5.426989555 -0.8613798022
0.7706645131 5.4490695 -0.6705816984
0.7755296826 5.476557255 -0.4802027345
0.7765022516 5.469690323 -0.2873255312
0.781488955 5.49790287 -0.09623077512
0.7693883777 5.481436253 0.09591662884
0.7677555084 5.462857723 0.2869068384
0.7725377083 5.483016491 0.4807256758
0.7672173381 5.431513309 0.6683880687
0.7663974762 5.418898582 0.8601283431
0.7719177008 5.444206238 1.0605793
0.7673656344 5.398543358 1.248924851
0.7666525841 5.386779308 1.446332932
0.6559785008 4.563459396 -1.223748565
0.7740100622 5.377907276 -1.244425893
0.7776476741 5.389839649 -1.050275683
0.7850156426 5.434195995 -0.8629441261
0.789300561 5.45041275 -0.6710692048
0.7940655351 5.469874382 -0.4798541367
0.7957867384 5.474991322 -0.2877442241
0.7989469767 5.483268738 -0.09602134675
0.7887008786 5.486771584 0.09605624527
0.7868160605 5.460144997 0.2869068384
0.7911040783 5.476342201 0.4803770781
0.7863576412 5.436798573 0.6693630219
0.783608973 5.40446043 0.8582510948
0.7910916209 5.449388504 1.062105775
0.786385119 5.403682709 1.250724435
0.7854501009 5.384070396 1.446332932
0.6705445051 4.557436466 -1.222713232
0.7960892916 5.391115189 -1.051038861
0.803978622 5.431423187 -0.8629441261
0.8094880581 5.455478668 -0.672044158
0.8110303283 5.459327221 -0.4791569114
0.8154830337 5.476130962 -0.2879535556
0.8180785179 5.480446815 -0.09602134675
0.8072671294 5.480029106 0.09598644078
0.8073310852 5.467244625 0.2874302268
0.808095932 5.465805054 0.4796798229
0.806787312 5.443838596 0.6705816984
0.8030486703 5.405600071 0.8588768244
0.8083772659 5.434942722 1.059816003
0.8058162928 5.404759884 1.251624346
0.8019564152 5.366010666 1.442191839
0.6893288493 4.574170589 -1.227889657
0.7789362669 5.156561852 -1.194036841
0.8154915571 5.392185688 -1.051802039
0.8196775913 5.407099724 -0.8595025539
0.830311954 5.464396 -0.6735065579
0.8309824467 5.462372303 -0.4796798229
0.8339873552 5.469302654 -0.2877442241
0.8356946111 5.467673302 -0.0958468169
0.825193882 5.469268322 0.0958468169
0.8282037377 5.476241589 0.2880582511
0.8277629614 5.466890812 0.4800284207
0.8248928189 5.435101032 0.6698504686
0.8228055239 5.408622265 0.8598154187
0.8255715966 5.420441628 1.05752635
0.8252671361 5.405766487 1.252524137
0.8212656379 5.366998196 1.443227053
0.7052904963 4.571736336 -1.227889657
0.7942525148 5.136478901 -1.189987659
0.8343077302 5.389307022 -1.051802039
0.8403657079 5.415917397 -0.8613798022
0.8469420671 5.445771694 -0.6715566516
0.8503525853 5.461406708 -0.4798541367
0.8499956131 5.446624756 -0.2866975069
0.8581446409 5.49253273 -0.09633549303
0.8442816734 5.466353893 0.0958468169
0.8451396823 5.465569496 0.2876395583
0.8468423486 5.463968277 0.4800284207
0.8417256474 5.418457508 0.6681442857
0.8413427472 5.409768581 0.8604412079
0.8450910449 5.421407223 1.058289647
0.8447348475 5.406703949 1.253423929
0.8402519226 5.371880054 1.445297718
0.7236554027 4.584512234 -1.232030749
0.8121903539 5.139591694 -1.191337466
0.8528090715 5.384421825 -1.05142045
0.8598639965 5.422856331 -0.8629441261
0.8643746376 5.439012051 -0.6710692048
0.8700368404 5.462340355 -0.4802027345
0.8705701232 5.459554195 -0.2875348926
0.8757327795 5.47963047 -0.09616096318
0.8636528254 5.471425533 0.09598644078
0.8642092347 5.462586403 0.2876395583
0.8684050441 5.476721287 0.4814229608
0.8606218696 5.421518803 0.6688755155
0.8599123955 5.404847622 0.8601283431
0.8643011451 5.42633009 1.059816003
0.8595863581 5.38462925 1.248924851
0.8589995503 5.368914127 1.445297718
0.7376232147 4.574458599 -1.229960203
0.8683674932 5.373350143 -1.246675372
0.8684638143 5.367998123 -1.048749089
0.8781571984 5.415921688 -0.8623183966
0.8827171922 5.432043076 -0.6705816984
0.8868650794 5.45155859 -0.4795055091
0.889621079 5.45648241 -0.2875348926
0.8925965428 5.462726116 -0.09591662884
0.8833824992 5.472325802 0.09605624527
0.8826354742 5.455593586 0.2874302268
0.8846520185 5.46201086 0.4803770781
0.8801788092 5.422399998 0.6693630219
0.8768692613 5.390114307 0.8582510948
0.884498477 5.43103075 1.061342478
0.8786897659 5.383519173 1.249374747
0.8771129847 5.362069607 1.444262385
0.7510720491 4.556607246 -1.225819111
0.8852143884 5.358749866 -1.243975878
0.8871952295 5.364933968 -1.048749089
0.8983502984 5.420618534 -0.8635698557
0.9042765498 5.44459486 -0.6725316644
0.9045835137 5.44056797 -0.478808254
0.90997684 5.461224079 -0.2879535556
0.9119877219 5.461548805 -0.09595153481
0.9018269181 5.465263844 0.09598644078
0.9023241997 5.456419945 0.2876395583
0.9030632377 5.454957962 0.4800284207
0.9007245302 5.429086208 0.6705816984
0.89632833 5.390917778 0.8588768244
0.90280509 5.424037457 1.0605793
0.8990809917 5.390029907 1.251624346
0.8951866031 5.355164528 1.443227053
0.7676158547 4.557767391 -1.226854324
0.9065079689 5.370999813 -1.247575164
0.9059183598 5.361804008 -1.048749089
0.9159460664 5.409659386 -0.8623183966
0.9232750535 5.441405773 -0.6725316644
0.9242352843 5.441306114 -0.4791569114
0.9283631444 5.45407629 -0.2877442241
0.9310480356 5.458332062 -0.09595153481
0.918905437 5.450250149 0.09577701241
0.9233631492 5.465053558 0.2882675827
0.9214333892 5.447844028 0.4796798229
0.9190080166 5.421994209 0.6700942516
0.9158011675 5.39165163 0.8595025539
0.9197599292 5.409239769 1.058289647
0.9185436964 5.390700817 1.252524137
0.9145233631 5.355815887 1.444262385
0.7864673138 4.572195053 -1.231513143
0.9259142876 5.371643543 -1.248475075
0.9262996316 5.368282795 -1.050657272
0.9361714125 5.414215088 -0.8635698557
0.9402289391 5.426413536 -0.6710692048
0.9445868134 5.445899487 -0.4798541367
0.9446583986 5.435060501 -0.2869068384
0.951469481 5.462929726 -0.09609115869
0.9369056225 5.441097736 0.0956722945
0.9410771132 5.453924179 0.2878488898
0.9404431581 5.44459486 0.4796798229
0.9348831177 5.401149273 0.6679006219
0.9352926016 5.392314434 0.8601283431
0.9386375546 5.405995846 1.058289647
0.9360204935 5.3797822 1.250724435
0.9345391989 5.360203266 1.446332932
0.8032211065 4.569282055 -1.231513143
0.9449187517 5.364376068 -1.247575164
0.9446042776 5.35711813 -1.049130797
0.9549769759 5.404911995 -0.8626312613
0.9601127505 5.422930717 -0.6710692048
0.9645394683 5.442400932 -0.4798541367
0.9673677683 5.447293282 -0.2877442241
0.9680817127 5.445792675 -0.0958468169
0.9603063464 5.457322121 0.09602134675
0.9601079822 5.450606346 0.2878488898
0.9624689221 5.452883244 0.4807256758
0.9553633332 5.401596069 0.6683880687
0.9537640214 5.387071609 0.8598154187
0.9587869048 5.404452801 1.058671236
0.9550487399 5.372478008 1.249824643
0.9532455206 5.356908321 1.446332932
0.8191649914 4.566450596 -1.231513143
0.9627014399 5.361213207 -1.247575164
0.8854209185 4.920969486 -0.9636482
0.97526896 5.404088497 -0.6691192389
0.9828234315 5.435078621 -0.4795055091
0.9829351306 5.430299282 -0.287011534
0.9856591821 5.434509754 -0.09570720047
0.978399694 5.454106808 0.09602134675
0.9777163863 5.439358234 0.2874302268
0.9814985991 5.44949007 0.4807256758
0.9739763141 5.402305603 0.6688755155
0.9711568356 5.375934124 0.8585639596
0.9794997573 5.416698933 1.061724186
0.9728581905 5.369281292 1.249824643
0.9712500572 5.349747181 1.445297718
0.8329129219 4.556107998 -1.229442596
0.9824644327 5.363569736 -1.248924851
0.9020877481 4.919937611 -0.9640299082
0.9107546806 4.947720051 -0.6125718951
0.913831532 4.959573746 -0.4374964535
1.00333631 5.434690952 -0.2874302268
1.004619479 5.431036949 -0.09570720047
0.99707371 5.448691368 0.09598644078
0.998854816 5.447700024 0.2880582511
0.9981272817 5.43836689 0.4800284207
0.9949783683 5.410587311 0.670337975
0.9906337857 5.376397133 0.8591897488
0.9959053397 5.39973259 1.059052825
0.9930125475 5.37351799 1.251624346
0.9871032834 5.331127644 1.441156507
0.8481046557 4.549373627 -1.228407264
0.9875830412 5.287314415 -1.23182857
0.9196181297 4.918688297 -0.9644114971
0.9225630164 4.924922943 -0.7869169712
0.9305845499 4.958167553 -0.6142780781
1.021932602 5.429191589 -0.2873255312
1.025796175 5.439287186 -0.09591662884
1.013887525 5.433382511 0.09577701241
1.018967271 5.450069427 0.2883722484
1.01564002 5.427015305 0.4793311954
1.013128519 5.403178692 0.6698504686
1.010123134 5.376788616 0.8598154187
1.014023542 5.392364025 1.058289647
1.01284492 5.375764847 1.252974033
1.007141232 5.335242271 1.443227053
0.8647001982 4.550181866 -1.229442596
1.012230992 5.31637907 -1.239476919
0.9375183582 4.919305325 -0.9651747346
0.940120399 4.923612595 -0.7872298956
0.9467637539 4.949040413 -0.6135468483
0.9484336376 4.953072548 -0.4374964535
1.040121555 5.421669483 -0.2871161997
1.045532942 5.439600945 -0.09598644078
1.032469988 5.427846909 0.09574211389
1.035743356 5.434707642 0.2877442241
1.037187338 5.437137604 0.480551362
1.030121207 5.389860153 0.6686317921
1.029629946 5.377110004 0.8604412079
1.032841682 5.388791561 1.058289647
1.030135036 5.364540577 1.251174331
1.027214885 5.339283466 1.445297718
0.8849868178 4.569895267 -1.235654235
1.039315581 5.356814384 -1.249824643
0.9524375796 4.904439449 -0.9628850222
0.9588093758 4.928057671 -0.7884813547
0.9609963298 4.930118084 -0.6115969419
0.9683892727 4.963419914 -0.4387166202
1.050612569 5.374881744 -0.2848134041
1.056442857 5.394707203 -0.09525343776
1.051031351 5.422245979 0.09570720047
1.05013752 5.407531261 0.2864881754
1.051599503 5.410014153 0.4784596264
1.044374466 5.362849712 0.6657069325
1.04423368 5.352156162 0.8569996357
1.047881722 5.365884781 1.0544734
1.047733307 5.355174065 1.249824643
1.045847535 5.335665226 1.445297718
0.8979431391 4.551615238 -1.231513143
1.056120276 5.343595028 -1.247575164
0.9703146815 4.904936314 -0.9636482
0.9775406718 4.932431698 -0.7897328138
0.9785852432 4.92868042 -0.6118406653
0.9849287868 4.956101894 -0.4383679926
1.070146918 5.375099659 -0.2850227654
1.072530866 5.377258778 -0.09500910342
1.063365459 5.385194302 0.09511382133
1.063194513 5.374443531 0.2849180698
1.066606641 5.386766434 0.4767165184
1.060771823 5.347488403 0.664244473
1.055590391 5.311666965 0.8510551453
1.06469214 5.352566242 1.052565336
1.06717813 5.355307579 1.250724435
1.064467669 5.331981659 1.445297718
0.9123027921 4.540877342 -1.229442596
1.074767947 5.339875698 -1.247575164
0.9866538048 4.897670746 -0.9628850222
0.9939719439 4.925116539 -0.7891070843
0.9981452823 4.936908722 -0.6133031249
1.000248432 4.942869663 -0.4374964535
1.091285348 5.383075714 -0.2856507897
1.092487335 5.379362106 -0.09511382133
1.082158327 5.381449223 0.09511382133
1.082736015 5.374615192 0.2851274312
1.083829641 5.375197887 0.4760192633
1.081788659 5.355427742 0.6657069325
1.076477408 5.31956625 0.8529323339
1.082199335 5.343044758 1.05142045
1.08586657 5.351549625 1.250724435
1.080763221 5.316874981 1.442191839
0.9327924848 4.560377598 -1.235654235
1.005320549 4.901889801 -0.9644114971
1.0087713 4.910007 -0.7872298956
1.015309691 4.937460423 -0.6137905717
1.019505024 4.949104786 -0.4383679926
1.108455777 5.371408939 -0.2852320969
1.111127853 5.379626274 -0.09518363327
1.098531365 5.365883827 0.09490438551
1.102556467 5.380778313 0.2856507897
1.103388667 5.375285149 0.4763679206
1.098075867 5.339952946 0.664244473
1.094511509 5.317902088 0.8532451987
1.098067164 5.325775146 1.048749089
1.105183721 5.355552673 1.252524137
1.099169731 5.317045212 1.443227053
0.9439772367 4.538344383 -1.23047781
1.080879688 5.187446117 -1.213382602
1.023174882 4.906216145 -0.9659379125
1.02585721 4.910501957 -0.7878555655
1.031272531 4.932123661 -0.6135468483
1.036729455 4.949596882 -0.4387166202
1.123800159 5.355976105 -0.2846040726
1.130195618 5.381782532 -0.09528834373
1.115908146 5.360254765 0.09486948699
1.119580507 5.37318182 0.2854414582
1.122020721 5.375497341 0.4767165184
1.11415422 5.328509808 0.6632695198
1.114162326 5.323910713 0.8548095226
1.117737651 5.331712246 1.050657272
1.122135997 5.348044872 1.251624346
1.117591858 5.317152023 1.444262385
0.9630177021 4.5540905 -1.235654235
1.093632579 5.162861824 -1.208433628
1.039845109 4.904717445 -0.9663196206
1.042955279 4.910938263 -0.7884813547
1.046829343 4.920727253 -0.6125718951
1.05313623 4.946132183 -0.4387166202
1.142389655 5.356125832 -0.2848134041
1.146887064 5.368026733 -0.09511382133
1.136991143 5.372175217 0.09514871985
1.135014653 5.353610992 0.2846040726
1.140666485 5.375645161 0.477065146
1.133055091 5.330611229 0.6640007496
1.131504178 5.314193249 0.8538709879
1.137047768 5.33565712 1.052183747
1.138355255 5.332660198 1.248924851
1.138570547 5.324553013 1.447368264
0.9740323424 4.528037548 -1.229442596
1.111649156 5.159012794 -1.208433628
1.053233385 4.883785725 -0.9628850222
1.063429356 4.922713757 -0.790984273
1.064000726 4.917042732 -0.6125718951
1.069552898 4.938530922 -0.4383679926
1.171240449 5.3989501 -0.2873255312
1.170709848 5.387440681 -0.09553267807
1.157421589 5.375993252 0.09528834373
1.154536128 5.35352087 0.2848134041
1.161947608 5.383315563 0.4781110287
1.152912974 5.332444668 0.6647319794
1.148376226 5.302488327 0.8526194096
1.156496406 5.335493565 1.052946925
1.158618093 5.336271286 1.250724435
1.156327486 5.31677103 1.446332932
0.9923105836 4.535933018 -1.232548475
1.135072351 5.179847717 -1.214282393
1.07196939 4.883727074 -0.9636482
1.078062415 4.907396317 -0.7891070843
1.083718896 4.924930573 -0.6140343547
1.086787581 4.930686951 -0.4380193949
1.196186543 5.418025017 -0.2885816097
1.192961454 5.398941517 -0.09581191838
1.185588479 5.414895535 0.09605624527
1.183914423 5.398230553 0.2874302268
1.185856581 5.402579784 0.4802027345
1.183030248 5.380734444 0.6713129282
1.174524665 5.333172321 0.8582510948
1.17520225 5.327383518 1.052183747
1.178497434 5.3379035 1.252074242
1.17321229 5.305156708 1.444262385
1.00808835 4.528494358 -1.231513143
1.15065825 5.16043663 -1.210683227
1.091575027 4.887429714 -0.9651747346
1.094750166 4.897628307 -0.7881684899
1.102628827 4.924799919 -0.6145218015
1.106159091 4.932502747 -0.4385423064
1.211222887 5.392168999 -0.2874302268
1.215371966 5.406239033 -0.09602134675
1.202819347 5.39880228 0.0958468169
1.207170844 5.409449577 0.2882675827
1.205651402 5.398196697 0.4802027345
1.200142264 5.364739418 0.6698504686
1.196224809 5.338469028 0.8598154187
1.192139387 5.311546326 1.049893975
1.19933641 5.339251995 1.253423929
1.191799521 5.297051907 1.443227053
1.028091908 4.539842606 -1.235654235
1.185082197 5.224601269 -1.226879716
1.110803008 4.893161774 -0.9670827985
1.113130331 4.895509243 -0.7884813547
1.118492603 4.915113926 -0.6137905717
1.125142217 4.93638134 -0.4392395616
1.228258491 5.380119801 -0.287011534
1.232455611 5.394165993 -0.09588173032
1.221271753 5.388507843 0.09574211389
1.22295475 5.391568184 0.2875348926
1.228075981 5.405399323 0.4812486172
1.218039036 5.352561474 0.6688755155
1.216167092 5.340039253 0.8607540131
1.212857485 5.316923141 1.051802039
1.217097998 5.331233501 1.252524137
1.213728905 5.307924747 1.447368264
1.041410327 4.528876781 -1.23358357
1.21158731 5.260521412 -1.236327648
1.124374032 4.877973557 -0.9647930861
1.132914543 4.907188416 -0.790984273
1.132994652 4.903641701 -0.6128156185
1.14150703 4.93262291 -0.4392395616
1.246993661 5.379908562 -0.2872208655
1.25079 5.391996861 -0.09591662884
1.241823673 5.396120548 0.09595153481
1.238587379 5.37775135 0.287011534
1.245993137 5.401297569 0.4812486172
1.233990908 5.340756893 0.6679006219
1.232977629 5.332128525 0.8601283431
1.230924249 5.314785004 1.052183747
1.2330091 5.319574833 1.250724435
1.23044908 5.300107479 1.446332932
1.057300329 4.529160976 -1.234618902
1.243221641 5.317197323 -1.250724435
1.139200926 4.868483543 -0.9636482
1.147827864 4.897634983 -0.790045619
1.150105953 4.899656773 -0.6128156185
1.159626722 4.932488441 -0.4395881891
1.265743732 5.379631996 -0.2874302268
1.266848207 5.375920296 -0.09570720047
1.261532307 5.399762154 0.09609115869
1.258712888 5.379229546 0.2873255312
1.264807701 5.401015282 0.4815972447
1.255320072 5.352097034 0.6698504686
1.249325275 5.318176746 0.8585639596
1.249436975 5.314497471 1.052946925
1.252465129 5.319031715 1.251624346
1.248941302 5.295780182 1.446332932
1.07211256 4.517736435 -1.232548475
1.264475226 5.324201584 -1.253423929
1.157949328 4.868094444 -0.9644114971
1.164854288 4.889552116 -0.7894199491
1.168124199 4.899474144 -0.6133031249
1.1717484 4.907093048 -0.4376707375
1.288238645 5.386611462 -0.2880582511
1.288865566 5.385077953 -0.09595153481
1.278989553 5.38948822 0.09598644078
1.279331207 5.382575512 0.2877442241
1.280902505 5.38083744 0.4802027345
1.277676463 5.363131046 0.6718004346
1.268797517 5.317626476 0.8591897488
1.267998338 5.306061745 1.052183747
1.271950841 5.314405918 1.251624346
1.266520858 5.287631035 1.445297718
1.084251642 4.498942375 -1.228407264
1.283067703 5.315742016 -1.252524137
1.175853848 4.867840767 -0.9651747346
1.179593682 4.875855923 -0.7878555655
1.188877463 4.906735897 -0.6147655845
1.188402057 4.901036263 -0.4374964535
1.305149555 5.374318123 -0.2876395583
1.312848926 5.397805691 -0.09626568109
1.295920014 5.373100281 0.09577701241
1.300456405 5.383675098 0.2880582511
1.300615072 5.380206585 0.480551362
1.294987917 5.348765373 0.6705816984
1.290607691 5.322538376 0.8607540131
1.285122275 5.295879841 1.051038861
1.293256402 5.321294785 1.254323721
1.284977555 5.2791996 1.444262385
1.106379151 4.521401405 -1.235654235
1.300222754 5.305552959 -1.251174331
1.191904545 4.859892368 -0.9644114971
1.198019028 4.877463818 -0.7887941599
1.203154087 4.890990257 -0.6133031249
1.206930399 4.902662277 -0.4380193949
1.322946787 5.365850925 -0.2874302268
1.329284787 5.38348341 -0.09609115869
1.317044735 5.378255367 0.09595153481
1.318290949 5.375222683 0.2878488898
1.320338964 5.379503727 0.4809000194
1.309861422 5.328790188 0.6686317921
1.310122252 5.321837425 0.8613798022
1.304069042 5.293268204 1.05142045
1.311355472 5.314856529 1.253873825
1.305252671 5.28218317 1.446332932
1.119359732 4.506262302 -1.232548475
1.316854239 5.293417931 -1.249374747
1.209809065 4.859512806 -0.9651747346
1.215038419 4.873251915 -0.7887941599
1.218294859 4.879056931 -0.6123281717
1.225486875 4.90421772 -0.4385423064
1.339728594 5.353450775 -0.287011534
1.347097635 5.374930382 -0.09602134675
1.337738991 5.381388664 0.09609115869
1.333667278 5.357021809 0.2871161997
1.34103179 5.382596016 0.4815972447
1.3298949 5.329963684 0.6693630219
1.32773459 5.313398361 0.8607540131
1.325873494 5.302016258 1.054091811
1.3265872 5.29701376 1.250724435
1.326501727 5.288838387 1.449438691
1.137917519 4.513567448 -1.235654235
1.33627665 5.292568207 -1.250274658
1.223880172 4.843839169 -0.9628850222
1.231556416 4.86706686 -0.7884813547
1.235805035 4.876698971 -0.6125718951
1.243086934 4.901842117 -0.4387166202
1.362339258 5.364228249 -0.2878488898
1.362892866 5.358568192 -0.09581191838
1.356027603 5.374746799 0.09605624527
1.353338599 5.35620594 0.2873255312
1.359813809 5.377882004 0.4815972447
1.349467874 5.329137325 0.6698504686
1.34481585 5.302987576 0.8598154187
1.344854593 5.299258709 1.0544734
1.346508145 5.298017502 1.252074242
1.342094898 5.27294302 1.446332932
1.146963716 4.483364582 -1.228407264
1.354744554 5.287871361 -1.250274658
1.240294576 4.837635994 -0.9625034332
1.248048186 4.860824585 -0.7881684899
1.252819419 4.872355938 -0.6125718951
1.256715894 4.883965969 -0.4374964535
1.382051229 5.36330843 -0.2880582511
1.382090449 5.355713367 -0.0958468169
1.376763344 5.377729893 0.0961958617
1.374508619 5.361123085 0.2878488898
1.375605822 5.361523151 0.480551362
1.368557215 5.326316833 0.6700942516
1.363812327 5.300174236 0.8601283431
1.362366557 5.290729046 1.053710103
1.367427826 5.302719116 1.254323721
1.359525681 5.264485359 1.445297718
1.168429613 4.501772404 -1.234618902
1.308972955 5.036034584 -1.191337466
1.25865519 4.83897686 -0.9636482
1.264508963 4.85452652 -0.7878555655
1.273829103 4.883318901 -0.6145218015
1.275768399 4.887260437 -0.4381936789
1.401270747 5.360383511 -0.2881629169
1.402295113 5.356660366 -0.09595153481
1.391506433 5.357407093 0.09591662884
1.39673233 5.369822502 0.2885816097
1.395317912 5.360545158 0.4809000194
1.38864243 5.327270508 0.6708254814
1.384299755 5.303026676 0.8613798022
1.378840566 5.278343678 1.052183747
1.387901187 5.305455685 1.256123304
1.377895236 5.259707451 1.445297718
1.188564539 4.514480591 -1.23927772
1.36330688 5.170876503 -1.224630117
1.27654171 4.838350296 -0.9644114971
1.280436516 4.846263885 -0.7872298956
1.288329959 4.869247437 -0.6133031249
1.295369029 4.892407894 -0.4390652478
1.415879726 5.340013981 -0.2873255312
1.421588182 5.357779503 -0.09605624527
1.408669353 5.346716404 0.09581191838
1.410966277 5.351643562 0.2878488898
1.414022565 5.355641365 0.4809000194
1.40317142 5.307036877 0.6688755155
1.403394818 5.304135323 0.8623183966
1.398766875 5.279191494 1.053328514
1.404411912 5.29304409 1.254323721
1.397313833 5.262577057 1.447368264
1.206306219 4.517770767 -1.241348267
1.407613277 5.267992496 -1.248924851
1.292404532 4.830072403 -0.9636482
1.295990586 4.840082169 -0.7869169712
1.301381826 4.853444576 -0.6118406653
1.311923385 4.885931969 -0.4388909042
1.4366889 5.34686327 -0.2879535556
1.448596478 5.383680344 -0.09661472589
1.426391006 5.342015743 0.09581191838
1.426028371 5.333178997 0.2871161997
1.43579936 5.362220287 0.4819458425
1.420761585 5.302354813 0.6688755155
1.420876026 5.295388699 0.861692667
1.416773677 5.276420116 1.053710103
1.419934034 5.280829906 1.252524137
1.419694901 5.272590637 1.451509237
1.221282244 4.513745308 -1.241348267
1.425485373 5.261166096 -1.248475075
1.305333376 4.814390659 -0.9613586068
1.315984607 4.846966743 -0.7887941599
1.318837643 4.85078764 -0.6120843887
1.325829268 4.869788647 -0.4378450811
1.455342889 5.341816425 -0.2879535556
1.456852794 5.340007782 -0.09591662884
1.450256824 5.356306076 0.09616096318
1.449338675 5.345517635 0.2880582511
1.454615593 5.361275673 0.4822944999
1.441342354 5.305026054 0.6698504686
1.438316226 5.286584854 0.8610669374
1.43827641 5.282808304 1.055999875
1.441435814 5.287121773 1.255223513
1.437069893 5.263876915 1.450474024
1.233727694 4.494334698 -1.237207055
1.448483467 5.273070335 -1.252524137
1.323492169 4.811466694 -0.9617401958
1.331641436 4.834493637 -0.7875427008
1.336818337 4.849981785 -0.6125718951
1.339110494 4.851686478 -0.4366248548
1.47703898 5.344146729 -0.2883722484
1.479749799 5.350307941 -0.0961958617
1.466829062 5.343497276 0.09602134675
1.469049454 5.344277382 0.2882675827
1.467909694 5.332857132 0.4802027345
1.461961627 5.307618141 0.6708254814
1.457807779 5.285340786 0.861692667
1.456585169 5.273715973 1.055236578
1.46080327 5.281803608 1.255223513
1.452345133 5.247656822 1.447368264
1.249925375 4.491862297 -1.237724781
1.468850493 5.271479607 -1.253423929
1.341860175 4.812491417 -0.9628850222
1.345322967 4.818399906 -0.7856655121
1.356722474 4.852697372 -0.6135468483
1.360333681 4.862331867 -0.4380193949
1.494608521 5.335111618 -0.2881629169
1.500968814 5.350625038 -0.09630057961
1.48425734 5.330379963 0.09588173032
1.489698887 5.34270525 0.288476944
1.488659263 5.33537674 0.4809000194
1.481938124 5.304135799 0.6710692048
1.479302526 5.287570477 0.8629441261
1.473925233 5.264819145 1.0544734
1.482388854 5.287930012 1.257922888
1.473656297 5.249738693 1.449438691
1.267171621 4.493049622 -1.23927772
1.481942534 5.247567177 -1.248924851
1.358651996 4.807777882 -0.9628850222
1.364282131 4.821278095 -0.7869169712
1.371489763 4.8402915 -0.6125718951
1.37946856 4.865221977 -0.4387166202
1.509405494 5.316412449 -0.2874302268
1.518544674 5.341506004 -0.09623077512
1.505026221 5.332864761 0.09602134675
1.508340716 5.337471962 0.288476944
1.509443998 5.337816238 0.4815972447
1.496659517 5.285560131 0.6693630219
1.497746825 5.282375336 0.8629441261
1.492295384 5.259641647 1.0544734
1.497638941 5.271477222 1.255223513
1.491973639 5.244562149 1.449438691
1.284970164 4.496029377 -1.241348267
1.499716401 5.240489006 -1.248475075
1.374884605 4.801118851 -0.9625034332
1.380015492 4.812688828 -0.7862912416
1.38508904 4.824027061 -0.6111094952
1.39589417 4.858461857 -0.4385423064
1.530161619 5.318789005 -0.2878488898
1.537182212 5.336172104 -0.09623077512
1.524733424 5.331423759 0.09609115869
1.523662806 5.320654392 0.2878488898
1.534652352 5.355498791 0.4836890101
1.515099287 5.280303955 0.6693630219
1.518360138 5.284708977 0.8641956449
1.512817144 5.261947155 1.055999875
1.514953971 5.262471199 1.254323721
1.514551163 5.254172802 1.453579903
1.297431231 4.480382919 -1.238242388
1.521254897 5.246452332 -1.251174331
1.388351798 4.784977913 -0.9602137208
1.399010062 4.815430164 -0.7875427008
1.40081203 4.815350056 -0.6106219888
1.433447599 4.924340725 -0.444991827
1.548719764 5.313415051 -0.2878488898
1.554675221 5.326935291 -0.09616096318
1.54556179 5.333751202 0.09623077512
1.542224765 5.315303802 0.2878488898
1.548894405 5.334801674 0.4822944999
1.536845684 5.286420822 0.6708254814
1.532379866 5.264203548 0.861692667
1.532270074 5.26040554 1.056763172
1.536041498 5.266505718 1.2565732
1.530717492 5.241435528 1.451509237
1.310888767 4.468411922 -1.236171842
1.542855978 5.252327919 -1.253873825
1.405047417 4.780102253 -0.9602137208
1.415811896 4.810517311 -0.7875427008
1.419014931 4.818295956 -0.6115969419
1.528960466 5.184939861 -0.4692211151
1.574043512 5.330963612 -0.2891049683
1.575732708 5.333257198 -0.09637039155
1.564169526 5.328323841 0.09623077512
1.563221455 5.321657658 0.288476944
1.566381335 5.325540066 0.4819458425
1.5569731 5.286735535 0.6715566516
1.552063107 5.266672134 0.8629441261
1.550624371 5.255024433 1.056763172
1.554050565 5.263251305 1.257023096
1.545898557 5.228920937 1.449438691
1.330100179 4.478854179 -1.240312934
1.560819149 5.249050617 -1.254323721
1.422011971 4.779179096 -0.9609768987
1.423859119 4.779292107 -0.7831625938
1.436687827 4.819270134 -0.6123281717
1.562671304 5.235206604 -0.4742761552
1.58999598 5.319973469 -0.288790971
1.58940053 5.314590931 -0.09612605721
1.57841146 5.311606884 0.09602134675
1.582566738 5.322188377 0.288790971
1.584031701 5.320316792 0.4819458425
1.575631738 5.285347939 0.672044158
1.572906494 5.272854328 0.8648213148
1.564672351 5.238565922 1.0544734
1.573726773 5.265538216 1.258822799
1.563231111 5.223765373 1.449438691
1.346054673 4.478120327 -1.241348267
1.57484889 5.232649326 -1.251624346
1.438981533 4.778198242 -0.9617401958
1.441982388 4.782108784 -0.784414053
1.451779246 4.808525085 -0.6115969419
1.591314912 5.264049053 -0.4774137735
1.603004217 5.299377441 -0.2879535556
1.616056085 5.335804462 -0.09661472589
1.600049973 5.319747925 0.09626568109
1.604013562 5.32619381 0.2893142998
1.603966832 5.322665215 0.4826431274
1.589708328 5.26869154 0.6705816984
1.591875315 5.26922226 0.8651341796
1.584306717 5.240866184 1.055999875
1.589840412 5.252551079 1.257023096
1.585937262 5.233067989 1.453579903
1.364711404 4.480548382 -1.243418813
1.589694858 5.215936184 -1.248924851
1.454767108 4.767258644 -0.9605953097
1.459499002 4.776791573 -0.784414053
1.466812968 4.797733307 -0.6108657718
1.617843866 5.285134315 -0.4798541367
1.625929475 5.304923058 -0.2885816097
1.634670496 5.330131054 -0.09661472589
1.620939136 5.321782112 0.09640529752
1.618518829 5.307188988 0.2885816097
1.625790834 5.324372768 0.4833403528
1.607508659 5.261211872 0.670337975
1.610257506 5.263633728 0.8651341796
1.605806231 5.242532253 1.05752635
1.607937455 5.242963314 1.256123304
1.606462955 5.234887123 1.455650449
1.375787497 4.460989475 -1.23927772
1.614552379 5.228693962 -1.253423929
1.470238924 4.758399963 -0.9598320127
1.478500724 4.77921629 -0.7856655121
1.48203969 4.784739494 -0.609890759
1.639232874 5.288969517 -0.4807256758
1.643252373 5.29540062 -0.2883722484
1.649709582 5.312933922 -0.09640529752
1.645152211 5.331091404 0.09668453783
1.641160846 5.314865112 0.2893142998
1.644367933 5.318665028 0.4833403528
1.631475925 5.270455837 0.6722878814
1.624531507 5.244771957 0.8629441261
1.625255823 5.240646839 1.058289647
1.627385974 5.24104023 1.257023096
1.623576403 5.225559235 1.454615116
1.386745811 4.441407204 -1.235136509
1.635949373 5.236332417 -1.2565732
1.483324528 4.741996288 -0.9575424194
1.491982102 4.766745567 -0.784414053
1.500271678 4.787375927 -0.6108657718
1.658280373 5.285117149 -0.4809000194
1.666784883 5.308978081 -0.2894189656
1.673041344 5.322404861 -0.09668453783
1.659840584 5.31606245 0.09651000798
1.661489964 5.314823151 0.2896283269
1.661734581 5.309089184 0.4829917252
1.65191257 5.274487972 0.6735065579
1.645194769 5.246608734 0.8641956449
1.641451478 5.231481075 1.05752635
1.647094846 5.243051052 1.258822799
1.639489889 5.212487698 1.45254457
1.404958963 4.447836399 -1.238242388
1.655391812 5.234306335 -1.257473111
1.503188968 4.750153542 -0.9602137208
1.50443244 4.748328209 -0.7822239399
1.516974926 4.782109261 -0.6108657718
1.677604556 5.28528595 -0.4814229608
1.683493495 5.297417641 -0.2891049683
1.691004872 5.314626217 -0.09664962441
1.675375223 5.300702572 0.09633549303
1.683046341 5.318511963 0.2901516855
1.67812717 5.299751282 0.4826431274
1.667315722 5.259227753 0.6722878814
1.665885806 5.248366356 0.865447104
1.659109831 5.223848343 1.057144761
1.668925881 5.248413086 1.261522055
1.660020471 5.214096069 1.454615116
1.420473218 4.442905903 -1.238242388
1.519757628 4.744878292 -0.9602137208
1.517379999 4.731760979 -0.7803467512
1.531229973 4.769225121 -0.609890759
1.699091673 5.288881779 -0.4822944999
1.698915601 5.282001972 -0.2885816097
1.715064168 5.3258214 -0.09696377069
1.697522521 5.306249619 0.09654491395
1.699160457 5.304996967 0.2897329926
1.699047565 5.301450729 0.4833403528
1.684452176 5.249595642 0.6718004346
1.686614037 5.250041485 0.8666985631
1.677936435 5.219893456 1.05752635
1.68783462 5.244410992 1.26197207
1.67939496 5.211947918 1.455650449
1.44192183 4.456300259 -1.243418813
1.688890815 5.213352203 -1.255223513
1.534496188 4.733941555 -0.9590688348
1.536935568 4.735830307 -0.7819111347
1.545415998 4.756299019 -0.6089158058
1.719696522 5.286408901 -0.4826431274
1.719817042 5.283635616 -0.2890002728
1.73116219 5.312198162 -0.09682415426
1.719731569 5.311706543 0.09675434232
1.717669487 5.299033165 0.2897329926
1.721232533 5.30685854 0.4843862355
1.703988791 5.247460365 0.6722878814
1.704928637 5.244122505 0.8666985631
1.699787498 5.225207806 1.059816003
1.70070076 5.221809864 1.257922888
1.701172471 5.217073441 1.458756328
1.4522295 4.432627678 -1.238242388
1.626950026 4.962989807 -1.195836425
1.542652369 4.700304985 -0.9533445239
1.554284096 4.730165005 -0.7819111347
1.559525847 4.743333817 -0.6079408526
1.73938632 5.284157753 -0.4829917252
1.741670251 5.284884453 -0.2894189656
1.747817516 5.300425529 -0.0967194438
1.73950386 5.309473038 0.09682415426
1.736157537 5.293004513 0.2897329926
1.740670323 5.300514698 0.4843862355
1.725395322 5.250909805 0.6735065579
1.720755816 5.230633259 0.865447104
1.720154643 5.222671986 1.0605793
1.724709272 5.230347157 1.261522055
1.716950655 5.203765392 1.456685662
1.481675625 4.469706535 -1.250148058
1.685640931 5.079063416 -1.225530028
1.737862349 5.23335886 -1.06363225
1.656786323 4.983391762 -0.8250870109
1.574195027 4.732209206 -0.6072096229
1.756560802 5.274273872 -0.4826431274
1.765794635 5.295825005 -0.290361017
1.763776183 5.286705017 -0.09657981992
1.760215521 5.306856632 0.0968939662
1.757138371 5.294495106 0.2901516855
1.756650448 5.286842346 0.4836890101
1.750267506 5.26150322 0.6757002473
1.740252852 5.228342533 0.8660727739
1.738376141 5.216635227 1.0605793
1.742045522 5.224598885 1.261522055
1.732656956 5.190411091 1.454615116
1.486667633 4.435461044 -1.241865873
1.662796259 4.955206394 -1.196736336
1.76020813 5.242455959 -1.0666852
1.772136927 5.268840313 -0.6774064302
1.775950074 5.274084091 -0.4831660688
1.783983707 5.291833401 -0.2904657125
1.785773277 5.294089794 -0.09682415426
1.772716165 5.285822868 0.09661472589
1.777861595 5.298106194 0.2906750441
1.772902369 5.277211189 0.4833403528
1.76264441 5.240617275 0.6737502813
1.760100365 5.230032444 0.8673243523
1.751905918 5.199678898 1.058289647
1.763095617 5.22987318 1.264221549
1.753567576 5.195618629 1.457720995
1.501367092 4.430507183 -1.241865873
1.664194584 4.90537405 -1.185938597
1.772533178 5.221717358 -1.06363225
1.780058622 5.237879276 -0.8695144057
1.788601041 5.256983757 -0.6766752005
1.796275496 5.273510933 -0.4836890101
1.794436097 5.265092373 -0.2893142998
1.812636018 5.312427998 -0.09727791697
1.794086456 5.291278362 0.09682415426
1.798272133 5.297541618 0.2909890711
1.796799064 5.290169239 0.4850834906
1.780651093 5.236623287 0.6739940047
1.780890942 5.231336594 0.8685758114
1.772936106 5.204991341 1.0605793
1.780081511 5.219998837 1.263321757
1.774190903 5.196778297 1.459791541
1.517594695 4.424974918 -1.241865873
1.776186466 5.176020145 -1.253423929
1.796764374 5.230039597 -1.0666852
1.799243331 5.231320381 -0.8695144057
1.809523106 5.258216858 -0.6776501536
1.814671278 5.267209053 -0.4836890101
1.820884109 5.279250145 -0.2904657125
1.825299025 5.289054871 -0.09696377069
1.815139413 5.292550564 0.09696377069
1.812860489 5.279898643 0.290361017
1.820063829 5.294852734 0.4861293435
1.796981692 5.224744797 0.6732628345
1.80042851 5.228823185 0.8692014813
1.794561982 5.205882072 1.062105775
1.797931671 5.209754467 1.262421966
1.79484129 5.197858334 1.461861968
1.530500174 4.412349224 -1.239795327
1.804094195 5.195248127 -1.259722471
1.815652728 5.225590229 -1.067066789
1.823984385 5.243664742 -0.8726431131
1.828782082 5.251549721 -0.6776501536
1.837901115 5.271810055 -0.4847348332
1.840615392 5.276633263 -0.2906750441
1.842033625 5.274778366 -0.09682415426
1.835182428 5.287750244 0.09699867666
1.833512306 5.276991844 0.2905703783
1.837225676 5.284703732 0.4857807159
1.819383144 5.227496624 0.6744815111
1.816980124 5.214728355 0.8679500222
1.81724596 5.212563515 1.064777136
1.817389488 5.207127571 1.263321757
1.811330318 5.183949947 1.459791541
1.53322804 4.368430614 -1.22892499
1.824156404 5.194434643 -1.261072278
1.849741101 5.252623081 -0.6786250472
1.854965925 5.261605263 -0.4843862355
1.861273885 5.273618698 -0.2908844054
1.867758155 5.289058208 -0.09720810503
1.856941581 5.290746212 0.09717320651
1.855892897 5.281866074 0.2911984026
1.856584072 5.277933598 0.4857807159
1.842890739 5.236094952 0.6764314771
1.835173249 5.208353996 0.8679500222
1.834380746 5.200313091 1.06363225
1.840354443 5.211456776 1.266021132
1.828128815 5.173953056 1.458756328
1.552107215 4.378158569 -1.233065963
1.838763714 5.181011677 -1.259272695
1.871736646 5.253547668 -0.4842118919
1.877831221 5.267745495 -0.2908844054
1.885288596 5.28283453 -0.09720810503
1.871801019 5.277020931 0.09703358263
1.872062683 5.271917343 0.2909890711
1.871821046 5.268321037 0.4854321182
1.859580159 5.228083611 0.6761876941
1.856409431 5.213405609 0.8698272705
1.84807241 5.18712759 1.062105775
1.858028531 5.209319592 1.266920924
1.84917295 5.178778172 1.461861968
1.574664354 4.390625477 -1.238242388
1.601459622 4.457992077 -0.9125114679
1.620760679 4.50676918 -0.751875639
1.663658738 4.623519421 -0.5981913209
1.895769477 5.257069588 -0.2906750441
1.905755162 5.281864166 -0.09731282294
1.888858557 5.266691208 0.09696377069
1.891805053 5.269110203 0.2911984026
1.89650774 5.276424885 0.4868265986
1.874460816 5.212220192 0.6749690175
1.878610015 5.218045712 0.8717044592
1.869735718 5.187705994 1.06363225
1.878433347 5.206140518 1.267820835
1.868552446 5.175925732 1.462897301
1.593933225 4.395998955 -1.241348267
1.664298177 4.572622299 -0.5923416018
1.722243786 4.72926569 -0.4366248548
1.913425922 5.248543739 -0.2905703783
1.925552607 5.278936386 -0.09738263488
1.913606644 5.274770737 0.09724301845
1.909500837 5.260597706 0.2910937071
1.918998599 5.281007767 0.4878724515
1.895586729 5.210912228 0.6757002473
1.897489905 5.213311672 0.872017324
1.893208861 5.195906162 1.0666852
1.895260334 5.19588995 1.266920924
1.890581131 5.180260658 1.46600318
1.604615569 4.377710342 -1.237724781
1.630563021 4.44610548 -1.08336091
1.637958288 4.461445808 -0.9155643582
1.670469165 4.547552109 -0.760635972
1.667121291 4.533541203 -0.5879542828
1.707081199 4.637217045 -0.42860654
1.938414931 5.262784958 -0.2917217612
1.938429713 5.257174492 -0.09710339457
1.933841944 5.275905132 0.09738263488
1.93060565 5.261400223 0.2915124297
1.931923866 5.259315491 0.4864779413
1.915594339 5.212050438 0.6766752005
1.909536362 5.189971924 0.8692014813
1.914496779 5.200653076 1.068974853
1.912476659 5.189577579 1.266920924
1.907316089 5.170004368 1.464967847
1.617781162 4.368742466 -1.236689448
1.654108763 4.459671974 -0.9163276553
1.669831872 4.49724865 -0.7531271577
1.684316397 4.53141737 -0.5884417892
1.714921236 4.608822346 -0.4265148342
1.959557414 5.263474941 -0.2921404541
1.958167076 5.254123211 -0.09717320651
1.950853229 5.265373707 0.09731282294
1.952433825 5.263991833 0.2920357883
1.945193768 5.24167347 0.4854321182
1.936542749 5.212774754 0.6776501536
1.932462573 5.19623518 0.871391654
1.931271076 5.190258503 1.068211675
1.934662938 5.193826675 1.269620419
1.922647834 5.156075954 1.462897301
1.631749034 4.357356548 -1.235136509
1.666305184 4.442550182 -0.9140379429
1.675192952 4.461509228 -0.7481212616
1.707105994 4.544092655 -0.5908791423
1.747829437 4.647564888 -0.4306982756
1.9746176 5.245040894 -0.2915124297
1.979313731 5.254741669 -0.09731282294
1.967819929 5.254786491 0.09724301845
1.971496701 5.259014606 0.2921404541
1.965796351 5.238237858 0.4857807159
1.955423474 5.20784235 0.677893877
1.954065323 5.198701859 0.8729559183
1.946131706 5.172121048 1.065921903
1.955058694 5.190348625 1.270520091
1.943360567 5.156563282 1.464967847
1.652418733 4.36608839 -1.23927772
1.684585094 4.444050312 -0.9155643582
1.720928788 4.530382633 -0.5899042487
1.758380532 4.626536369 -0.4293038249
1.993620872 5.239984512 -0.2916170955
1.99977994 5.253406048 -0.0974175334
1.988481522 5.251278877 0.09731282294
1.988428235 5.248364925 0.2919311225
1.988304853 5.242522717 0.4868265986
1.969567418 5.187648773 0.6761876941
1.973599672 5.19554472 0.8735817075
1.969757676 5.17997551 1.068974853
1.975939274 5.190777302 1.272319794
1.964100361 5.156969547 1.467038393
1.673171163 4.37472868 -1.243418813
1.690256596 4.412475586 -0.9102217555
1.730255246 4.509823322 -0.5879542828
1.780233026 4.635249615 -0.4306982756
2.013136864 5.238936901 -0.2919311225
2.021696568 5.255725384 -0.09759206325
2.008743286 5.252126694 0.09745243937
2.007449389 5.243257523 0.2920357883
2.011584997 5.24857235 0.4880467653
1.988890529 5.186649799 0.6769189239
1.995264411 5.197843552 0.8751460314
1.989738941 5.180747032 1.070501447
1.990343213 5.176920414 1.270520091
1.984864116 5.157294273 1.469109058
1.680707216 4.351135254 -1.238242388
1.692128181 4.373888016 -0.9033525586
1.721044898 4.444023132 -0.7481212616
1.760338902 4.540773392 -0.5928290486
1.7811836 4.592170238 -0.4272120595
2.034304857 5.23932457 -0.2923497856
2.03693819 5.243401527 -0.09748735279
2.029949427 5.252543449 0.09759206325
2.024104118 5.234709263 0.2919311225
2.029699564 5.243730545 0.4882210493
2.010568142 5.188931465 0.67813766
2.006779432 5.176464081 0.8726431131
2.012071609 5.184751511 1.07279098
2.009812117 5.173574924 1.271420002
2.003356457 5.154284477 1.470144272
1.690969825 4.332644463 -1.234618902
1.730258703 4.426467419 -0.9155643582
1.750163317 4.475085258 -0.7543786168
1.781175494 4.549699306 -0.5947790146
1.803019285 4.600764275 -0.42860654
2.055312395 5.241847992 -0.292873174
2.058152676 5.243704796 -0.09762696922
2.048809052 5.249508858 0.09766186774
2.047453403 5.240633965 0.2926638126
2.04653883 5.232903004 0.4878724515
2.030659199 5.189629555 0.6791125536
2.026276112 5.173106194 0.8732687831
2.032120466 5.185361862 1.074317575
2.03265214 5.1813941 1.275019169
2.019922733 5.14366436 1.469109058
1.709577322 4.337797165 -1.237724781
1.742045879 4.413400173 -0.9140379429
1.762868881 4.461600304 -0.7531271577
1.798505068 4.547145844 -0.5952664614
1.827870488 4.616671562 -0.4306982756
2.072860479 5.232784271 -0.2927684784
2.079393625 5.243923187 -0.09776658565
