# .PCD v0.7 - Point Cloud Data file format
VERSION 0.7
FIELDS x y z
SIZE 4 4 4
TYPE F F F
COUNT 1 1 1
WIDTH 1220
HEIGHT 1
VIEWPOINT 0 0 0 1 0 0 0
POINTS 1220
DATA ascii
-2.790803909 0.0691806078 -0.3376346231
-2.798745871 0.07035496831 -0.241221711
-2.797366381 0.07129666954 -0.1444483697
-2.824652195 0.07248605788 -0.04862061143
-2.794787407 0.06683848053 0.04809703678
-3.602125645 0.08677531034 0.1866311729
-3.613438368 0.08830983192 0.3125151098
-3.550860882 0.088021487 0.4309865534
-3.543754339 0.08846332878 0.5547682047
-3.583337069 0.09070383012 0.6885016561
-3.553581238 0.09057036787 0.8107202053
-3.56211257 0.09203280509 0.9431886673
-2.096258879 0.05672335625 -0.550301373
-2.104082584 0.0576695241 -0.4759930074
-2.270204067 0.06261969358 -0.4331992269
-2.791151285 0.07796345651 -0.435565114
-2.782622099 0.07821188867 -0.3366596699
-2.810446262 0.07997503132 -0.2422675639
-2.789129257 0.08034275472 -0.1440296918
-2.810404062 0.08144648373 -0.04837627336
-2.798548222 0.07621493936 0.04816684499
-3.629769087 0.0994861424 0.188096568
-3.656941175 0.101508297 0.3163499534
-3.623969078 0.1018598452 0.4400048852
-3.620450258 0.1023924351 0.5669701099
-3.637965202 0.1041594893 0.6991869807
-3.594168186 0.1035324484 0.8201681376
-3.600408316 0.1049708202 0.953541398
-2.082542419 0.06326345354 -0.5466778874
-2.138940573 0.06572400779 -0.4840912223
-2.313155413 0.07148124278 -0.4415948689
-2.78890276 0.0871572122 -0.4352522194
-2.772411585 0.08761049062 -0.3354409933
-2.798217773 0.08891482651 -0.241221711
-2.800824881 0.08997628093 -0.1446577311
-2.804106951 0.0910621658 -0.0482715629
-2.802277565 0.08561708778 0.04823665693
-3.687292576 0.1139449105 0.1911320686
-3.704378843 0.1151200235 0.3205334544
-3.657341003 0.1149369404 0.4441484511
-3.643763542 0.1157824844 0.5707244873
-3.663109064 0.117038019 0.7041479945
-3.628843784 0.1172103062 0.8282663822
-3.615466833 0.1180423722 0.95768255
-2.078447342 0.07040175796 -0.5456426144
-2.181545258 0.07465627044 -0.49398911
-2.5189116 0.08664164692 -0.481664747
-2.786607265 0.09682324529 -0.4349393547
-2.789943457 0.0979141742 -0.3376346231
-2.781960726 0.0981201306 -0.2398272157
-2.800493717 0.0997525081 -0.1446577311
-2.799774885 0.1007060707 -0.04820175096
-2.797964573 0.0952623263 0.04816684499
-3.730786085 0.1283258498 0.1934348345
-3.711919069 0.1283254623 0.3212306798
-3.670975208 0.1294757873 0.5751047134
-3.686222792 0.1306585819 0.7087274194
-3.669309855 0.1313414872 0.8377143741
-2.072397232 0.07744011283 -0.5440896749
-2.204639912 0.08315174282 -0.4993879199
-2.579410791 0.09773829579 -0.4934948981
-2.774408817 0.106096901 -0.433062166
-2.795535803 0.1078820303 -0.3383658528
-2.7776196 0.1076767743 -0.239478603
-2.792145252 0.109215267 -0.1442390382
-2.807399035 0.1107933447 -0.04834137112
-2.777632236 0.1042783484 0.04781780019
-3.740294695 0.141726166 0.1939581931
-3.709457636 0.1412060112 0.321056366
-3.69017148 0.1417617947 0.448292017
-3.668526888 0.1422135383 0.5747917891
-3.675935507 0.1431423724 0.7068193555
-3.674670696 0.1443785876 0.839064002
-3.649300814 0.1446566731 0.9670000076
-2.114579678 0.08640898764 -0.5554777384
-2.231595278 0.09197089076 -0.5056865811
-2.388781071 0.09886660427 -0.4564779401
-2.770074606 0.1156160906 -0.4324364364
-2.795142412 0.1176390201 -0.3383658528
-2.78518939 0.1177077517 -0.2401758432
-2.779774427 0.1184515655 -0.143610999
-2.806995153 0.1205924004 -0.04834137112
-2.777251244 0.1139728725 0.04781780019
-3.719821692 0.1539555639 0.1929114759
-3.72088623 0.1546492279 0.3221022487
-3.67577076 0.1540602446 0.446585834
-3.671955585 0.1551842839 0.5754175782
-3.67541337 0.1559730172 0.7068193555
-3.67219758 0.1571206301 0.8386141658
-3.646843433 0.1573119313 0.9664824009
-2.16251421 0.0959296152 -0.5684186816
-2.26240921 0.1011527702 -0.5128849745
-2.411956787 0.1082602814 -0.4610573649
-2.781494141 0.1258203983 -0.4343136251
-2.778850317 0.1266727597 -0.3364159465
-2.788719654 0.128097415 -0.2405244559
-2.783334494 0.1283374876 -0.1438203603
-2.796569347 0.1299259514 -0.04816684499
-2.788822889 0.1242011487 0.04802722484
-3.717266083 0.1668488681 0.1928068101
-3.730275631 0.1680860221 0.3229737878
-3.671244383 0.1667092592 0.4460983574
-3.667444468 0.1678203493 0.5747917891
-3.682691097 0.1691612005 0.7083458304
-3.663840055 0.1695777327 0.8368145227
-3.653990984 0.1704000533 0.968552947
-2.18530345 0.104967773 -0.5746303201
-2.291239738 0.1104565039 -0.519633472
-2.4703722 0.1199570522 -0.4725058973
-2.781013966 0.1360142827 -0.4343136251
-2.778391123 0.1363720447 -0.3364159465
-2.780295849 0.137438342 -0.2398272157
-2.786834955 0.13873671 -0.1440296918
-2.788110018 0.1392879933 -0.04802722484
-2.796361685 0.1343190372 0.04816684499
-3.71067667 0.1795341074 0.192492798
-3.713713884 0.1809803545 0.3215793073
-3.67460537 0.1797182113 0.446585834
-3.654998779 0.1800380945 0.5729146004
-3.676163673 0.1823669225 0.7072009444
-3.651516199 0.1824219078 0.8341151476
-3.637938738 0.1823800951 0.9644118547
-2.200358152 0.1133901775 -0.578771472
-2.440670729 0.1266288757 -0.5542759895
-2.48954463 0.1295996457 -0.4763220847
-2.772631645 0.1453075558 -0.433062166
-2.785802126 0.1469721794 -0.3373908997
-2.771814823 0.1472051144 -0.2391299605
-2.790322304 0.1486763507 -0.1442390382
-2.785583973 0.1493989527 -0.04799232259
-2.787862539 0.1441536546 0.04802722484
-3.707998991 0.1930294335 0.1923881173
-3.701122046 0.1933190972 0.3205334544
-3.679869175 0.1934978664 0.4473170638
-3.648396492 0.193119958 0.571976006
-3.559835672 0.1890552044 0.6846854687
-3.460152864 0.1849724203 0.7900246978
-3.428907156 0.184502393 0.9085069299
-2.230790377 0.1231580451 -0.5870536566
-2.562796831 0.1419361681 -0.5826198459
-2.536098003 0.1413460523 -0.4854809344
-2.768136263 0.1552469581 -0.4324364364
-2.785272121 0.1566962898 -0.3373908997
-2.771284342 0.1568790674 -0.2391299605
-2.781782627 0.1584481299 -0.1438203603
-2.785045624 0.159120962 -0.04799232259
-2.771369219 0.1530024558 0.04774798453
-3.703314066 0.2057501078 0.1921787858
-3.60689187 0.2016567737 0.312340796
-3.423496246 0.1920018792 0.4158747792
-3.411031485 0.1924979985 0.5344317555
-3.414071798 0.1938650757 0.6564457417
-3.414703608 0.1950958669 0.7796769738
-3.387739897 0.1941493005 0.8976365328
-2.253512383 0.1319096833 -0.593265295
-2.616756201 0.1540887207 -0.5952171087
-2.551294088 0.1506807655 -0.4885338843
-2.76563406 0.1643085182 -0.4321235418
-2.780745029 0.1661809832 -0.3369034231
-2.780693054 0.1666642427 -0.2400015444
-2.765292883 0.1667105705 -0.1429829746
-2.788494587 0.1685970873 -0.04806213081
-2.770818233 0.1626761407 0.04774798453
-3.433447838 0.2021799386 0.1780480742
-3.425213337 0.2028955817 0.2964784503
-3.389118195 0.201943785 0.4117311835
-3.386712313 0.2023943812 0.5306773186
-3.389893532 0.2037719786 0.6518663168
-3.375133991 0.2040663064 0.7706789374
-3.356224298 0.2035116851 0.8893542886
-2.160487175 0.1340339631 -0.5684186816
-2.748489141 0.1709937453 -0.6258104444
-2.5860219 0.1617927998 -0.495402962
-2.767045736 0.1736025959 -0.4324364364
-2.77225399 0.1749015003 -0.3359284699
-2.782082796 0.1764958799 -0.2401758432
-2.772697449 0.1763869971 -0.1434016526
-2.779906511 0.1778191924 -0.04792251065
-2.774255276 0.1721113622 0.04781780019
-3.390859842 0.2115520835 0.1758499593
-3.400622368 0.2133527696 0.2943867147
-3.344844341 0.2104393393 0.4063689411
-3.344584703 0.2115950733 0.524107039
-3.357850075 0.2130226642 0.645760417
-3.343322277 0.2132727206 0.7634804845
-3.365132809 0.2158442289 0.8919425011
-2.104126453 0.1375423372 -0.5534071922
-2.751764774 0.1808423698 -0.6267102361
-2.671667576 0.1760461479 -0.5121941566
-2.770364761 0.183521539 -0.433062166
-2.767665386 0.1843130141 -0.3354409933
-2.773530245 0.1851897985 -0.239478603
-2.772065163 0.1860638559 -0.1434016526
-2.767330647 0.1862312108 -0.04771308228
-2.783614874 0.1824476123 0.04799232259
-3.354266644 0.2204380035 0.1739658713
-3.374051332 0.2229210585 0.2921206653
-3.324281931 0.2207990289 0.4039315581
-3.308386564 0.2203224152 0.5184754133
-3.394304752 0.2272349894 0.6530112028
-3.373666763 0.2270354331 0.7706789374
-3.375963688 0.2277826518 0.8950483799
-2.086287975 0.1436921656 -0.5487484336
-2.758926392 0.190503642 -0.6285098791
-2.765046597 0.1918959916 -0.5305117965
-2.769741058 0.1927075088 -0.433062166
-2.770999432 0.1937669516 -0.3359284699
-2.758954525 0.1938924193 -0.2382584065
-2.771432877 0.1952554584 -0.1434016526
-2.774642467 0.1964555383 -0.04785270244
-2.773019552 0.1909905076 0.04781780019
-3.347499371 0.2317307442 0.1736518443
-3.37325263 0.2346974313 0.2921206653
-3.367097616 0.2348596603 0.4092938006
-3.384448528 0.2372570336 0.5306773186
-3.409199953 0.2395900488 0.6560641527
-3.396222353 0.2398693413 0.7760777473
-3.382855654 0.2401119769 0.8971188664
-2.068458319 0.149357155 -0.5440896749
-2.758244514 0.2001330107 -0.6285098791
-2.760443687 0.2012611926 -0.529748559
-2.751320362 0.2010787278 -0.4302463233
-2.778225183 0.2040199935 -0.3369034231
-2.770182848 0.2044015378 -0.2393042892
-2.768707037 0.2052643448 -0.1432970017
-2.773939848 0.2061390728 -0.04785270244
-2.762363672 0.1999472529 0.04764327407
-3.386509895 0.2463120669 0.1757452786
-3.408223629 0.2484901845 0.2952582538
-3.391994476 0.248497203 0.4124624133
-3.399359941 0.2502297163 0.5331802368
-3.412214756 0.2523734868 0.6568273902
-3.40702486 0.2525874674 0.7787771821
-3.399335861 0.2532105148 0.9017776251
-2.062118053 0.1564993709 -0.5425367355
-2.741947889 0.2090559751 -0.6249106526
-2.726409912 0.2088278681 -0.5232610703
-2.750564814 0.2111615241 -0.4302463233
-2.773500204 0.2138954252 -0.3364159465
-2.767428398 0.2143995464 -0.2391299605
-2.767935991 0.2154108435 -0.1432970017
-2.789114714 0.2175487578 -0.04813193902
-2.757624149 0.2097664922 0.04757346213
-3.405498743 0.2602453232 0.1767919958
-3.425169468 0.2623489797 0.2968270779
-3.383143902 0.2603186965 0.4114874601
-3.388572454 0.261926204 0.5316159129
-3.407352209 0.2645742595 0.6560641527
-3.402190447 0.2647708058 0.7778773904
-3.392606735 0.2652163506 0.9002247453
-2.065382242 0.1643629223 -0.5435720682
-2.735335588 0.2186378986 -0.6235609055
-2.621944189 0.2100355923 -0.5030353069
-2.753710508 0.2215576619 -0.4308720827
-2.760864735 0.2226189077 -0.3349535167
-2.772620916 0.2245402783 -0.2396529019
-2.757213831 0.2242619097 -0.1427736282
-2.774386883 0.2261454612 -0.04788760841
-2.766803741 0.2206679136 0.04774798453
-3.390633345 0.2710164487 0.1760593057
-3.424185038 0.2749019861 0.2968270779
-3.378209829 0.2723977864 0.4110000134
-3.387637615 0.2737530172 0.5316159129
-3.410321474 0.276784271 0.6568273902
-3.381822109 0.2750653327 0.7733783722
-3.395511389 0.2773718238 0.9012600183
-2.062900782 0.1710510403 -0.5430544019
-2.703522921 0.2251201421 -0.6163624525
-2.609494686 0.2177490592 -0.5007455945
-2.752960682 0.2306881994 -0.4308720827
-2.756154776 0.2314409167 -0.3344660103
-2.767890453 0.2333986759 -0.2393042892
-2.760435104 0.2337410599 -0.1429829746
-2.773621798 0.2353445143 -0.04788760841
-2.76007843 0.2293450981 0.04764327407
-3.393696547 0.2825903296 0.1762686372
-3.42126894 0.2860895693 0.2966527641
-3.36739707 0.2827683985 0.4097812772
-3.359153509 0.2826665044 0.5272357464
-3.411340952 0.2882571816 0.6572089791
-3.380891323 0.2862784564 0.7733783722
-3.386873484 0.2879756987 0.8991894722
-2.031526804 0.1752346605 -0.5347722173
-2.636751652 0.2283671349 -0.6010658145
-2.622449398 0.2275895476 -0.5034168959
-2.756116152 0.2401591241 -0.4314978123
-2.767195463 0.2420984209 -0.3359284699
-2.747253418 0.2408362031 -0.2375611663
-2.765613794 0.2434191704 -0.1432970017
-2.766807318 0.2444974929 -0.04778289422
-2.763287067 0.2388410866 0.04771308228
-3.390700102 0.2942622602 0.1761639714
-3.388543367 0.2946717441 0.2938638031
-3.374351501 0.294623524 0.4107562602
-3.367985249 0.2952522635 0.5288000703
-3.396676064 0.2983647883 0.6545376778
-3.379871607 0.2980775237 0.7733783722
-3.362755299 0.2977517545 0.8929777741
-2.0328269 0.1824977398 -0.5352898836
-2.624293089 0.2365202606 -0.5983663797
-2.737001657 0.2471598983 -0.5259323716
-2.737555504 0.2481732517 -0.4286819696
-2.76633358 0.2517556846 -0.3359284699
-2.750364304 0.2507863641 -0.2379097939
-2.766735792 0.2532529235 -0.1434016526
-2.77788496 0.2552518845 -0.04799232259
-2.750486612 0.2474098057 0.04750365391
-3.389652014 0.3060963154 0.1761639714
-3.383525372 0.3061383665 0.2935151458
-3.365394354 0.3056830168 0.4097812772
-3.353163719 0.3057513833 0.5266100168
-3.387793779 0.3095060587 0.6530112028
-3.382691622 0.3102297187 0.7742781639
-3.377085209 0.3109042645 0.8971188664
-2.028330564 0.1892336756 -0.5342546105
-2.629272461 0.2462244779 -0.5997161269
-2.74785018 0.2578127682 -0.5282221437
-2.730772257 0.2571720183 -0.4277433455
-2.765437841 0.2614105344 -0.3359284699
-2.757360697 0.2616181076 -0.238607049
-2.74794054 0.2612082064 -0.1424596161
-2.774986267 0.2647564411 -0.04795741662
-2.747615337 0.2568232715 0.04746875167
-3.380608559 0.3171803355 0.1757452786
-3.386403561 0.3183202446 0.2938638031
-3.352449179 0.3163090646 0.4083188772
-3.352075815 0.3174543381 0.5266100168
-3.402328491 0.3228125572 0.6560641527
-3.651242733 0.3477163613 0.8368145227
-3.650980949 0.3489764929 0.9711410999
-2.027623177 0.196666643 -0.5342546105
-2.603182077 0.2529507875 -0.5938673615
-2.742978811 0.2675013244 -0.5274589062
-2.741607428 0.2683336437 -0.4296205938
-2.74870348 0.2695125043 -0.3339785635
-2.75246501 0.2708513141 -0.2382584065
-2.756902456 0.2722596228 -0.1429829746
-2.772054911 0.2742445469 -0.04792251065
-2.758643866 0.267571032 0.04767817631
-3.363578081 0.3274309337 0.1749079078
-3.414958477 0.3336359262 0.2964784503
-3.860119343 0.3791678548 0.6076430678
-3.942320824 0.3886316419 0.7617723942
-3.657701015 0.3618631363 0.8386141658
-2.01154685 0.2021970153 -0.5301134586
-2.716632605 0.2740294337 -0.6204116344
-2.73421526 0.2762843966 -0.5259323716
-2.752445698 0.2790977955 -0.4314978123
-2.747697115 0.2795852423 -0.3339785635
-2.75744915 0.2810637355 -0.2387813479
-2.755935431 0.2818814218 -0.1429829746
-2.753177643 0.2820848823 -0.0476083681
-2.759634733 0.2778805792 0.04771308228
-3.789657116 0.3822664917 0.1974123716
-3.895462036 0.3943127096 0.3388361633
-3.895180702 0.3956578076 0.4755907655
-3.854841948 0.3922400475 0.6070173383
-3.948752165 0.4031892419 0.7632988095
-3.656415701 0.3746287823 0.8386141658
-3.825257301 0.3926034868 1.018763781
-1.997378588 0.2078184932 -0.5264900327
-2.735091448 0.2850567698 -0.6249106526
-2.737139225 0.2862359881 -0.5266956091
-2.743646622 0.2874006033 -0.4302463233
-2.754652023 0.2895255089 -0.3349535167
-2.744562864 0.2894330323 -0.237735495
-2.760944128 0.2916484475 -0.1432970017
-2.752176046 0.2916942835 -0.0476083681
-2.758697987 0.2870304286 0.04771308228
-3.857826233 0.4027501941 0.2010758966
-3.905951262 0.4091535509 0.3398820162
-3.893847227 0.4085717201 0.4755907655
-3.861307383 0.4065209925 0.6082687974
-3.955203533 0.4171034098 0.7648252845
-3.662904739 0.3875721693 0.8404137492
-3.812336922 0.4047292173 1.015658021
-1.992836833 0.2140278965 -0.5254547
-2.734079838 0.2946017385 -0.6249106526
-2.742030859 0.2959425747 -0.5278404951
-2.732807159 0.2959121168 -0.4286819696
-2.755598068 0.2993537486 -0.3351972401
-2.74749732 0.2994440794 -0.2380841076
-2.755938292 0.3008507192 -0.1430876404
-2.755116701 0.3017341793 -0.04767817631
-2.741773367 0.2949473262 0.0474338457
-3.725338936 0.4020693004 0.1941675395
-3.898630142 0.4214615822 0.3393590748
-3.868714809 0.4195937812 0.4726658762
-3.85986495 0.419996202 0.6082687974
-3.938109875 0.4292064905 0.7617723942
-3.665404081 0.4007785916 0.8413135409
-3.828184366 0.4199302793 1.02031672
-1.992039084 0.2213306129 -0.5254547
-2.721413851 0.3028505147 -0.6222112179
-2.746781111 0.3066441715 -0.5289853215
-2.731704235 0.305927068 -0.4286819696
-2.746645689 0.308085084 -0.3342222869
-2.752374887 0.3097012341 -0.238607049
-2.740924358 0.309381634 -0.1423549354
-2.758020878 0.3117988706 -0.04774798453
-2.744702101 0.3049571812 0.04750365391
-3.511520863 0.3913982809 0.1829676479
-3.873298883 0.433090359 0.3372673392
-3.843553543 0.430444479 0.4697410166
-3.860338211 0.4336876869 0.6085816622
-3.936510563 0.4436366558 0.7617723942
-3.660037756 0.4137733877 0.8404137492
-3.811338425 0.4315518439 1.016175628
-1.997012019 0.2289429307 -0.5270076394
-2.720285654 0.3128229976 -0.6222112179
-2.733991623 0.3148826063 -0.5266956091
-2.738469124 0.3163668811 -0.4299334586
-2.733721733 0.3163018823 -0.3327598572
-2.75127697 0.3193069994 -0.238607049
-2.737844229 0.318716526 -0.1422502697
-2.752943039 0.3209611773 -0.04767817631
-2.739592552 0.3145594597 0.0474338457
-3.353383064 0.3856269121 0.1746985614
-3.89551425 0.4493487477 0.3393590748
-3.826174736 0.4427028298 0.4677911103
-3.86468792 0.447843343 0.6095202565
-3.938838005 0.4578283429 0.7625355721
-3.647031546 0.4245564044 0.8377143741
-3.828996897 0.4470930099 1.021352053
-1.988567829 0.2346585244 -0.5249370933
-2.730844736 0.3232164979 -0.6249106526
-2.725134373 0.3230228722 -0.5251691937
-2.741328001 0.325912714 -0.4305591881
-2.732657909 0.325365603 -0.3327598572
-2.744268179 0.3277201653 -0.2380841076
-2.740738153 0.3282689452 -0.1424596161
-2.739950895 0.3286596835 -0.04746875167
-2.750449896 0.3250501752 0.04764327407
-3.282666206 0.3885288239 0.1710350513
-3.882132292 0.4608542919 0.3383132219
-3.848339796 0.4582049549 0.4707159996
-3.837682009 0.45761621 0.6054529548
-3.948994398 0.4722864628 0.7648252845
-3.641733408 0.4361846447 0.8368145227
-3.815984726 0.4584056139 1.018246174
-1.976272225 0.2398550957 -0.521831274
-2.733626842 0.3327415586 -0.6258104444
-2.731842995 0.3330082893 -0.5266956091
-2.740232229 0.3350016177 -0.4305591881
-2.739386797 0.3358687758 -0.3337348402
-2.731300831 0.3353618681 -0.2370382249
-2.751528263 0.338819772 -0.1430876404
-2.738787174 0.3382213116 -0.04746875167
-2.747371674 0.3339280188 0.0476083681
-3.289220095 0.4009518623 0.1714537293
-3.880582809 0.4737255275 0.3383132219
-3.834976673 0.4695167243 0.46925354
-3.834100246 0.4707687497 0.60514009
-3.933766365 0.4837021828 0.7621539831
-3.651793242 0.4503251612 0.8395139575
-3.816278458 0.47196123 1.018763781
-1.971588969 0.2462732792 -0.520796001
-2.724714279 0.3413128853 -0.6240108609
-2.730664015 0.3425422609 -0.5266956091
-2.721406698 0.3423458636 -0.4277433455
-2.74607563 0.3464235067 -0.3347097635
-2.73999691 0.3461418152 -0.2379097939
-2.740421534 0.3471679688 -0.1425642818
-2.757427216 0.3502996266 -0.04781780019
-2.736268044 0.342274487 0.0474338457
-3.331398726 0.4179001153 0.1737565249
-3.878905535 0.4872676134 0.3383132219
-3.845131636 0.4843892157 0.4707159996
-3.840273142 0.4851389229 0.6063916087
-3.928158283 0.4969379008 0.761390686
-3.654065847 0.4635592997 0.8404137492
-3.814607859 0.4852797389 1.018763781
-1.97071743 0.2531535029 -0.520796001
-2.706111193 0.3485811949 -0.619961679
-2.737240553 0.3530760407 -0.5282221437
-2.726072311 0.3526035249 -0.4286819696
-2.740912437 0.3554957807 -0.3342222869
-2.73673439 0.3559245765 -0.237735495
-2.723348856 0.354667753 -0.1417269111
-2.750238895 0.3591466248 -0.04771308228
-2.731090069 0.3513142765 0.04736403748
-3.333881378 0.4300366342 0.1739658713
-3.873228788 0.500295043 0.3379645646
-3.839479923 0.4972974658 0.4702284932
-3.856186628 0.5008308887 0.6092073917
-3.922506332 0.5101395249 0.7606275082
-3.646628141 0.4755556583 0.839064002
-3.820553303 0.4995934069 1.020834446
-1.969776273 0.2603753507 -0.520796001
-2.710673571 0.3587917387 -0.6213114262
-2.724250793 0.361557126 -0.5259323716
-2.72867775 0.3631138504 -0.4293076992
-2.719977856 0.3624392748 -0.331784904
-2.739424944 0.3660038114 -0.2380841076
-2.727969408 0.3654425144 -0.1420409232
-2.748968601 0.3687439561 -0.04771308228
-2.733811855 0.36136958 0.0474338457
-3.316520214 0.4395729005 0.1731284857
-3.879269361 0.5155368447 0.3386618197
-3.806236982 0.506508112 0.4663286805
-3.842666864 0.5127210617 0.6073302031
-3.920610189 0.5245137811 0.7606275082
-3.637135029 0.4878817201 0.8372644186
-3.816871405 0.5126695037 1.02031672
-1.974598289 0.2680286765 -0.5223489404
-2.709340334 0.368725121 -0.6213114262
-2.71908164 0.3705335557 -0.5251691937
-2.731308222 0.3731714487 -0.4299334586
-2.726498127 0.3734837174 -0.3327598572
-2.7262218 0.3744153678 -0.2370382249
-2.730634689 0.3755069971 -0.1422502697
-2.743636847 0.3782708347 -0.04764327407
-2.744358063 0.3730023503 0.04764327407
-3.312908173 0.4514552057 0.173023805
-3.87942028 0.5293443799 0.3388361633
-3.804354906 0.5204553604 0.4663286805
-3.825105429 0.5246542692 0.6048272252
-3.928480148 0.539531827 0.7625355721
-3.627687693 0.4995115697 0.8354648352
-3.816880226 0.5269199014 1.020834446
-2.726009607 0.3826299012 -0.4293076992
-2.729109049 0.3835513294 -0.3332473338
-2.724898338 0.3839287758 -0.2370382249
-2.737150431 0.3866301179 -0.1426689625
-2.74031949 0.3875656128 -0.0476083681
-2.735116959 0.3814754784 0.04750365391
-3.327136278 0.4652294219 0.1738611907
-3.847857237 0.5394116044 0.3362214565
-3.833967924 0.5381458998 0.4702284932
-3.821294546 0.5377280116 0.6045143604
-3.920644045 0.553104043 0.761390686
-3.637409687 0.5144417882 0.8381642103
-3.805453539 0.5388857722 1.018246174
-1.312921166 0.1873238087 -0.3437637687
-2.713062048 0.3895084858 -0.4274305105
-2.727822304 0.3925993741 -0.3332473338
-2.721706867 0.3922040164 -0.2368639261
-2.728015423 0.394085139 -0.1422502697
-2.742977381 0.3972233236 -0.04767817631
-2.723938942 0.389128834 0.04732913151
-3.329529524 0.4768265188 0.1740705371
-3.842199564 0.5509309769 0.335872829
-3.832162142 0.5508568883 0.4702284932
-3.825356007 0.5512423515 0.6054529548
-3.903342485 0.5631748438 0.7583377957
-3.645418882 0.527261436 0.8404137492
-3.803645611 0.551502347 1.018246174
-1.302701592 0.1905079186 -0.3411755264
-1.357635617 0.1990255415 -0.3068298101
-1.365123987 0.2003666908 -0.2599446774
-2.718580008 0.400960356 -0.3322723806
-2.73017621 0.4031568766 -0.237735495
-2.716744423 0.402143091 -0.1417269111
-2.74355197 0.4070899487 -0.04771308228
-2.730478525 0.3997943401 0.04746875167
-3.308083534 0.4855454564 0.173023805
-3.871792316 0.5689753294 0.3386618197
-3.806649446 0.5607588291 0.4673036337
-3.829271078 0.5654568672 0.6063916087
-3.911063194 0.578232348 0.7602458
-3.639701128 0.5394110084 0.8395139575
-3.799786568 0.5644924641 1.017728567
-1.277191877 0.1913330108 -0.3344462812
-1.310681462 0.1968181133 -0.2960321605
-1.348884702 0.2027959526 -0.2568917274
-1.464058161 0.2206337601 -0.2278201133
-2.717163801 0.4104469419 -0.3322723806
-2.73269248 0.4132804871 -0.2380841076
-2.72124815 0.4125213325 -0.1420409232
-2.746068478 0.4172651172 -0.04778289422
-2.729066372 0.4093224704 0.04746875167
-3.877663374 0.5836722851 0.3393590748
-3.810557365 0.5749325752 0.4680348635
-3.829226971 0.5791155696 0.6067044139
-3.920667887 0.5936455727 0.7625355721
-3.622382402 0.5497733951 0.835914731
-3.814981937 0.5803667903 1.022387266
-1.253601909 0.1922758669 -0.3282346129
-1.286873221 0.1978387386 -0.2906333506
-1.309360623 0.2015298009 -0.2492593378
-1.330524087 0.2052626014 -0.20654504
-3.584246397 0.5561513901 -0.1878872365
-2.73355031 0.4197567999 0.04757346213
-3.36185956 0.5174394846 0.1760593057
-3.832281351 0.590528965 0.3355242312
-3.781061649 0.583987534 0.4646224976
-3.809613228 0.5897597671 0.6038886309
-3.906930923 0.6055226326 0.7602458
-3.622366905 0.5627146363 0.8363646269
-3.790026665 0.5901136398 1.016175628
-1.226204276 0.1924570203 -0.3209876716
-1.274624228 0.2005125731 -0.2879339159
-1.271801591 0.2002959847 -0.2420086116
-1.302482486 0.2055938542 -0.2021648735
-1.351540923 0.2138211429 -0.1628739834
-3.571984291 0.565746367 -0.3126894236
-3.616075754 0.5746706724 -0.06321082264
-3.368017435 0.5298265815 0.1764779985
-3.832164764 0.6042129397 0.335698545
-3.7868433 0.5984218121 0.4655974507
-3.805685282 0.6020802259 0.6035757661
-3.920306206 0.6216164827 0.7632988095
-3.626154423 0.576272428 0.8377143741
-3.788048983 0.6026787162 1.016175628
-1.212172866 0.1945926845 -0.317364186
-1.247015715 0.2004090101 -0.2816352844
-1.257526636 0.2025488317 -0.2393372804
-1.264739871 0.2039368153 -0.1962203383
-1.315550327 0.2126013786 -0.1584866792
-3.589655161 0.5813970566 -0.3144325316
-3.606152534 0.5860068202 -0.06307120621
-3.387838125 0.5450698733 0.1776293814
-3.841834307 0.6194881797 0.3367443979
-3.796596289 0.6128744483 0.4670598805
-3.809410334 0.6163073778 0.6045143604
-3.898843288 0.6314746141 0.7594826221
-3.631917715 0.5895431042 0.8395139575
-3.799269438 0.6180692911 1.019799113
-1.21152091 0.1986113787 -0.317364186
-1.217464089 0.2000220418 -0.2748867571
-1.245224714 0.204806149 -0.237047568
-1.246478677 0.2054592669 -0.1934045404
-1.287380576 0.2126624733 -0.1550743431
-3.624951124 0.6001067162 -0.3177444637
-3.592122555 0.5953151584 -0.1886199266
-3.58238554 0.594987154 -0.06268724799
-3.689415455 0.6068100929 0.1937488616
-3.843690395 0.6328722835 0.3370930254
-3.796392441 0.6264466047 0.4673036337
-3.816980362 0.6312125325 0.6060786843
-3.90436244 0.6463629603 0.7610090971
-3.622148037 0.600941658 0.8377143741
-3.810428858 0.6335455775 1.023422599
-1.206974506 0.2024112046 -0.316328913
-1.214836597 0.2039479762 -0.2744368613
-1.238657594 0.2083916217 -0.2359027416
-1.216498971 0.2051000297 -0.1887114942
-1.231822848 0.2079049945 -0.148249656
-3.584008694 0.6074764729 -0.1883059144
-3.572400808 0.6061495543 -0.06254762411
-3.723441839 0.6244260669 0.06520039588
-3.71484971 0.6243183017 0.1952142566
-3.85313344 0.6489422321 0.3381389081
-3.79809761 0.6403539181 0.4677911103
-3.814754009 0.6445325613 0.6060786843
-3.901967287 0.6606688499 0.7610090971
-3.612236023 0.6129086614 0.835914731
-3.812003136 0.6474896073 1.024457812
-1.191027522 0.2040141225 -0.3121878207
-1.200636387 0.2060911357 -0.2712875307
-1.214703798 0.2087243795 -0.2313233167
-1.219669223 0.2100156099 -0.1893372387
-1.213446975 0.2093803436 -0.1460560113
-3.572026491 0.6182794571 -0.1877825558
-3.574095964 0.6199234128 -0.0626174435
-3.811790943 0.6536151767 0.06680601835
-3.716473341 0.638607204 0.195423618
-3.842990637 0.6610364914 0.337441653
-3.793768883 0.6539341211 0.4675473869
-3.804579735 0.6571651697 0.6048272252
-3.911244631 0.6762923598 0.7632988095
-3.613914728 0.6261802912 0.8368145227
-3.805798292 0.6607952118 1.023422599
-1.176987529 0.2058404684 -0.3085643649
-1.197990179 0.2099448442 -0.2708376348
-1.208166718 0.2119452804 -0.2301784456
-1.205309629 0.2118780613 -0.1871471554
-1.202933669 0.2118929774 -0.1448373199
-1.701476097 0.3000162244 -0.1474421322
-3.579680443 0.6324819326 -0.1883059144
-3.579786539 0.6337893009 -0.06275705993
-3.7760005 0.6610546708 0.06621263176
-3.726024866 0.6536460519 0.1960516423
-3.822998524 0.6713456511 0.335872829
-3.795373201 0.6678600907 0.4680348635
-3.796426535 0.6694126129 0.6038886309
-3.9011271 0.6885752678 0.7617723942
-3.615545034 0.6394703388 0.8377143741
-3.780641556 0.6700314283 1.01721096
-1.178163528 0.2102871388 -0.3090820014
-1.193413496 0.2134388983 -0.2699378431
-1.209352016 0.2165072709 -0.2305600643
-1.19095242 0.2136422992 -0.1849570721
-1.211955547 0.2178469747 -0.1460560113
-1.720027685 0.3094815314 -0.1491852403
-3.581382036 0.645683229 -0.1885152608
-3.587504387 0.6474326253 -0.06293158233
-3.765795946 0.6728246212 0.06607301533
-3.731701136 0.6674050093 0.1964703351
-3.822592974 0.6850378513 0.3360471725
-3.800834179 0.6825078726 0.4690097868
-3.800018311 0.683046937 0.6048272252
-3.88324213 0.6994045973 0.7587193847
-3.620961666 0.6534706354 0.8395139575
-3.782201052 0.6832509041 1.018246174
-1.167919278 0.2126680315 -0.306493789
-1.177361846 0.2145997286 -0.2663386166
-1.205782771 0.2204324007 -0.1874600202
-1.207321405 0.2211492062 -0.1455685347
-1.816919565 0.3334669173 -0.1579008251
-3.569399357 0.6557508111 -0.1879919022
-3.589155912 0.6606755257 -0.06300138682
-3.751739979 0.6831594706 0.06586358696
-3.719524384 0.6786347032 0.1959469765
-3.812338829 0.6969439387 0.3353499174
-3.786834002 0.6929643154 0.4675473869
-3.813155174 0.6991565228 0.6073302031
-3.880901337 0.7122781873 0.7587193847
-3.618774652 0.6654747128 0.8395139575
-3.787392378 0.6978503466 1.02031672
-3.564538479 0.6632223129 -0.6965156198
-1.815803766 0.3394902647 -0.1579008251
-3.56119895 0.6671040654 -0.1876778901
-3.577000856 0.6713557243 -0.06282686442
-3.737536192 0.694059968 0.06565415859
-3.70142436 0.6886914968 0.1951095909
-3.81784153 0.7110415697 0.3360471725
-3.762926579 0.7021731734 0.4648662508
-3.800982714 0.710647583 0.6057658792
-3.886110306 0.7272652984 0.7602458
-3.601106882 0.6752294898 0.835914731
-3.767845392 0.7078564167 1.015658021
-2.574908733 0.4869989455 -0.6905812621
-3.517473221 0.6665411592 -0.8165689111
-3.54291296 0.6720014811 -0.692699492
-3.556276798 0.6758232117 -0.5666572452
-3.557521343 0.6773463488 -0.4395174384
-1.826350689 0.3480645716 -0.1589466929
-3.566696167 0.6810285449 -0.188096568
-3.568743229 0.682711482 -0.06272215396
-3.725266695 0.7052433491 0.06547963619
-3.708809376 0.7034678459 0.1956329495
-3.787932158 0.7191613317 0.3336067796
-3.787754536 0.7204964757 0.4682785869
-3.784895658 0.7213225961 0.6035757661
-3.891262054 0.7422986031 0.7617723942
-3.598727942 0.6877956986 0.835914731
-3.769146681 0.7217301726 1.016693354
-2.411953926 0.4649052024 -0.646582067
-3.52086544 0.6799231172 -0.8179186583
-3.536690474 0.6836202741 -0.6919362545
-3.550017118 0.6874808669 -0.566031456
-3.560981512 0.6908946633 -0.4402486384
-3.556052446 0.6905814409 -0.3132123649
-3.572139025 0.6950003505 -0.1885152608
-3.564375877 0.6947812438 -0.06268724799
-3.712964296 0.7163485885 0.06530510634
-3.708291769 0.7167897224 0.1957376152
-3.77366209 0.7301086187 0.3325609267
-3.765727758 0.729937315 0.4658411741
-3.780415773 0.7341525555 0.6032629013
-3.877084255 0.7536286712 0.7594826221
-3.600130796 0.7010976672 0.8368145227
-3.768500566 0.7352526188 1.01721096
-2.419794321 0.4751835465 -0.6491702199
-3.51464653 0.6914567947 -0.8170188665
-3.541987658 0.6974788308 -0.6934626698
-3.539843798 0.6983393431 -0.5647799969
-3.554653168 0.7025500536 -0.4397611618
-3.543847084 0.7010578513 -0.312340796
-3.56577301 0.7066878676 -0.1883059144
-3.565851688 0.7079979777 -0.06275705993
-3.692782164 0.7258331776 0.06499096751
-3.697928667 0.7281863093 0.1953189373
-3.775000334 0.7440465093 0.3329095542
-3.77873683 0.7461542487 0.4677911103
-3.789456606 0.7496452332 0.60514009
-3.870578289 0.7663949728 0.7587193847
-3.605307579 0.7151778936 0.8386141658
-3.773490191 0.7499089837 1.019281507
-2.421909571 0.4843845665 -0.650205493
-3.506478786 0.7025734186 -0.8156691194
-3.541456461 0.7102237344 -0.6938443184
-3.541257858 0.7114706039 -0.5654057264
-3.552179098 0.714953959 -0.4397611618
-3.557003736 0.7165718079 -0.3137352765
-3.545664787 0.7155745029 -0.1873638779
-3.567404509 0.7206107974 -0.06282686442
-3.70591259 0.7418591976 0.06527020782
-3.687660217 0.7388757467 0.1949002594
-3.791913986 0.7611403465 0.3346526623
-3.76832509 0.757773757 0.4668161571
-3.788886547 0.762596488 0.6054529548
-3.87172842 0.7806774378 0.7594826221
-3.598968983 0.7269868255 0.8377143741
-3.742579699 0.7566758394 1.011516929
-2.410738945 0.4909083247 -0.6476173401
-3.500310898 0.7134183645 -0.8147693276
-3.531261444 0.7210104465 -0.6923178434
-3.538878918 0.7232100368 -0.5654057264
-3.53812027 0.7243407369 -0.438298732
-3.554480791 0.7289837599 -0.3137352765
-3.543272257 0.7273285985 -0.1873638779
-3.553115129 0.7306424975 -0.0626174435
-3.728905201 0.7593317032 0.06572397053
-3.690929651 0.7529404163 0.1952142566
-3.795090437 0.775569737 0.3351756036
-3.779405117 0.773050487 0.4685223103
-3.782331228 0.7750254869 0.6048272252
-3.876811028 0.7950900793 0.7610090971
-3.588902473 0.7373487949 0.835914731
-3.768298388 0.7755761147 1.019281507
-2.405314445 0.4981165528 -0.646582067
-3.50924778 0.728007555 -0.8174687028
-3.538266897 0.7359609604 -0.5657186508
-3.531683683 0.7358769774 -0.4378112257
-3.550093412 0.74036026 -0.3135609627
-3.540711403 0.7396934032 -0.1873638779
-3.544800282 0.7411932945 -0.06251272559
-3.757561207 0.7788371444 0.0662824437
-3.688412428 0.7651759982 0.1952142566
-3.794448376 0.7885550857 0.3353499174
-3.770853281 0.7850247622 0.4677911103
-3.773938894 0.7863543034 0.6038886309
-3.8816998 0.8102216125 0.7625355721
-3.590121746 0.7506697178 0.8368145227
-3.761924028 0.7872766852 1.018246174
-2.39599967 0.5049161911 -0.6445114613
-2.601089478 0.5486088991 -0.6037651896
-2.600422144 0.5494168997 -0.5083779693
-3.52807641 0.7460557222 -0.5644671321
-3.540875912 0.7500526905 -0.4392736852
-3.533844471 0.7498521805 -0.312340796
-3.538239479 0.7514300942 -0.1873638779
-3.548059702 0.7548100948 -0.0626174435
-3.782351971 0.7970663905 0.06677111238
-3.70526123 0.7821716666 0.1962609887
-3.795571089 0.8026208282 0.335698545
-3.78764987 0.8016354442 0.4702284932
-3.776968002 0.8007531166 0.6048272252
-3.871309519 0.8214594126 0.7610090971
-3.587612629 0.7625710368 0.8368145227
-3.710026264 0.789943397 1.004787683
-2.398089886 0.5136681795 -0.6455467343
-2.60296917 0.5585033894 -0.6046649814
-2.61010313 0.5605105758 -0.5106676817
-3.519657373 0.7571194172 -0.5635285378
-3.545998573 0.764079988 -0.4402486384
-3.529390812 0.7611468434 -0.3121664822
-3.539499044 0.7646206617 -0.1875732094
-3.553220987 0.7688822746 -0.06275705993
-3.791278124 0.8127786517 0.06698054075
-3.712271929 0.7971975207 0.1967843473
-3.796784878 0.8160386086 0.3360471725
-3.779007196 0.8135986924 0.4694972932
-3.774150133 0.8139315248 0.6048272252
-3.856904268 0.8324826956 0.7587193847
-3.596357584 0.7775595784 0.8395139575
-3.756335735 0.8135215044 1.018246174
-2.392507315 0.5212129951 -0.6445114613
-2.57815671 0.5626004338 -0.5992661715
-2.596622229 0.5671041012 -0.5083779693
-3.515063286 0.7689786553 -0.563215673
-3.5316751 0.773904562 -0.4387862086
-3.530604601 0.774315834 -0.3125151098
-3.523153543 0.7739706039 -0.1868405193
-3.554421186 0.782140255 -0.06282686442
-3.792325497 0.8268606663 0.06705035269
-3.699710369 0.80801934 0.1962609887
-3.809484482 0.8326916099 0.337441653
-3.754813194 0.8221137524 0.4668161571
-3.769356251 0.8266777396 0.6045143604
-3.850139618 0.8450990319 0.7579562068
-3.586008549 0.7884348035 0.8377143741
-3.768566608 0.8299518228 1.022387266
-2.401990175 0.5320681334 -0.6476173401
-2.564762592 0.5690632463 -0.5965667963
-2.59079361 0.5753134489 -0.5076147318
-3.518142223 0.7825306654 -0.5641542673
-3.521201849 0.7845011353 -0.4378112257
-3.535658836 0.7883697152 -0.3132123649
-3.514582634 0.7849580646 -0.1865264922
-3.545815229 0.7932330966 -0.06272215396
-3.801129818 0.8426904082 0.06725978106
-3.876245499 0.8607617617 0.2058907896
-3.806554556 0.8459842205 0.337441653
-3.759671211 0.8369418383 0.4677911103
-3.764519691 0.839400351 0.6042014956
-3.862494946 0.8619542122 0.7610090971
-3.579430819 0.8000973463 0.8368145227
-3.765646458 0.8431016207 1.022387266
-2.386925697 0.5374794006 -0.6439938545
-2.557057381 0.5767262578 -0.5952171087
-2.577279091 0.5817604661 -0.5053250194
-3.513462782 0.7943700552 -0.5638414025
-3.510697603 0.7950339317 -0.4368363023
-3.521226645 0.7980635166 -0.3121664822
-3.525454998 0.8003165722 -0.1872591972
-3.529375315 0.8025020361 -0.06247781962
-3.798165321 0.8559528589 0.06725978106
-3.678393126 0.8303112388 0.195423618
-3.788030863 0.8557541966 0.3360471725
-3.772215843 0.8535653353 0.4697410166
-3.753860712 0.8507885337 0.6029500365
-3.863292217 0.8763003349 0.7617723942
-3.572815418 0.8117236495 0.835914731
-3.762680292 0.8562411666 1.022387266
-2.367991686 0.542342186 -0.6393350959
-2.560624599 0.5874023438 -0.5965667963
-2.563648939 0.5885664821 -0.5030353069
-3.516302586 0.8085711598 -0.5647799969
-3.519366741 0.8105692267 -0.438298732
-3.514394999 0.8100700378 -0.3118178546
-3.526389837 0.8141312599 -0.1874685436
-3.528500557 0.8152672052 -0.06251272559
-3.828138113 0.8774632812 0.0678531602
-3.679365635 0.8440393806 0.1956329495
-3.784868956 0.8696323037 0.3360471725
-3.767127991 0.8669395447 0.4694972932
-3.75856781 0.8656612635 0.6042014956
-3.860054493 0.890453279 0.7617723942
-3.581208706 0.827445507 0.8386141658
-3.752140522 0.8676285148 1.02031672
-2.373610735 0.5523562431 -0.6414057016
-2.547274828 0.5932384133 -0.5938673615
-2.569226265 0.5992955565 -0.5045617819
-3.488594532 0.8143894672 -0.5607126951
-3.514726877 0.8217827678 -0.4380549788
-3.507666349 0.8214232922 -0.3114692271
-3.519781828 0.824909389 -0.1872591972
-3.512006283 0.8243795037 -0.06226839125
-3.811573744 0.8869805336 0.06760882586
-3.684177637 0.8586902618 0.1960516423
-3.793451309 0.8855563402 0.3370930254
-3.777763367 0.8825883865 0.4712034464
-3.757446527 0.8792259693 0.6045143604
-3.839876652 0.899220109 0.7583377957
-3.582239389 0.8402068019 0.8395139575
-3.75661087 0.8824887276 1.022387266
-2.371765852 0.5602244735 -0.6414057016
-2.548981428 0.6030231714 -0.5947671533
-2.578687668 0.6105262041 -0.5068514943
-3.472276211 0.8233708739 -0.5585226417
-3.494454384 0.8299191594 -0.4358613491
-3.497169733 0.8312079906 -0.3107720017
-3.474135637 0.8270152807 -0.1849564165
-3.522723198 0.8398800492 -0.06251272559
-3.810400009 0.9007410407 0.06764373183
-3.685045004 0.8724656105 0.1962609887
-3.802126408 0.9008873701 0.3381389081
-3.761139393 0.8925615549 0.4694972932
-3.752433062 0.8918790221 0.6042014956
-3.832894087 0.9117097259 0.7575744987
-3.57170248 0.8508988023 0.8377143741
-3.74974966 0.8946997523 1.021352053
-2.375431538 0.5698513985 -0.6429585218
-2.544965982 0.6114619374 -0.5943172574
-2.565087557 0.6167699099 -0.5045617819
-3.480903387 0.8382612467 -0.5603998303
-3.472238541 0.8374569416 -0.4334239662
-3.500056982 0.8448128104 -0.3112949133
-3.486758709 0.8428909779 -0.1857938021
-3.511995792 0.8502902985 -0.06237310171
-3.834455013 0.9205710292 0.06813240051
-3.670325518 0.882521987 0.1956329495
-3.806707144 0.9160175323 0.3388361633
-3.773439407 0.9094066024 0.4714471698
-3.749296904 0.904972136 0.6042014956
-3.835412979 0.9264674783 0.7587193847
-3.561133862 0.8615283966 0.835914731
-3.731583595 0.9041433334 1.01721096
-2.371550798 0.5776832104 -0.6424409747
-2.550389051 0.622189343 -0.5961169004
-2.557197332 0.6243231893 -0.5034168959
-3.481794357 0.8513453007 -0.5610256195
-3.46929431 0.8495723605 -0.4334239662
-3.479521751 0.8533643484 -0.309726119
-3.489614248 0.8564852476 -0.1861078143
-3.489587307 0.8577701449 -0.06202405691
-3.835103989 0.9348974228 0.068202205
-3.674983501 0.897223413 0.1960516423
-3.799615383 0.9283540845 0.3384875059
-3.768313885 0.922100246 0.4712034464
-3.751870632 0.9194647074 0.60514009
-3.832155943 0.9398490787 0.7587193847
-3.563782215 0.8753492236 0.8372644186
-3.743412256 0.9208552837 1.021352053
-2.361916542 0.584515214 -0.640370369
-2.544418573 0.6301505566 -0.5952171087
-2.558702946 0.634636879 -0.5041801333
-3.470981836 0.862196207 -0.5597741008
-3.474013329 0.8635929227 -0.4343989193
-3.468788147 0.8635797501 -0.3090288639
-3.490327358 0.8702359796 -0.1863171607
-3.496273041 0.8723665476 -0.06219857931
-3.820170164 0.9453965425 0.06799277663
-3.671829224 0.9100461006 0.1960516423
-3.782651424 0.9389144182 0.3372673392
-3.776631355 0.9381198883 0.4726658762
-3.739053488 0.9301712513 0.6035757661
-3.836305618 0.9557868242 0.7602458
-3.566222429 0.8898198605 0.8386141658
-3.732677937 0.9320446849 1.019281507
-2.356114388 0.591814518 -0.6393350959
-2.540201902 0.638997376 -0.5947671533
-2.571703196 0.6473981738 -0.5072330832
-3.462204695 0.8728583455 -0.5588355064
-3.490225554 0.8805696368 -0.4368363023
-3.473479271 0.877635181 -0.309726119
-3.487268448 0.8824142814 -0.1863171607
-3.493206739 0.8845655918 -0.06219857931
-3.824437141 0.9613419175 0.06813240051
-3.680251837 0.9257811904 0.1966796666
-3.787078857 0.9540596008 0.3379645646
-3.767393589 0.9504980445 0.4719346762
-3.731953382 0.9422502518 0.6029500365
-3.819622278 0.965803504 0.7575744987
-3.570808649 0.9035532475 0.8404137492
-3.729401588 0.9450685382 1.019281507
-2.359755278 0.6010550857 -0.6408880353
-2.528627634 0.6450092196 -0.592517674
-2.575248718 0.6573795676 -0.5083779693
-3.470774174 0.8872702122 -0.5607126951
-3.489209414 0.8926309347 -0.4370800555
-3.493710279 0.8950826526 -0.3118178546
-3.486257315 0.894470036 -0.1864218116
-3.515433311 0.9026097059 -0.06265234202
-3.832854271 0.9769825339 0.06834182888
-3.681032181 0.9389677048 0.1968890131
-3.785824776 0.9671060443 0.3381389081
-3.758451462 0.9615100622 0.4712034464
-3.740290403 0.95756042 0.6048272252
-3.747936249 0.9609110355 0.7438362837
-3.558354855 0.9129680991 0.8381642103
-3.741216183 0.9612758756 1.023422599
-2.370842457 0.6122583151 -0.6445114613
-2.522701502 0.652415216 -0.5916178823
-2.584342003 0.6693182588 -0.5106676817
-3.473549366 0.9002618194 -0.5616513491
-3.484150648 0.9043073654 -0.4368363023
-3.494421482 0.9082742333 -0.3121664822
-3.485046864 0.9071371555 -0.1865264922
-3.506456137 0.9133624434 -0.06254762411
-3.845082521 0.9936893582 0.06862106174
-3.658396482 0.946806252 0.1958422959
-3.79031229 0.9816523194 0.3388361633
-3.755242109 0.9739684463 0.4712034464
-3.723541498 0.9671346545 0.6026371717
-3.731258631 0.9705293775 0.7411649227
-3.547602892 0.9234200716 0.8363646269
-3.741576195 0.9753047824 1.024457812
-2.353632689 0.6170252562 -0.640370369
-2.531602383 0.6646254063 -0.5943172574
-2.572377443 0.6762899756 -0.5087596178
-3.470226765 0.9129862189 -0.5616513491
-3.47697401 0.9160590768 -0.4363488257
-3.487215996 0.9200602174 -0.3118178546
-3.479767561 0.9193943143 -0.1864218116
-3.479885578 0.9200751185 -0.06212876737
-3.841414452 1.007775784 0.06862106174
-3.658765078 0.9612244964 0.1960516423
-3.7943964 0.9975643158 0.3395333886
-3.784281254 0.9963183999 0.4753470123
-3.723791838 0.9817819595 0.6032629013
-3.788419485 1.000235319 0.7533767223
-3.546078444 0.9369143844 0.8368145227
-3.737976551 0.9890109897 1.024457812
-2.343888044 0.6236601472 -0.6382998228
-2.536681652 0.6759067178 -0.5961169004
-2.577589035 0.6872884631 -0.5102860332
-3.459222794 0.9236606956 -0.5603998303
-3.471837044 0.9276780486 -0.4361050725
-3.466661215 0.9275915027 -0.3102490604
-3.486183167 0.934120059 -0.1869451702
-3.476652622 0.932215929 -0.06212876737
-3.841559649 1.022877574 0.06869087368
-3.663107395 0.9760463238 0.1964703351
-3.775313854 1.007356644 0.3381389081
-3.771015406 1.007618785 0.4741283059
-3.726067066 0.9963062406 0.6042014956
-3.784904957 1.013453484 0.7533767223
-3.557845116 0.9533218145 0.8404137492
-3.723306179 0.9990491867 1.021352053
-2.341807127 0.6314294338 -0.6382998228
-2.538188934 0.685330987 -0.5970166922
-2.579086065 0.6968564987 -0.5110492706
-3.452327251 0.9340951443 -0.5597741008
-3.484070539 0.9433364272 -0.4380549788
-3.467411995 0.9401251674 -0.310597688
-3.473428726 0.9430590272 -0.1864218116
-3.471612692 0.9432165027 -0.06209386885
-3.826562643 1.032485604 0.06848144531
-3.652137518 0.9861058593 0.1960516423
-3.777722836 1.021429777 0.3386618197
-3.767653227 1.020118475 0.4741283059
-3.728462696 1.010205746 0.60514009
-3.766365051 1.021886587 0.7503237724
-3.558425188 0.9661362171 0.8413135409
-3.723701239 1.012404323 1.022387266
-2.339700222 0.6391917467 -0.6382998228
-2.520864964 0.6896305084 -0.5934174657
-2.576761007 0.7054052949 -0.5110492706
-3.445400476 0.9444939494 -0.5591483712
-3.467356443 0.9518141747 -0.4363488257
-3.473714828 0.9548634887 -0.3114692271
-3.454876661 0.9503337741 -0.1855844408
-3.81926012 1.044114709 0.06841164082
-3.664083958 1.003067136 0.1968890131
-3.780079603 1.035530806 0.339184761
-3.756592274 1.030506492 0.4731533825
-3.728723526 1.024261117 0.6057658792
-3.793244123 1.042696476 0.7564296722
-3.545636892 0.9759657979 0.839064002
-3.727594137 1.027449846 1.024457812
-2.350373507 0.6513739228 -0.6419233084
-2.522197962 0.699467361 -0.5943172574
-2.570375204 0.7137937546 -0.5102860332
-3.443818808 0.9576448798 -0.559461236
-3.464012861 0.9639126062 -0.4363488257
-3.474199057 0.9680528641 -0.3118178546
-3.459065437 0.9651373029 -0.1860031337
-3.463017225 0.9668912888 -0.06205896288
-3.819446564 1.058507442 0.06848144531
-3.647088766 1.012112617 0.1961563081
-3.797374964 1.055246592 0.3411021829
-3.745321989 1.041485786 0.4721783996
-3.72702837 1.037800431 0.6060786843
-3.80074358 1.059757233 0.7587193847
-3.530774593 0.9858095646 0.8363646269
-3.725845337 1.040976167 1.024975538
-2.333206415 0.6553954482 -0.6377821565
-2.528997421 0.7113447785 -0.5965667963
-2.5621984 0.7211665511 -0.5091412067
-3.446158886 0.9712671041 -0.5603998303
-3.437531233 0.9701315761 -0.4334239662
-3.443955421 0.9725927711 -0.3093775213
-3.457597733 0.9777494073 -0.1861078143
-3.819390774 1.073582411 0.06855125725
-3.6452775 1.026014328 0.1962609887
-3.789832592 1.067415237 0.3407535553
-3.756764412 1.059516907 0.4741283059
-3.717496395 1.049842238 0.60514009
-3.78190732 1.068745971 0.7556664944
-3.538562059 1.001312733 0.839064002
-3.712711573 1.051990986 1.022387266
-2.323472261 0.6614202261 -0.6357116699
-2.543365717 0.7249761224 -0.6006159186
-2.555889368 0.7290289998 -0.5083779693
-3.437049389 0.9816640019 -0.559461236
-3.447484016 0.9859449267 -0.4351301193
-3.455863237 0.9889947772 -0.3107720017
-3.471442938 0.9947644472 -0.1870498508
-3.457931757 0.9921989441 -0.06209386885
-3.647435427 1.040376067 0.1965750009
-3.694121838 1.054388762 0.3323866129
-3.701508999 1.05789566 0.4675473869
-3.713808775 1.062813282 0.60514009
-3.753617287 1.074914336 0.7507053614
-3.540665388 1.015269279 0.8404137492
-3.679307938 1.056414366 1.014105082
-2.321149588 0.6695261598 -0.6357116699
-2.538947105 0.7333096266 -0.6001659632
-2.56653142 0.7417613268 -0.5110492706
-3.513297319 1.016718864 -0.5726017356
-3.537447453 1.025045156 -0.4470733404
-3.52319169 1.02158165 -0.3172215223
-3.521654844 1.022468686 -0.1899806708
-3.54679656 1.030439496 -0.06376929581
-3.646574259 1.052528858 0.06554944068
-3.645884275 1.05302 0.1966796666
-3.749751568 1.084436655 0.3377902806
-3.718767881 1.07688272 0.4702284932
-3.695086002 1.07072401 0.6026371717
-3.746071577 1.086916327 0.7499421835
-3.553942442 1.032515526 0.8444628716
-3.685059547 1.07130599 1.016693354
-2.329924107 0.6808757782 -0.6388174891
-2.530890226 0.7400843501 -0.5988163352
-2.575231791 0.7540259361 -0.5133389831
-3.511802197 1.028919458 -0.5729146004
-3.522599936 1.033417344 -0.4456108809
-3.536809206 1.038927555 -0.3187903166
-3.53357482 1.038646579 -0.1908180416
-3.539341211 1.041684747 -0.06369948387
-3.615350008 1.05788672 0.1952142566
-3.617837906 1.059986711 0.3261114061
-3.593261719 1.053467035 0.4546292126
-3.681848764 1.080834627 0.6010728478
-3.599287748 1.05728054 0.720939219
-3.53554225 1.03989625 0.8408636451
-3.633115768 1.069972157 1.003234744
-2.34247303 0.692982614 -0.6429585218
-2.537634134 0.751681149 -0.6010658145
-2.584011078 0.7659092546 -0.5156286955
-3.419183493 1.014756322 -0.5582097769
-3.467594147 1.030440807 -0.4390299618
-3.512337208 1.044403911 -0.3168728948
-3.501214266 1.042426825 -0.1892479658
-3.518619537 1.048277497 -0.06338534504
-3.591389418 1.063135862 0.06467682123
-3.51607132 1.041507363 0.1899806708
-3.429019213 1.017023444 0.3092031777
-3.389753103 1.006664753 0.4290366769
-3.494570494 1.038457274 0.5707244873
-3.411166191 1.01496768 0.6835406423
-3.511347055 1.046110749 0.835914731
-3.381468296 1.008058667 0.93387115
-2.526947021 0.7571589351 -0.6952400208
-2.53699398 0.7606518269 -0.6015157104
-2.568159342 0.7709730268 -0.5129573345
-3.394989014 1.019837856 -0.5547682047
-3.399525166 1.022493482 -0.43074283
-3.398020744 1.023334384 -0.3067628443
-3.390648842 1.021759748 -0.1833863407
-3.348381996 1.010297775 -0.06034862623
-3.603168249 1.079631329 0.06495606154
-3.357460022 1.007285953 0.1815022379
-3.278519869 0.9848511219 0.2957811952
-3.257123232 0.9790426493 0.4124624133
-3.345273972 1.006813526 0.5466336012
-3.278071404 0.987210989 0.6572089791
-3.463080406 1.044247031 0.8251171112
-3.239223957 0.9779794812 0.8950483799
-2.526270866 0.7660951018 -0.6957576275
-2.552969933 0.7751648426 -0.6060147285
-2.563574314 0.779361248 -0.5125757456
-3.404637814 1.035706043 -0.5569583178
-3.403530836 1.036668301 -0.4317177832
-3.308669567 1.009036064 -0.2989188135
-3.241705894 0.9898512363 -0.1754312664
