# .PCD v0.7 - Point Cloud Data file format
VERSION 0.7
FIELDS x y z
SIZE 4 4 4
TYPE F F F
COUNT 1 1 1
WIDTH 1277
HEIGHT 1
VIEWPOINT 0 0 0 1 0 0 0
POINTS 1277
DATA ascii
8.588197708 -0.1034307033 -1.661245942
8.733843803 0.1997227073 0.4556379914
8.744697571 0.1862288862 -0.1519737542
8.743227005 0.2457521409 -0.1519737542
8.744978905 0.1724933535 0.1519737542
8.639350891 0.009045054205 1.361657262
8.741602898 0.2319616228 0.1519388556
8.580024719 -0.2891262174 1.660482764
8.581833839 -0.2292197943 1.660482764
8.578907013 -0.3205716312 1.660482764
7.616422653 4.073628902 1.361344457
8.740034103 0.2151303589 -0.1519039571
8.740361214 0.2014020979 0.1519039571
8.663417816 0.4934632778 1.060319901
8.708937645 0.04560434073 0.7582296133
8.739530563 0.1418710947 0.1518690437
8.709043503 0.01520187687 0.7582296133
8.708724976 0.0759979412 0.7582296133
8.573812485 -0.3503553569 1.659719586
8.633340836 0.03917736933 1.360718727
8.726500511 0.1690817624 0.4552193284
8.611937523 1.031487346 -1.059832454
8.704422951 0.1063502431 0.7578809857
7.660032272 4.06434536 -1.059588671
8.723796844 0.07765624672 0.4550099373
8.733297348 0.1554913074 -0.1517643183
8.199511528 2.509976625 -1.6585747
8.720136642 0.1872283816 -0.4549052715
7.686877728 4.076865196 -0.7575323582
7.669734001 4.109026432 0.7575323582
8.701073647 -0.01518625207 0.7575323582
7.717644691 4.08628273 -0.1517294198
8.720708847 0.1583120823 -0.4549052715
8.570975304 -0.1915092766 -1.658193111
8.571591377 -0.1615898311 -1.658193111
8.719049454 0.1384945214 0.4548006058
8.719479561 0.1080603376 0.4548006058
7.530333042 4.093742371 1.657811522
8.656072617 0.4051847756 1.058857441
8.596268654 1.093582034 -1.058857441
8.620301247 1.153255701 -0.7571837306
8.727974892 0.1112083942 0.1516596228
8.717607498 0.0973815769 -0.45469594
8.566368103 -0.2198298723 -1.657429934
8.621425629 -0.05116117001 1.358841538
8.652697563 0.433785975 1.058613777
8.651130676 0.4639850557 1.058613777
7.45703125 3.934974909 -2.247636795
8.653467178 0.3747928441 1.058369994
8.713220596 0.1277507246 -0.4544866085
7.479288101 4.044035435 -1.953021646
8.550971985 -0.4945433438 1.656666517
8.554063797 -0.437820673 1.656666517
8.555468559 -0.4094519913 1.656666517
8.556845665 -0.3795853257 1.656666517
8.617243767 -0.08121800423 1.35821569
8.552564621 -0.4661845565 1.656666517
8.617600441 -0.02105681412 1.35821569
8.616926193 -0.109793365 1.35821569
8.618150711 1.123888016 -0.7566607594
8.712031364 0.04713687673 0.4543819129
8.709905624 0.06688717753 -0.4542772472
8.612541199 -0.1398072839 1.35758996
8.717792511 0.1247742102 -0.1514850855
8.718312263 0.08064659685 0.1514850855
7.694554329 4.077496052 -0.4541725814
8.718450546 0.06391366571 -0.1514850855
8.7186203 0.03347788006 -0.1514850855
8.68502903 -0.04547511786 0.7561378479
8.55522728 0.9671846628 -1.356964231
7.627584457 4.083023548 1.057151318
8.614115715 1.092801213 -0.7559635639
8.714175224 0.09430123866 -0.1514152884
8.584458351 1.060123324 -1.056907654
8.680516243 -0.1060577855 0.7557892799
8.680092812 -0.1363577843 0.7557892799
8.680832863 -0.07575648278 0.7557892799
8.71254158 0.05018494651 0.1513803899
8.67543602 0.8047997355 0.1513803899
8.531270981 -0.616019249 1.654376984
7.624798775 4.079815865 -1.056663871
8.710664749 0.01976534352 0.1513454765
8.710680008 -0.01064210851 0.1513454765
7.453148365 4.063590527 -1.949872375
7.680746555 4.082210064 0.453649193
8.708684921 0.003042351454 -0.1513105631
8.52945137 -0.5859665871 1.653613687
8.533242226 -0.5278953314 1.653613687
8.696170807 -0.01365992241 0.4535445571
7.385107994 4.028166294 -2.242460251
8.608175278 1.060006022 -0.7550919652
8.671624184 -0.1649896652 0.7550919652
8.527527809 -0.5559342504 1.652850509
8.521237373 -0.6452022791 1.652850509
8.596230507 -0.1680578291 1.355087042
8.692171097 0.01668941043 0.4533352256
8.691868782 -0.07433565706 0.4533352256
7.492610455 4.105485916 1.65246892
8.690156937 -0.02426755615 -0.4532305598
8.507621765 -0.7622784376 1.652087331
7.5639081 4.079559326 1.354461312
8.688081741 -0.04397470877 0.4531258941
8.588075638 -0.2578885853 1.354148388
8.626953125 0.3434763849 1.054957628
7.671580791 4.096245766 -0.1511011273
8.696591377 -0.04098202288 0.1511011273
7.678005219 4.084190845 0.1511011273
8.686192513 0.006066364702 -0.4530211687
8.686118126 0.03638910875 -0.4530211687
8.686022758 -0.05457660556 -0.4530211687
8.628137589 0.2515594363 1.054713845
8.626171112 0.3117849231 1.054713845
8.627206802 0.2816697955 1.054713845
8.683585167 -0.1030637175 0.452916503
8.584974289 -0.2278042436 1.353522658
8.585716248 -0.1978356987 1.353522658
8.659044266 -0.1949891448 0.7540460825
8.681785583 -0.08485712111 -0.4528118372
8.50730896 -0.6725277901 1.650560737
8.502533913 -0.7304190993 1.650560737
8.690498352 -0.05763841048 -0.1509964317
8.690646172 -0.02730255947 -0.1509964317
8.65259552 -0.2840125263 0.7536975145
7.616779327 4.114941597 0.7536975145
8.653533936 -0.2538076043 0.7536975145
8.623008728 0.2212850004 1.053982735
8.330662727 -2.431322098 -0.4526025057
8.50099659 -0.7018966079 1.649797559
8.493041992 -0.7923611403 1.649797559
8.577252388 -0.2875341177 1.352584124
8.685203552 -0.1606988311 0.1509266198
8.685905457 -0.1167372242 -0.1509266198
8.650383949 -0.2234966755 0.753348887
8.684398651 -0.07124012709 0.1508917212
8.477404594 -0.9089662433 1.649034142
8.669361115 -0.2224728614 0.4522884786
7.585333824 4.094538689 1.053251386
8.682244301 -0.08789257705 -0.1508567929
8.191719055 2.538892746 -1.35164547
8.643531799 -0.3154333234 0.7530002594
8.679713249 -0.1302908063 0.1508218944
8.68009758 -0.1015071273 0.1508218944
7.641805649 4.095785141 0.4521838129
8.226316452 -1.973445535 1.943123817
8.470277786 -0.9381201863 1.648270965
8.564508438 -0.4068882465 1.351332545
7.582557678 4.091326237 -1.052763939
8.677447319 -0.1469205618 -0.1507869959
8.666090012 -0.1921212524 0.4520791471
7.645044327 4.085501671 -0.4520791471
8.665460587 -0.1149497554 -0.4519744813
8.475730896 -0.8489785194 1.647507787
8.472868919 -0.8770804405 1.647507787
8.452642441 -1.054330468 1.647507787
8.478499413 -0.8208673 1.647507787
8.564352036 -0.3170340955 1.350706935
8.561863899 -0.3783106804 1.350706935
7.621649742 4.076425076 -0.7524773479
8.662714958 -0.1617951989 0.4518698156
8.213698387 -2.000764847 1.941774249
8.247364998 -1.857111454 1.941774249
8.56115818 -0.3483415544 1.350394011
8.630402565 -0.4341770411 0.7523030639
8.660484314 -0.1738504022 -0.4517651498
8.659859657 -0.2025686204 -0.4517651498
8.60586834 0.1907895952 1.051789165
8.606966972 0.1322026551 1.051789165
8.202878952 -2.028487921 1.940874338
8.62917614 -0.3752490282 0.7519543767
8.627813339 -0.4053681791 0.7519543767
8.654556274 -0.2523257732 0.4515557587
8.666915894 -0.1754927784 -0.1506124735
8.657043457 -0.1435523778 -0.4515557587
8.657212257 -0.1329756975 0.4515557587
8.551275253 -0.4346851707 1.349455357
8.663480759 -0.235940069 -0.1505775601
8.664629936 -0.1890629083 0.1505775601
8.24618721 -1.826625705 1.939974546
8.21987915 -1.941582441 1.939974546
8.276515961 -1.683876157 1.939974546
8.620956421 -0.4623672664 0.7516057491
8.626451492 -0.3449660838 0.7516057491
7.63550806 4.095841408 0.1505426615
8.651112556 -0.232581228 -0.4513464272
8.451347351 -0.9658978581 1.645218134
8.437415123 -1.080857754 1.645218134
8.285666466 -1.925086379 1.645218134
8.421082497 -1.201496601 1.645218134
8.44792366 -0.9953926802 1.645218134
8.425429344 -1.170623899 1.645218134
8.444576263 -1.023401499 1.645218134
8.598514557 0.1620984077 1.050814152
8.658606529 -0.2660569847 -0.150507763
8.248391151 -1.79843998 1.939074874
8.222476006 -1.913430214 1.939074874
7.443864822 4.112628937 1.644836545
8.182079315 2.503074646 -1.348516822
8.658254623 -0.2055550665 -0.1504728645
8.452340126 1.317560673 -1.348204017
8.275415421 -1.951650739 1.644454956
8.653152466 -0.309735477 0.1504379511
8.225963593 -1.880975366 1.938174844
8.262954712 -1.711175561 1.938174844
7.941905022 2.851435423 1.938174844
8.53834343 -0.4908225834 1.347890973
7.513177395 4.086119652 1.347890973
7.611395359 4.101742744 -0.4509277344
8.366810799 -1.490355849 1.64369154
8.340096474 -1.633238792 1.64369154
8.537951469 -0.4623988867 1.347578168
8.396186829 -1.314807773 1.64369154
8.285340309 -1.891509533 1.64369154
7.546588898 4.107699871 1.049839139
8.591495514 0.1019753516 1.049839139
8.65192318 -0.2190033495 0.1503681391
8.287456512 -1.567429423 1.937275171
8.177752495 2.064735651 1.937275171
8.466000557 -0.7198387384 -1.643309951
8.183634758 2.470787048 -1.347265244
8.576044083 -0.4914881289 -1.049595356
8.601631165 -0.5833839178 0.7505598664
8.637302399 -0.2925655544 -0.4507184029
7.571593761 4.123027802 0.7505598664
8.647632599 -0.2959375381 -0.1503332257
7.618499279 4.102144718 -0.1503332257
8.421913147 -1.10876596 1.642928362
8.41779232 -1.139626265 1.642928362
8.382929802 -1.372757435 1.642928362
8.387670517 -1.343487024 1.642928362
8.341611862 -1.604831338 1.642928362
8.405396461 -1.227712989 1.642928362
8.461480141 -0.7492130995 -1.642928362
8.528505325 -0.554503262 1.346952438
8.63565731 -0.281947732 0.4506137371
8.647108078 -0.2490876913 0.1502983272
8.646185875 -0.2792702019 0.1502983272
8.288778305 -1.53922689 1.93637538
8.267056465 -1.651920795 1.93637538
8.601425171 -0.5245788693 0.7502112985
8.63099575 -0.354200989 -0.4505090714
8.631422043 -0.3436559737 0.4505090714
8.630169868 -0.3737831712 0.4505090714
8.179238319 2.034764051 1.935925484
8.39274025 -1.285768747 1.642165184
8.364227295 -1.459791303 1.642165184
8.353832245 -1.518148661 1.642165184
8.397176743 -1.256464839 1.642165184
8.567967415 -0.527041316 -1.048864245
8.639970779 -0.3409756422 0.1502285302
8.630628586 -0.311945796 0.4504044056
7.597591877 4.106293678 0.4504044056
8.290266037 -1.509586215 1.935475707
8.268947601 -1.622302771 1.935475707
8.524475098 -0.5243660212 1.346013904
8.581874847 0.07189937681 1.048620462
8.595565796 -0.5543438196 0.7498626709
8.625717163 -0.3841488957 -0.4502997398
8.59948349 -0.4898197949 0.7498626709
8.591592789 -0.6128386855 0.7498626709
8.630285263 -0.2621714175 -0.4502997398
8.628188133 -0.3239211738 -0.4502997398
8.246328354 -2.005664349 1.641401887
8.33917141 -1.575702786 1.641401887
8.253278732 -1.976866841 1.641401887
8.316947937 -1.689079046 1.641401887
8.562210083 -0.5551939011 -1.048376679
8.630534172 -0.4583491385 0.1501587033
8.313873291 -2.32283926 0.4501950443
8.270731926 -1.592692018 1.934575677
8.18061161 2.00481081 1.934575677
7.577562809 4.086924076 -0.7495139837
8.620903015 -0.4020276368 0.4500903785
8.630673409 -0.4160708189 -0.1501238048
8.63330555 -0.3573144674 -0.1501238048
8.63455677 -0.3256694078 -0.1501238048
8.340760231 -1.545868516 1.640638709
8.361530304 -1.429262638 1.640638709
8.36646843 -1.400066614 1.640638709
8.51469326 -0.5834596157 1.34507525
8.576371193 -0.7307309508 0.7493396997
8.533985138 -1.340964556 -0.1500889063
8.070012093 2.398113489 1.933676004
8.302846909 -1.392399549 1.933676004
8.062015533 2.424859762 1.933676004
8.287810326 -1.479268909 1.933676004
8.297935486 -1.421373367 1.933676004
8.62801075 -0.3872688711 -0.1500539929
8.530014992 -0.8499051332 -1.047401786
8.624017715 -0.4293290079 0.1500190943
8.625393867 -0.4007284045 0.1500190943
8.57946682 -0.6420816779 0.7489911318
8.289085388 -1.449658751 1.932776213
8.282962799 -1.802949309 1.639493942
8.621257782 -0.4442772269 -0.1499841958
7.526379585 4.095001698 -1.04691422
8.62274456 -0.3704460263 0.1499492675
8.579356194 -0.5878905654 -0.7486424446
8.570925713 -0.7001405358 0.7486424446
8.573200226 -0.6717144847 0.7486424446
8.299963951 -1.362146258 1.931876302
8.169065475 2.436861038 -1.343510866
8.566192627 0.04186271131 1.046670556
8.566161156 -0.04784296826 1.046670556
8.607553482 -0.430015415 0.4494623244
8.602487564 -0.5216297507 0.4494623244
8.608363152 -0.4134893417 -0.4494623244
8.156056404 -2.047146559 1.931426406
8.416710854 1.340609074 -1.343197942
8.542284966 -0.613817215 -1.046426773
8.564291 -0.01793703437 1.046426773
8.54437542 -0.5839952826 -1.046426773
8.579182625 -0.5292342305 -0.748293817
7.581291199 4.116303921 -0.1498794705
8.561992645 -0.7581128478 0.748293817
8.612994194 -0.4860651195 0.1498794705
8.269269943 -1.828710914 1.637967348
8.498813629 -0.6121844649 1.342885137
8.293697357 -1.714523196 1.637967348
7.422918797 4.077411175 -1.637967348
8.492180824 -0.698184371 1.342885137
7.532704353 4.13601017 0.7481195331
8.602091789 -0.4583442211 0.4492529929
8.599836349 -0.4988753796 -0.4492529929
8.602955818 -0.4418285489 -0.4492529929
8.601443291 -0.470354557 -0.4492529929
8.596628189 -0.5513991117 0.4492529929
8.600523949 -0.486867249 0.4492529929
8.487724304 -0.7276546359 1.342572331
8.426381111 1.251814365 -1.342572331
8.546609879 -0.8771761656 0.7479452491
8.296972275 -1.33193028 1.930076838
8.310247421 -1.246423602 1.930076838
8.492797852 -0.6400673389 1.342259407
8.490510941 -0.6697087884 1.342259407
8.558002472 -0.07767209411 1.045695662
8.604064941 -0.5352915525 -0.14977476
8.546894073 -0.8546001315 -0.7477709055
7.520308971 3.993569136 -1.341946602
8.399597168 1.396568894 -1.341946602
8.569331169 -0.5586595535 -0.7475966215
8.588674545 -0.5809992552 0.4489390254
8.604147911 -0.5006322265 -0.1497398615
7.580711365 4.100584984 0.1497398615
8.496464729 -1.233443022 0.7474222779
8.60376358 -0.4719875753 -0.1497049481
8.589790344 -0.5328984857 -0.4488343
8.414148331 1.280030131 -1.341320753
8.552391052 0.01194326114 1.044964314
8.544305801 -0.8197129965 0.7472479343
8.597226143 -0.5484241843 0.1496700346
8.580535889 -0.6391497254 0.4487296343
8.541540146 -0.8480424881 0.7472479343
8.596157074 -0.5649286509 -0.1496700346
8.593187332 -0.6084302068 0.1496700346
8.595258713 -0.5784308314 0.1496700346
8.298141479 -1.274240971 1.928277135
8.293869972 -1.301751614 1.928277135
8.55936718 -0.6165462732 -0.7470736504
8.577643394 -0.6509786844 -0.4486249685
8.385635376 -1.43187654 1.340695024
8.396621704 1.365977526 -1.340695024
8.473326683 -0.7562242746 1.340695024
8.590144157 -0.5946552157 -0.1496002376
8.531450272 -0.9072310925 0.7468993664
8.54328537 -0.7880250216 0.7468993664
8.595005989 -0.5196704268 0.1496002376
8.587023735 -0.6381260753 0.1496002376
8.565324783 -0.4938735068 -0.7468993664
7.384874344 4.113742352 1.634914398
7.457299709 4.08952713 1.340382218
8.49150753 -0.9674850106 -1.044233203
8.526250839 -0.9367883801 0.7467250824
7.535962582 4.096802711 -0.7467250824
8.572278976 -0.6686316729 0.448415637
8.415060043 1.220127225 -1.340069413
8.458012581 -0.8740505576 1.340069413
8.445846558 0.9846874475 -1.340069413
8.156679153 2.40218997 -1.340069413
7.491155624 4.109789371 1.04398942
8.27112484 -2.342051506 0.4483109713
7.548141003 4.113668919 0.4483109713
8.299121857 -1.215149045 1.926477432
8.461798668 -0.8162690997 1.33975637
8.469780922 -1.112060189 -1.043745637
8.484134674 -0.9966567159 -1.043745637
8.541799545 -0.1073450595 1.043745637
8.576018333 -0.560598731 -0.4482062757
8.571895599 -0.6204564571 -0.4482062757
8.574008942 -0.5905311704 -0.4482062757
8.462630272 -0.7865442038 1.339443564
8.415354729 1.190194249 -1.339443564
8.457079887 -0.8441288471 1.339443564
8.488912582 -0.9371846318 -1.043501854
8.564043045 -0.6965689659 0.4481016099
8.572153091 -0.7243440151 0.1494606137
8.536306381 -0.1937158704 1.04325819
8.536901474 -0.1654073894 1.04325819
8.535577774 -0.223511979 1.04325819
8.469672203 -1.081985116 -1.04325819
8.575926781 -0.6523538232 -0.1494257003
8.573596954 -0.682285428 -0.1494257003
8.568754196 -0.7406278253 -0.1494257003
8.571287155 -0.7107127309 -0.1494257003
8.563490868 -0.678473115 -0.4479969442
8.56866169 -0.6096998453 0.4479969442
8.089691162 2.193373442 1.925127745
8.555589676 -0.8599941134 -0.1493908018
8.576048851 -0.6237664223 -0.1493908018
8.565588951 -0.753911376 0.1493908018
8.572897911 -0.665669322 0.1493908018
8.562767982 -0.7853007913 0.1493908018
8.552163124 -0.7873386145 0.4478922784
8.337945938 -0.8366471529 1.924677968
8.307743073 -1.096685529 1.924677968
8.438415527 -0.9629278183 1.33850503
8.435175896 -0.9909053445 1.33850503
8.408447266 -1.196699262 1.33850503
8.495243073 -0.8179988861 1.042770743
8.472900391 -1.023833156 -1.042770743
7.493821144 4.148763657 0.7456791997
8.439339638 -1.465312481 0.7456791997
8.480782509 -1.202463984 0.7456791997
8.493297577 -1.110624313 0.7456791997
8.197818756 -1.727551341 1.924228072
8.15322113 2.371815443 -1.338192105
8.429703712 -1.020106196 1.338192105
8.371052742 1.423370123 -1.338192105
8.53147316 -0.1355124861 1.04252696
8.511733055 -0.9412077069 -0.7455048561
8.545387268 -0.8168064356 0.4476829469
8.56653595 -0.695266664 0.1493210047
8.291532516 -1.185966134 1.923778176
8.299806595 -1.126603484 1.923778176
8.232190132 -1.850675464 1.631861567
8.492981911 -1.081950068 0.7453305721
8.320858002 -2.016102314 0.7453305721
8.516114235 -0.8815570474 -0.7453305721
8.545090675 -0.7987213731 -0.4475782812
8.435833931 -0.9328149557 1.337566257
8.260974884 -1.946723104 1.337566257
8.355985641 -1.486923218 1.337566257
8.538656235 -0.8447461724 0.4474735558
8.55328083 -0.8009928465 -0.1492511779
8.54703331 -0.7552849054 0.4474735558
7.244720936 4.050602436 -2.212437153
8.186021805 -1.754930854 1.922878265
8.303789139 -1.066686273 1.922878265
7.426410675 4.104672909 1.337253451
8.34431076 -1.898844004 0.744981885
8.404934883 -1.609409094 0.744981885
8.46139431 -1.052422762 -1.041795731
8.337294579 -1.929414749 0.744981885
8.375872612 -1.754388571 0.744981885
8.369697571 -1.783614993 0.744981885
8.547628403 -0.7252767682 0.44736889
8.546735764 -0.7357190847 -0.44736889
8.543981552 -0.7670395374 -0.44736889
8.548441887 -0.8306509852 -0.1492162794
8.410918236 -1.105825067 1.336940646
8.473291397 -0.9339631796 1.041552067
8.512657166 -1.125247359 -0.149181366
8.493497849 -1.029330373 -0.744807601
8.288103104 -1.154492855 1.921978474
8.344913483 -1.515023351 1.336627722
8.151955605 2.340616941 -1.336627722
8.433302879 -0.9012601972 1.336627722
8.241423607 -2.002948284 1.336627722
8.320093155 -1.985195041 0.744633317
8.296085358 -1.951940656 1.041308284
8.454108238 -1.078497291 1.041308284
8.45158577 -1.317438483 0.744633317
8.422402382 -1.492676377 0.744633317
8.438016891 -1.197902799 1.041308284
8.480630875 -0.8449847102 1.041308284
8.395640373 -1.636509776 0.744633317
8.346999168 -1.868834853 0.744633317
8.55018425 -0.769100666 -0.1491464674
8.545146942 -0.7070436478 -0.4471595585
8.059556007 2.244205475 1.921528578
8.265034676 -1.648516655 1.629953384
8.414512634 -1.04659152 1.336314917
8.466034889 -0.963086009 1.04106462
8.472709656 -0.9024802446 1.04106462
8.513713837 -0.3434343934 1.04106462
8.493082047 -0.9992107153 -0.744459033
8.496518135 -0.9695581198 -0.744459033
8.538312912 -0.8718072176 0.1491115689
8.524605751 -0.9034941196 0.4470548928
8.536623001 -0.8881980181 -0.1491115689
8.535217285 -0.9016060829 0.1491115689
8.30642128 -0.9816596508 1.921078801
8.302138329 -1.714757204 1.336002111
8.244524002 -1.973248601 1.336002111
8.361356735 -1.397711158 1.336002111
8.408848763 -1.07570684 1.336002111
8.374140739 -1.723534107 0.7442846894
8.428689957 -1.43317306 0.7442846894
8.355632782 -1.811131716 0.7442846894
7.497155666 4.109677315 -0.7442846894
8.349259377 -1.840287209 0.7442846894
8.322751045 -1.956681848 0.7442846894
8.517837524 -1.036805868 -0.1490766704
8.500697136 -1.090472341 -0.446950227
8.452569962 -1.415991902 -0.446950227
8.530322075 -0.8273876309 -0.446950227
8.439709663 0.7769859433 -1.335689187
8.323330879 -1.598301768 1.335689187
8.275777817 -1.828635216 1.335689187
8.328584671 -1.570691586 1.335689187
7.467503548 4.095122814 -1.040577173
8.405899048 -1.550354838 0.7441104054
8.47170639 -0.873971343 -1.040577173
8.510948181 -0.3120822906 1.040577173
8.39061451 -1.459869981 1.040577173
8.526075363 -0.9488192201 -0.149041757
8.523735046 -0.8733251095 0.4468455613
8.539926529 -0.8147804141 0.149041757
8.455303192 -1.449848294 -0.149041757
7.52477932 4.119697571 -0.149041757
8.527880669 -0.9324486256 0.149041757
8.5227108 -0.9785749912 -0.149041757
8.537177086 -0.8430953622 0.149041757
8.299250603 -1.0087291 1.920178771
8.310159683 0.9145132899 -1.920178771
8.26774025 -1.855635762 1.335376263
8.261212349 -1.884484291 1.335376263
8.442419052 -1.10696876 1.040333271
8.398643494 -1.400930643 1.040333271
8.51093483 -0.2525986433 1.040333271
8.425926208 -1.226206183 1.040333271
8.398476601 -1.579319119 0.7439360023
8.514133453 -0.9444816709 -0.4467408657
8.527505875 -0.9173491597 -0.1490068436
8.293745995 -1.03745079 1.919728994
8.059437752 2.215398312 1.919728994
7.857297897 2.850506544 1.919728994
8.15017128 2.310878754 -1.335063338
8.374198914 -1.279936671 1.335063338
8.302265167 -1.684588313 1.335063338
8.329862595 -1.542345047 1.335063338
8.447789192 -1.049233317 1.040089607
8.504530907 -0.3728030026 1.040089607
8.451399803 -1.019738555 1.040089607
8.454734802 -0.9917072058 1.040089607
8.50801754 -0.2822400331 1.040089607
8.446284294 -1.286429167 0.7437617183
8.50463295 -1.093994975 -0.148971945
8.495155334 -0.9093698263 -0.7437617183
8.478175163 -1.056012511 -0.7437617183
8.51024437 -1.049449921 0.148971945
8.422581673 -1.551911831 0.4466362
8.407337189 -1.520294189 0.7437617183
8.302052498 -0.9517710209 1.919279099
7.339655876 4.122191906 1.628045321
8.231611252 -1.761699438 1.628045321
8.288369179 -1.742101073 1.334750533
8.3807621 -1.222620845 1.334750533
8.376442909 -1.251867771 1.334750533
8.37960434 -1.488108397 1.039845824
8.290909767 -1.921729684 1.039845824
8.513407707 -0.9143295288 -0.4465315342
8.32891655 -1.985763907 0.4465315342
8.516701698 -0.8831201792 -0.4465315342
8.372293472 -1.692712903 0.7435874343
8.37815094 -1.663477898 0.7435874343
8.496338844 -1.061286926 -0.4465315342
8.503365517 -1.003430009 -0.4465315342
8.486356735 -1.138352394 0.4465315342
8.303387642 -0.9225704074 1.918829203
8.318223953 -0.7775158286 1.918829203
8.388149261 1.156493068 -1.334437728
8.274388313 -1.798058033 1.334437728
8.275707245 -1.977657914 1.03960216
8.387832642 -1.429238677 1.03960216
8.339389801 -1.689090729 1.03960216
8.345234871 -1.659970522 1.03960216
8.466646194 -1.114655137 -0.7434131503
8.426371574 -1.566299438 -0.1489021331
8.421131134 -1.594233751 -0.1489021331
8.471779823 -1.228349566 0.4464268684
8.319992065 -2.014354944 0.4464268684
7.871008396 2.795004845 1.918379307
7.434704781 4.04848671 -1.334124804
8.246553421 -1.912965059 1.334124804
8.385180473 -1.163539886 1.334124804
8.370451927 -1.516641855 1.039358377
8.430436134 -1.136843324 -1.039358377
8.313053131 -1.804940701 1.039358377
8.331908226 -1.955765486 0.4463222027
8.514637947 -0.9610892534 0.1488672346
8.358402252 -1.839243293 0.4463222027
8.502446175 -1.06355679 -0.1488672346
8.352256775 -1.866950512 0.4463222027
8.41177845 -1.254146934 1.039114714
8.509245872 -0.9905738831 0.1488323361
8.466532707 -1.084587812 -0.7430645227
7.498726845 4.120756149 0.4462175369
8.435552597 -1.432825089 0.4462175369
8.500864029 -0.9730601311 -0.4462175369
8.505913734 -1.018786073 0.1488323361
8.438371658 -1.477285028 -0.1488323361
7.211053848 4.06321907 -2.206225395
8.309638977 -0.8059827089 1.917479396
8.304130554 -1.624690652 1.333498955
8.385473251 -1.132270098 1.333498955
8.274510384 -1.769370198 1.333498955
8.262965202 -2.00512886 1.038870811
7.440285206 4.115736961 1.038870811
8.505517006 -1.005188942 -0.1487974077
8.345194817 -1.926640034 0.1487974077
8.511632919 -0.8540753126 -0.4461128116
8.470082283 -1.197931051 0.4461128116
8.318140984 -0.6897224188 1.9170295
8.063410759 2.156058311 1.9170295
8.320497513 -0.6606824398 1.9170295
8.456061363 -0.8708657622 1.038627148
8.301206589 -1.831215024 1.038627148
8.486861229 -0.4863770902 1.038627148
8.288549423 -1.887676716 1.038627148
8.343184471 -1.629308105 1.038627148
8.38891983 -1.66409409 0.4460081756
8.383059502 -1.693366766 0.4460081756
8.43210125 -1.489841938 0.1487625092
8.29453373 -1.652895212 1.332873344
8.145666122 2.275844336 -1.332873344
8.486445427 -0.4581239522 1.038383365
8.356964111 -1.808366299 0.4459035099
8.47703743 -1.1175282 -0.4459035099
8.313954353 -2.040564537 0.1487276107
8.492830276 -1.075905919 0.1487276107
8.337899208 -1.894324064 0.4459035099
8.472545624 -1.225441098 0.1487276107
8.448814392 -1.313986063 0.4459035099
8.375141144 -1.722216606 0.4459035099
7.909814835 2.652731895 1.916129708
7.283316135 4.068840504 -1.916129708
8.294932365 -0.8923299909 1.916129708
8.224263191 -1.730126023 1.62537396
7.435794353 4.111553669 -1.038139701
8.309597015 -1.773839951 1.038139701
8.290890694 -1.859311819 1.038139701
8.412022591 -1.400144339 0.7423672676
8.399499893 -1.282303572 1.038139701
8.422628403 -1.46089685 0.4457988441
8.483130455 -1.134905219 0.1486927122
8.419983864 -1.53472507 -0.1486927122
8.371681213 -1.779455781 0.1486927122
8.412223816 -1.519661665 0.4457988441
8.390756607 -1.634037733 0.4457988441
8.474791527 -1.195579529 0.1486927122
8.425289154 -1.505324483 -0.1486927122
8.480935097 -1.151189566 -0.1486927122
8.457501411 -1.312313676 0.1486927122
8.296208382 -0.8617202044 1.915679932
7.26736927 4.093284607 -1.915679932
8.31379509 -1.744415283 1.037895918
7.46184063 4.124255657 -0.7421929836
8.4030056 -1.558922172 -0.4456941783
8.344731331 -1.892813206 0.1486577988
8.413683891 -1.500220537 -0.4456941783
8.460494041 -1.208626628 -0.4456941783
8.327008247 -1.92397213 0.4456941783
8.485056877 -1.105028391 0.1486577988
8.330972672 -1.952477932 0.1486577988
8.399497986 -1.632697105 0.1486577988
8.4833498 -0.4015485644 1.037652254
8.340744972 -1.60013628 1.037652254
8.351443291 -1.543325782 1.037652254
8.317889214 -1.714983344 1.037652254
8.373927116 -1.74940455 0.1486229002
7.490065098 4.133036613 -0.1486229002
8.482147217 -1.029456973 -0.4455895126
8.392485619 -1.603988647 0.4455895126
8.397758484 -1.576149344 0.4455895126
8.297393799 -2.039571047 0.4455895126
8.479988098 -0.4295776784 1.037408471
8.320216179 -1.980620503 0.1485880017
8.355100632 -1.778979778 0.4454848468
8.36125946 -1.749804258 0.4454848468
8.404465675 -1.528865576 -0.4454848468
8.400938034 -1.604084373 0.1485880017
7.307150364 4.135872841 1.623847365
8.372556686 1.124573946 -1.331308961
7.379251003 4.112301826 1.331308961
8.342103004 -1.571733236 1.037164688
8.357600212 -1.806977034 0.1485530883
8.409609795 -1.488895297 0.4453801215
8.415041924 -1.517137527 0.1485530883
8.460362434 -1.166447997 0.4453801215
8.386314392 -1.614949703 -0.4453801215
8.299667358 -0.7451060414 1.913880229
7.315525055 4.117040634 -1.623465776
8.40675354 -1.163542509 1.036920905
8.470971107 -0.5195908546 1.036920905
8.385902405 -1.66045332 0.1485181749
8.343155861 -1.863387346 0.1485181749
8.309364319 -2.008711815 0.1485181749
7.437538624 4.151591778 0.7414956689
8.410998344 -1.469467044 -0.4452754557
8.315021515 -0.5173090696 1.913430333
8.309253693 -0.6029036045 1.913430333
8.313260078 -0.5448799133 1.913430333
7.402190208 4.062662125 -1.330683231
8.421487808 -1.457671046 0.1484832764
8.385737419 -1.586017489 -0.4450661242
8.390271187 -1.617230296 -0.1484483778
8.345702171 -1.833394647 0.1484483778
8.458622932 -1.209865808 -0.1484483778
8.296394348 -0.7156279683 1.912530541
8.313224792 -0.4822491109 1.912530541
8.406821251 0.7458540201 -1.330057502
8.405059814 -1.13192749 1.036189795
8.368229866 -1.717750788 0.1484134793
8.399862289 -1.544694304 0.1483785659
8.394418716 -1.574005842 0.1483785659
8.314995766 -0.3717649877 1.91163063
8.303530693 -0.5733582377 1.91163063
8.313716888 -0.3993364573 1.91163063
8.310885429 -0.4544659257 1.91163063
8.299324989 -0.631313324 1.91163063
8.45929718 -0.5470381379 1.035702229
8.375673294 1.006154537 -1.329431653
8.418638229 -1.426928878 0.1483436525
8.370252609 -1.687738895 0.1483436525
8.459101677 -1.163265467 0.1483436525
7.851298809 2.757179499 1.911180735
7.434924603 3.981562614 -1.329118848
8.451125145 -0.6354432702 1.035458565
7.810708046 2.864498615 1.910730958
8.453374863 -0.5762932897 1.035214782
8.436907768 -0.781183064 1.035214782
8.451311111 -0.6057975292 1.035214782
8.452892303 -1.178951263 -0.1482738405
7.169950008 4.07310009 -2.197943449
8.445176125 -1.144834518 -0.4444380999
8.304563522 -0.4265037477 1.909831166
8.308454514 -0.3424170017 1.909831166
8.312464714 -0.224928692 1.909831166
8.443034172 -0.6629984975 1.034727335
8.439149857 -1.174031496 -0.4443334341
7.943478107 2.452840567 1.90938127
7.414029121 4.003735542 -1.327867508
8.122699738 2.240417719 -1.327867508
8.309304237 -0.1958196163 1.908931375
7.392937183 4.123307228 1.034239888
8.035083771 2.118464708 1.908481359
8.432391167 -0.7199460268 1.033996105
8.336518288 0.7132294178 -1.618123174
8.122462273 2.211391449 -1.32661593
7.267090321 4.146761417 1.618123174
8.425873756 -0.7490246296 1.033508658
7.443086147 4.122377872 0.4437054098
7.219861507 4.098120689 -1.906681895
7.981861591 2.282734156 1.906681895
8.301116943 -0.1115657166 1.906681895
7.923706532 2.477066755 1.906681895
7.335573673 4.12158823 1.3259902
8.296047211 -0.2534671724 1.906231999
8.297558784 -0.08254995942 1.905781865
8.12250042 2.180974007 -1.325364351
8.291215897 -0.2822915912 1.905332088
8.074846268 1.553511262 -2.191731691
8.29237175 -0.1679087877 1.904882193
8.293898582 -0.05356040224 1.904882193
8.29400444 0.03329494223 1.904882193
8.28817749 -0.3126050532 1.904882193
8.418905258 -0.6906807423 1.032046199
7.388999939 4.15669775 0.7380094528
8.033047676 2.056563139 1.904432297
8.333148956 1.091166615 -1.324425817
8.230576515 -2.024670124 0.7378351688
8.289011002 -0.1388967037 1.903982401
8.289940834 0.06221918017 1.903982401
8.083218575 1.832013607 1.903532505
8.285680771 0.2053936422 1.903532505
7.261835575 4.120270252 -1.614688635
8.377017975 0.6254651546 -1.323800206
8.12051487 2.150085688 -1.323800206
7.356004238 4.136441231 1.031071305
8.27810955 0.320905745 1.902632594
8.282342911 -0.02457427792 1.902182698
8.282378197 0.004334934056 1.902182698
8.274930954 0.3511678278 1.902182698
8.270402908 0.4073856771 1.901732922
7.35153389 4.132239342 -1.030340075
8.274657249 0.1762188077 1.90083313
8.271389961 0.2917387784 1.90083313
7.837298393 2.660405159 1.90083313
8.273224831 0.2339825183 1.90083313
8.263546944 0.463452965 1.90083313
8.116873741 2.117310524 -1.321922898
8.274085045 0.09098293632 1.900383234
8.265869141 0.3796872795 1.900383234
7.85428524 2.603641748 1.900383234
8.27176857 0.1198383048 1.899933338
8.268463135 0.2627384663 1.899933338
7.179425716 4.110031605 -1.899933338
8.267401695 0.1486396044 1.899033427
8.250207901 0.4915980995 1.898133755
8.309289932 1.060025096 -1.32004571
7.214409351 4.151823997 1.609727621
8.249469757 0.4352278113 1.897233963
8.30919838 1.029075146 -1.31941998
7.319793701 4.148090363 1.027902722
7.283329487 4.125747204 1.319107056
7.343251705 4.16477108 0.7348718047
7.377423763 4.141709805 -0.4411932528
7.370617867 4.149739742 0.441088587
7.386035442 4.143154621 -0.1471219957
8.0993433 2.082575083 -1.317855597
7.353685379 4.130071163 -0.7341746092
8.232791901 0.5208472013 1.894534588
7.923308372 2.295936584 1.894534588
7.39916563 4.086243153 -0.4407745898
7.913780689 2.321652174 1.894084692
7.308427334 4.139964581 -1.026196599
8.227033615 0.5493242741 1.893634558
8.107582092 2.025955439 -1.316916943
7.796629906 2.676990032 1.893184662
7.075378418 4.086619854 -2.177755356
8.09663105 2.053275108 -1.316291213
8.042013168 1.793181777 1.892284989
8.217273712 0.6048821807 1.892284989
8.213059425 0.6348478794 1.891835093
7.362389088 4.148491859 0.1468078494
8.206908226 0.6631933451 1.890935183
7.304454803 4.176530838 0.7324314713
8.099259377 1.993870497 -1.314414024
7.243155003 4.136450291 1.314414024
7.168580055 4.160497665 1.602858424
8.205728531 0.5752426982 1.889135718
7.335836411 4.150414467 -0.4395185113
7.045331001 4.103773117 -2.173096895
7.815176487 2.56043601 1.888685822
7.343678474 4.15316391 -0.1465635151
8.193013191 0.6894266009 1.888235927
7.311481476 4.140009403 -0.7313855886
7.264902115 4.152233601 1.022296667
8.18036747 0.7444723248 1.886436224
8.182790756 0.7173428535 1.886436224
8.177718163 0.7730209231 1.886436224
8.088891983 1.961395025 -1.311598301
7.317873955 4.153754234 0.4387858212
8.043447495 1.646694422 1.885536551
8.048863411 1.620013952 1.885536551
8.019672394 1.758835077 1.885536551
8.025460243 1.732232809 1.885536551
8.1199646 1.819490671 -1.311285377
8.117137909 -1.999770045 1.021321654
7.322506905 4.158073902 0.1462842673
8.12240696 1.790286779 -1.310659528
8.103214264 1.875243425 -1.310659528
8.088340759 1.92989862 -1.310346723
8.163194656 0.8018476367 1.883736849
8.02810955 1.672775626 1.883286953
8.021924973 1.702187061 1.883286953
7.261481762 4.187352657 0.7296425104
8.147648811 0.9124674201 1.882837057
8.088961601 1.336217761 1.882837057
8.042998314 1.589638948 1.882837057
8.150783539 0.8840190768 1.882837057
8.102006912 1.845193863 -1.309408188
8.089259148 1.900299788 -1.309408188
7.276224136 4.153651714 -0.7292939425
8.152590752 0.8295468092 1.881937146
8.106985092 1.195690155 1.881937146
7.19785738 4.143965721 1.308782339
7.246665001 4.140136719 -1.019615531
7.133674622 4.150230885 -1.595989347
7.124238014 4.166408539 1.595989347
8.126022339 1.027999043 1.881037354
8.046242714 1.531991482 1.881037354
8.056741714 1.475780845 1.881037354
8.145768166 0.8575936556 1.881037354
8.061590195 1.449057102 1.881037354
7.290074825 4.158185482 -0.4376344085
8.345231056 0.6479907632 -0.7285966277
7.297867775 4.160942554 -0.1459352225
8.081806183 1.307520747 1.880137682
8.047710419 1.503181815 1.880137682
8.072481155 1.363906622 1.880137682
8.132799149 0.9395588636 1.880137682
8.118519783 1.055853605 1.880137682
8.125599861 0.9674832821 1.87923789
8.058923721 1.419557691 1.87923789
8.111110687 1.082252741 1.87923789
8.121998787 0.9972568154 1.87923789
8.091200829 1.222233415 1.87923789
8.063829422 1.391415954 1.87923789
8.032920837 1.55998826 1.87923789
7.278097153 4.183404446 -0.1458305269
7.070670605 4.115228653 -1.878787756
7.282923222 4.170973301 0.1457955986
8.095678329 1.165164948 1.878337979
8.103614807 1.108618021 1.878337979
8.074548721 1.278881907 1.877438188
8.07896328 1.250690341 1.877438188
8.095835686 1.1363585 1.877438188
7.050260544 4.134712219 -1.876988292
7.20456028 4.084449768 -1.305028081
7.210802555 4.154775143 1.016690731
7.266927719 4.15844059 0.4365877211
7.088395119 4.177052021 1.591028214
7.156270027 4.156692982 1.304089308
7.215084553 4.195908546 0.7265049219
7.23404932 4.163126469 -0.7265049219
7.092772484 4.157979965 -1.589883447
7.201207161 4.147572517 -1.015228271
7.58846426 2.993766785 1.873389125
7.204290867 4.052789211 -1.302524924
7.243622303 4.16695261 -0.4357503057
7.185373306 3.979642391 -1.588356972
7.01637888 4.146170139 -1.871589422
7.15984869 3.889101744 1.871139646
7.565294266 3.015188456 1.870239615
7.143494129 3.910949945 1.870239615
7.227383614 4.191253662 -0.1451324075
7.168234348 3.861310959 1.86978972
7.594636917 2.935096025 1.86978972
7.226416111 4.168812752 0.4350176156
7.540451527 3.066459179 1.869339943
7.112611294 3.958830357 1.869339943
7.623131275 2.854723454 1.869339943
7.02742815 4.108141899 1.869339943
7.954088688 -1.993501902 1.585685611
7.168065071 4.1652174 1.012790799
7.231952667 4.175371647 0.1450626105
7.049181938 4.185502052 1.585304022
6.94313097 4.106156349 -2.149802923
7.095348835 3.981728554 1.868440151
7.578898907 2.959464073 1.868440151
6.996675491 4.152669907 1.868440151
7.176511288 3.833512545 1.868440151
7.164633274 4.16322279 -1.012303352
8.315159798 0.1524015665 -0.723890245
8.283845901 0.09687388688 -1.012059689
7.543877602 3.037209511 1.867540479
7.034269333 4.080904961 1.867540479
7.522490025 3.08980155 1.867540479
7.007048607 4.127468586 1.867540479
7.078713894 4.003315449 1.867540479
7.119563103 3.930209398 1.867540479
7.140920639 4.116170406 -1.298770666
8.310592651 0.181337297 -0.723541677
7.508059025 3.114546299 1.866640449
7.061311722 4.026068211 1.866640449
7.947657108 -1.962430596 1.583014369
7.048519135 4.16350317 -1.583014369
7.108350277 4.160442829 1.297832012
8.303934097 0.2101965249 -0.7230186462
7.196547031 4.188490391 0.4341802299
7.219598293 3.726314306 1.865740776
7.179518223 3.802963972 1.865740776
7.205892563 3.752748728 1.865740776
8.269816399 0.2107771188 -1.010597229
7.198933601 4.176434517 -0.4339709282
7.163313866 4.197649002 0.7226700783
7.180105209 4.168861866 -0.7226700783
8.299166679 0.2390649021 -0.7226700783
8.301673889 0.1246189997 -0.7226700783
7.594893456 2.874420166 1.864840984
7.189297676 3.776068449 1.864840984
7.03975153 4.048035145 1.864840984
8.266160011 0.2684417665 -1.010353565
7.137082577 4.178936481 1.010353565
8.269563675 0.1255766004 -1.010353565
8.293313026 0.2968595922 -0.7223213911
7.581175327 2.899516106 1.863941073
7.486356735 3.136219501 1.863941073
6.96614027 4.165849209 1.863941073
8.264547348 0.1817795485 -1.009865999
7.133655548 4.176929951 -1.009865999
8.263076782 0.2394686043 -1.009865999
8.265104294 0.1543700397 -1.009865999
6.911219597 4.118281841 -2.144109011
7.461252689 3.185570955 1.863041282
7.222153187 3.695761681 1.863041282
8.101343155 1.406626225 -1.295641899
8.282390594 0.4123231471 -0.7217984796
8.283779144 0.3834075034 -0.7217984796
8.278987885 0.439678967 -0.7216241956
7.446507931 3.21005559 1.862141609
8.28811264 0.09547713399 -0.7214499116
8.247657776 0.3846246302 -1.008647323
7.43168211 3.234475374 1.861241579
7.00589323 4.192938328 1.578816414
6.962403774 4.145489693 -1.860791683
8.242371559 0.4117729366 -1.008159757
8.240883827 0.4405399561 -1.008159757
8.24731636 0.2966504097 -1.008159757
7.461006641 3.156257391 1.860341907
7.18203783 4.181728363 0.144364506
7.318767548 3.464258194 1.859442115
7.245875359 3.614239931 1.859442115
7.258448124 3.588923216 1.859442115
7.233213902 3.639512539 1.859442115
7.162629604 4.187178612 -0.432610184
7.172007561 4.190986156 -0.144294709
8.231451035 0.4674174488 -1.007184863
8.229681969 0.4975861907 -1.007184863
7.216991425 3.662973404 1.858542442
7.375144005 3.333104849 1.858542442
7.386734486 3.307338476 1.858542442
7.091630936 4.122458458 -1.292513251
7.004305363 4.168782234 -1.576145172
7.063886642 4.165931702 1.292200327
7.097539425 4.187448502 1.006697297
7.121902943 4.205173969 0.7198810577
8.257510185 0.467451483 -0.7198810577
7.151605606 4.19414711 0.4322961271
6.875271797 4.129452229 -2.137379646
7.263929844 3.560138702 1.857642412
7.300205231 3.485149145 1.857642412
7.406074047 3.254124165 1.857642412
6.926520348 4.175051689 1.857192516
7.135285854 4.174540997 -0.7195324302
7.391107559 3.278378725 1.85674274
8.217988968 0.5256747603 -1.005966187
8.244216919 0.5822786093 -0.7193581462
8.24787426 0.495792836 -0.7191838622
7.341074467 3.379622459 1.855842948
7.317301273 3.430790186 1.855842948
7.280973911 3.507226229 1.855842948
7.952457905 -1.962143421 1.290636063
8.210260391 0.5813203454 -1.00547874
8.210162163 0.5539550185 -1.005234957
7.349279881 3.352360487 1.854943037
7.265796661 3.52965045 1.854943037
8.204115868 0.6111118793 -1.004991174
8.010825157 -2.000293255 0.7186608911
8.238246918 0.5529614687 -0.7186608911
7.083861828 4.17937851 -1.00474751
8.236150742 0.5239499807 -0.7183122635
6.972875118 4.183109283 -1.572329044
7.090797424 4.218580246 0.7181379795
8.228225708 0.6100199223 -0.7181379795
7.318627357 3.400301933 1.853143573
7.124611378 4.196718216 -0.431144774
8.033186913 -2.001409292 0.1438060403
7.99220562 -2.025307655 0.7176150084
6.95591116 4.196073532 1.570802569
7.026258945 4.175204754 1.28782022
7.135363102 4.186290264 0.1437013149
6.912802696 4.14870739 -1.85134387
6.836028576 4.13841486 -2.129615068
6.888590813 4.185033798 1.850893974
7.924481869 -1.98461163 1.28719449
7.047239304 4.127983093 -1.286881566
7.121884346 4.193438053 -0.1435617059
7.051192284 4.191690922 1.002066255
7.090509892 4.179965496 -0.7163948417
7.103269577 4.197515965 0.4302026927
7.954119205 -1.989083886 1.001578808
7.055523396 4.231011868 0.7160462141
7.107669353 4.201790333 0.1434220821
7.941355705 -2.015372276 1.000847697
7.997608662 -1.995510578 0.4297840297
7.986721516 -2.022434711 0.4295746684
8.130687714 0.52293998 -1.283752918
7.128706932 3.945006609 -1.283752918
7.016500473 4.141287327 -1.283752918
7.896445751 -2.006908894 1.283752918
7.206487656 4.009429932 -0.1432475597
6.927993298 4.189133167 -1.565459847
6.917734623 4.20605135 1.565459847
6.988646984 4.184277534 1.283439994
8.12071991 -0.6091746688 -1.283127189
7.034129143 4.181547165 -0.9996290207
6.873266697 4.157684803 -1.844595313
7.078022957 4.200951576 -0.4291560054
7.98931694 -2.020124435 0.1431428492
7.08558321 4.203766346 -0.1431079507
6.795154095 4.146153927 -2.121332884
8.064543724 -1.52235353 -0.7143030763
7.056052208 4.19124651 -0.7143030763
7.019050121 4.014973164 -1.563551784
6.850395203 4.176574707 -1.842345834
7.101093292 3.96216464 -1.28125
6.840700626 4.18870306 1.841895938
7.069645882 4.211009502 0.1429334134
8.112832069 0.4919383526 -1.28062427
7.945076942 1.694576621 -1.279998422
7.939112663 1.72230196 -1.279998422
6.882925034 4.217862129 1.560880423
7.054987431 4.200614452 0.4281092584
7.153271675 3.986368418 -0.712734282
6.950318813 4.194359303 1.279059887
6.997357368 4.192806721 0.9964603186
7.02428627 4.205615997 -0.712559998
7.052724361 4.21595192 -0.1427239925
6.99638319 4.190568447 -0.9962166548
7.168478012 3.991564274 -0.4277952611
7.08195591 3.858004093 -1.559354067
6.973865509 4.147369385 -1.278434157
7.0031991 4.232939243 0.7122113705
6.883150578 4.194901943 -1.55859077
8.147350311 0.03839780018 -0.995241642
7.03417778 4.208203316 -0.4273765683
6.810868263 4.185159683 -1.835597277
8.171107292 0.008554821834 -0.7111654878
8.169035912 0.03707039356 -0.7109912038
6.747728825 4.149607182 -2.110980034
6.79784584 4.195156574 1.83424747
6.844773293 4.227421284 1.55553782
8.133196831 -0.07523620129 -0.993535459
6.961320877 4.202651978 -0.9932917356
6.960587502 4.203866482 0.9932917356
8.161125183 -0.0199414324 -0.7102939487
7.015697002 4.227130413 -0.1422702223
7.832968235 1.114795566 -2.108392
8.154075623 -0.133788541 -0.7097710371
7.01019001 4.205494404 0.4262252152
7.017184734 4.213017941 0.1421655118
7.912565231 1.657347441 -1.273741007
8.120975494 -0.1034741551 -0.9920730591
8.116829872 -0.2139643133 -0.9918293357
8.144573212 -0.2744525373 -0.7092480659
6.716782093 4.162960529 -2.105803728
6.92884922 4.153404713 -1.272802472
6.900197029 4.197032928 1.272489667
8.107831001 -0.3568311632 -0.9913418889
8.144849777 -0.07676566392 -0.7088994384
8.134635925 -0.4149297178 -0.7088994384
8.115673065 0.009917023592 -0.9913418889
7.848241806 1.676787257 -1.551721692
6.838355541 4.200405598 -1.551721692
8.113560677 -0.04673126712 -0.9910981655
6.931345463 4.217640877 -0.9910981655
8.142539978 -0.1051702946 -0.7087251544
6.954349995 4.236629963 0.7087251544
6.972033978 4.207464218 -0.7087251544
8.137592316 -0.3026586175 -0.7087251544
8.141634941 -0.1605919451 -0.7087251544
8.11168766 -0.0184048675 -0.9908543229
8.108096123 -0.242059052 -0.9908543229
8.141082764 -0.04831072316 -0.7085508108
8.137557983 -0.244360134 -0.7085508108
7.856193066 1.619790554 -1.550958395
6.759992599 4.204452515 1.827948928
8.125257492 -0.441470474 -0.7082021832
8.134378433 -0.2158475816 -0.7082021832
8.105619431 -0.185357675 -0.9903668761
6.985238552 4.21210289 -0.425283134
7.846648216 1.646399617 -1.550195217
8.104205132 -0.1584386677 -0.9901231527
8.104708672 -0.1301487237 -0.9901231527
8.133057594 -0.1888255924 -0.7080278993
7.999281883 -1.481135249 -0.7080278993
7.940777302 1.407321334 -1.270612478
8.094706535 -0.3831526339 -0.9898794293
6.922131062 4.213689327 0.9898794293
8.124026299 -0.3873826265 -0.7078536153
8.125329018 -0.3590221405 -0.7078536153
7.876019478 1.118121862 -1.82659924
8.124542236 -0.330576241 -0.7076792717
6.974961281 4.217533112 0.4249691367
6.761425018 4.187363625 -1.826149464
7.928312778 1.152377963 -1.54905045
8.091176033 -0.3278041184 -0.98914814
7.147829533 3.929557562 0.1416768283
8.091330528 -0.2698308229 -0.9889044166
6.970132351 4.232912064 -0.1416419297
6.682546616 4.174101353 -2.09959197
6.975063324 4.220920563 0.1416070312
6.794974327 4.229500294 1.547523856
7.88047123 1.399470568 -1.547523856
8.081495285 -0.4093908966 -0.9884169698
8.086371422 -0.297927022 -0.9884169698
6.803619385 4.211852074 -1.547142267
6.890637398 4.163265705 -1.268422365
7.871923447 1.424894452 -1.546760678
8.076129913 -0.4359738529 -0.987929523
6.893845081 4.229520321 0.987929523
6.953424931 4.226089001 -0.4242364466
6.915747166 4.246285439 0.706284821
6.725459576 4.215606213 1.822550058
7.86303997 1.451653123 -1.545997381
7.121829987 3.94769311 0.1414324939
7.834860802 1.586902857 -1.545615792
6.856873512 4.203543663 1.267170787
6.943139553 4.231461525 0.4239223897
6.926666737 4.213133335 -0.7055875659
8.012310982 -0.6277685165 -1.266232252
7.871868134 1.620158076 -1.266232252
6.697524071 4.23072958 1.818950891
7.842490196 1.476184487 -1.542944431
6.768886089 4.223106384 -1.542562842
7.835361004 1.503183126 -1.542562842
6.875966549 4.21690464 -0.9852483869
7.998258114 -0.6547657847 -1.264355063
6.71535778 4.191333771 -1.817601323
6.755223274 4.237542629 1.541799664
6.880554676 4.257814884 0.7041930556
6.916488647 4.236774445 -0.4228757024
7.992105961 -0.6809499264 -1.263729334
6.931263447 4.2275424 0.1410136521
8.006030083 0.4574206173 -1.263416409
7.857835293 1.59012866 -1.263103485
7.813832283 0.6451607943 -2.089239359
6.635238647 4.176817894 -2.089239359
6.818630695 4.212919235 1.26279068
6.8406353 4.16571331 -1.261852145
7.860722065 1.535090685 -1.261852145
7.881389141 1.425187349 -1.261852145
7.866295815 1.506267428 -1.261852145
6.897694588 4.236854076 0.4220382869
7.808871746 1.526379943 -1.538365006
7.867622375 1.478071809 -1.261226296
6.910969734 4.230072498 -0.1407344043
6.840204239 4.229547977 0.9823235273
6.879643917 4.217503071 -0.7022756338
6.730837822 4.232073784 -1.53722024
8.011232376 -0.6586431861 -0.9818360806
6.837567806 4.226264477 -0.9818360806
6.845362663 4.269155979 0.7021012902
6.897724152 4.240193844 0.1406296939
7.795794487 1.55209744 -1.536838651
7.966068268 -0.7067486048 -1.259974957
7.843962193 1.558841228 -1.259974957
7.796670914 0.6177176833 -2.084063053
6.787115574 4.226252079 1.259662032
6.713837624 4.24431324 1.535693645
6.810898781 4.180267334 -1.259036183
7.857192039 1.447737813 -1.258723378
6.667694092 4.193999767 -1.808603287
6.644906044 4.230011463 1.808603287
7.906839371 -1.519755125 -0.7007068396
6.592886925 4.182359695 -2.080439329
6.806867599 4.241848946 0.9796423316
6.689047337 4.261392593 1.533403993
7.968052387 0.4287479818 -1.257158995
6.846233845 4.22997427 -0.7003581524
6.862485409 4.251603127 0.1402108371
6.870632648 4.238424301 -0.1402108371
6.859173775 4.234656811 -0.4202588797
6.852295399 4.241985321 0.4201542139
6.64149332 4.209944248 -1.805453897
7.979335308 -0.6826674938 -0.9781799912
6.748895168 4.235219002 1.255281806
6.79581356 4.233314514 -0.9779361486
6.77442503 4.190508842 -1.254968882
6.682856083 4.234528542 -1.529587865
6.814515591 4.243313313 -0.6986150742
7.96503973 -0.7094596028 -0.9767175913
6.840512753 4.252877712 -0.1398967057
6.557089806 4.191820145 -2.073710203
6.793308735 4.269699097 0.6982665062
7.952433109 -0.1526945233 -1.253091693
6.608691216 4.221563339 -1.800504923
6.647696972 4.267747879 1.527298093
7.811597824 0.6436074972 -1.79960525
6.597296238 4.232135296 1.79960525
6.813765049 4.269296169 -0.1396523714
7.941066742 -0.1247482374 -1.251214504
6.817215919 4.241693497 -0.4185841084
6.75745821 4.242231846 -0.9745238423
6.755036831 4.242355347 0.9742801189
7.806025505 0.6157209277 -1.797805548
6.806943893 4.246850491 0.4182701111
7.907384396 -1.238263369 -0.6965233088
6.731259823 4.196363926 -1.24965024
6.810285091 4.252233982 0.1394429356
7.867178917 -1.428290486 -0.6958260536
7.851743221 0.6441522837 -1.523100257
7.925635338 -0.09821820259 -1.248711586
7.924234867 -0.1784422994 -1.248711586
6.516431332 4.197945118 -2.065428019
6.638250351 4.238810062 -1.522718668
6.729187489 4.257305145 -0.972573936
7.966941357 -0.6298101544 -0.6954774857
6.769283295 4.24801302 -0.6954774857
6.751430988 4.276329041 0.6954774857
7.88547945 -1.092797875 -0.9723302722
7.907926559 -1.126872778 -0.6951288581
6.783756256 4.253791809 -0.4174327552
6.559569836 4.240329266 1.793306351
7.859537125 -1.227959991 -0.9715989828
