# .PCD v0.7 - Point Cloud Data file format
VERSION 0.7
FIELDS x y z
SIZE 4 4 4
TYPE F F F
COUNT 1 1 1
WIDTH 1280
HEIGHT 1
VIEWPOINT 0 0 0 1 0 0 0
POINTS 1280
DATA ascii
3.606625557 1.627696157 0.4807092845
3.609724283 1.627580404 0.6204707026
3.611597538 1.627664447 0.7617723942
3.60026598 1.621048093 0.9016004205
3.614342213 1.62586689 1.050339818
2.500492096 1.121142983 -0.7226748466
2.808400631 1.258024096 -0.7004941702
3.199855804 1.43270421 -0.6732369661
3.710107088 1.65961194 -0.6370527744
3.699559212 1.653344274 -0.4924087226
3.564002991 1.59201777 -0.3377902806
3.708047152 1.654808879 -0.2106010318
3.687486172 1.644087672 -0.0697729215
3.687972307 1.652801275 0.06984273344
3.582067966 1.60383606 0.203483358
3.626541138 1.622990727 0.3438911736
3.63765645 1.626439452 0.4841216207
3.626205206 1.619803071 0.6223478913
3.638769388 1.624651551 0.7663516998
3.629039288 1.618790269 0.9074491858
3.627053499 1.616386771 1.052410364
2.493796587 1.107704163 -0.7195689678
2.821681499 1.252164721 -0.7027437091
3.206631184 1.4223243 -0.6736186147
3.728519917 1.652252436 -0.6392428279
3.748871565 1.659705758 -0.4982584119
3.62419796 1.603753686 -0.3430196047
3.73389554 1.650738001 -0.2117524296
3.714866877 1.641550422 -0.07019178569
3.70468545 1.644785404 0.07005216926
3.611099005 1.602481008 0.2048440725
3.646755934 1.616781116 0.3452856541
3.675980568 1.628204823 0.4885089099
3.655038834 1.618163943 0.6264151931
3.660576344 1.619089723 0.7697862983
3.66497016 1.61950171 0.9150974751
3.639461994 1.607472897 1.05448091
2.510026217 1.104438186 -0.723192513
2.818682194 1.239664674 -0.7009441257
3.218766451 1.414280415 -0.67514503
3.721317053 1.634321451 -0.6370527744
3.77253294 1.655241728 -0.5006958246
3.76663208 1.651085019 -0.3560929894
3.74988389 1.641403437 -0.07075025886
3.724761724 1.638934731 0.07033140212
3.645924568 1.602726936 0.2065188289
3.672442675 1.612856865 0.3472030759
3.694083929 1.621590137 0.4902150631
3.700464964 1.622848749 0.6332983375
3.678512573 1.612458229 0.7724575996
3.691741943 1.616719246 0.9204963446
3.671599627 1.60637331 1.062245488
2.508362532 1.093791366 -0.7216395736
2.821205854 1.229038954 -0.7004941702
3.22703886 1.405165434 -0.6759082675
3.726999521 1.621320605 -0.6370527744
3.787390232 1.646019936 -0.5019145608
3.788820982 1.645067453 -0.3576617837
3.585646391 1.556109428 -0.2026459724
3.781276464 1.639439464 -0.07123892754
3.756123543 1.637109399 0.07082006335
3.669809341 1.597963214 0.2075655609
3.701520443 1.611004829 0.3494691253
3.703363657 1.610267758 0.4907025695
3.716977119 1.614646673 0.6351755261
3.705729008 1.608989835 0.7770370841
3.713451624 1.610804796 0.9245455265
3.705545425 1.60583663 1.070527554
2.515901566 1.086122274 -0.7226748466
2.823689699 1.21841073 -0.7000442743
3.221349955 1.388666034 -0.6736186147
3.761945963 1.620150328 -0.6420586705
3.807699919 1.639067411 -0.5038644075
3.818333626 1.642065406 -0.3599278629
3.842729568 1.650967479 -0.2169860303
3.765487671 1.625572443 0.07088988274
3.690036058 1.59147191 0.2084029317
3.729357481 1.606887221 0.3515608907
3.734486103 1.608324289 0.4941148758
3.735292435 1.607126117 0.6373656392
3.729637861 1.603150606 0.7808532715
3.735446453 1.604102969 0.9285945296
3.728880644 1.600512743 1.075704098
2.516125202 1.07581389 -0.7216395736
2.84247303 1.214177847 -0.7036435008
3.220761538 1.375099421 -0.6724737287
3.760309458 1.603909373 -0.6408071518
3.848379612 1.639886975 -0.50849545
3.825874805 1.629508257 -0.3601021469
3.848468781 1.637544632 -0.2169860303
3.610450745 1.535522699 -0.06778335571
3.6974051 1.579366803 0.2085075825
3.742273808 1.59698844 0.352258116
3.773225069 1.60863781 0.4985021353
3.759052277 1.601822376 0.640494287
3.765919685 1.603193879 0.7873407602
3.760749578 1.599444628 0.9335435629
3.755779505 1.596554756 1.081915617
2.512749195 1.064011812 -0.7195689678
2.833921671 1.199427605 -0.7004941702
3.234582901 1.367672086 -0.6743817925
3.76742816 1.592199087 -0.6411200762
3.8684268 1.633292079 -0.5104453564
3.840718985 1.620014191 -0.360973686
3.87412262 1.633307457 -0.2181374133
3.820351839 1.609067798 -0.07165779173
3.697377443 1.564115405 0.2081935704
3.755166769 1.587017179 0.3529553413
3.807796717 1.60847652 0.5024020076
3.790100336 1.599442482 0.6448744535
3.796539783 1.601379514 0.792683363
3.796561718 1.599828005 0.9411918521
3.77557373 1.58943224 1.086056828
2.519826412 1.057168722 -0.7206043005
2.845279932 1.192541718 -0.7022937536
3.239099979 1.356938958 -0.6743817925
3.763851166 1.575226068 -0.6395556927
3.897913218 1.629734278 -0.5136139393
3.906734943 1.632619739 -0.3667259514
3.890858173 1.624391913 -0.2187654376
3.886849642 1.62112546 -0.07280964404
3.782461882 1.583790779 0.3550471067
3.824375629 1.599772215 0.5038644075
3.826645613 1.599150419 0.650193274
3.816599369 1.594171882 0.7957363725
3.820107937 1.594069362 0.9456908703
3.806062698 1.58664906 1.0933038
2.530637741 1.051330328 -0.7226748466
2.842226267 1.179613829 -0.7004941702
3.251070738 1.348632216 -0.6759082675
3.754728317 1.556027174 -0.6370527744
3.894000053 1.611355543 -0.3649828434
3.913116693 1.617668629 -0.219707489
3.923905849 1.620523214 -0.07340303063
3.632684469 1.508424282 0.06795787811
3.811893225 1.580498934 0.3573131561
3.844609261 1.592489243 0.5058143735
3.859583378 1.597113609 0.6548862457
3.840283155 1.58834219 0.7995525599
3.845460176 1.588911891 0.9506397843
3.838362694 1.584411025 1.101068258
2.534291983 1.04249084 -0.7226748466
2.846326351 1.169686079 -0.7004941702
3.244862318 1.332800865 -0.6736186147
3.771101713 1.547411323 -0.6389299631
3.9091959 1.60248208 -0.5136139393
3.968099117 1.62501049 -0.3714323938
3.950162649 1.616860271 -0.2214869112
3.944345713 1.612872005 -0.07368226349
3.805928469 1.563254237 0.213427186
3.837661266 1.575505495 0.3592305779
3.879529953 1.591112137 0.5097141266
3.887068987 1.5926193 0.6586407423
3.882139921 1.589808583 0.807184875
3.863608599 1.580643058 0.9537890553
3.881423712 1.58635211 1.111938715
2.530939102 1.030281067 -0.7206043005
2.85400176 1.161212802 -0.7013939619
3.246088028 1.319419503 -0.6728553176
3.7840693 1.536550999 -0.6401814222
3.968108177 1.610474586 -0.5206823945
3.988518715 1.617137074 -0.3728268743
3.981978416 1.612869501 -0.2229523212
3.966634035 1.605846405 -0.07399640977
3.95243144 1.608934641 0.07378697395
3.847101688 1.562929988 0.3595792055
3.918167353 1.591002464 0.5141014457
3.910909653 1.586467624 0.6617693901
3.911595106 1.585153699 0.8121459484
3.894664526 1.576710343 0.9600877762
3.895891428 1.576415777 1.114526868
2.530936003 1.019996524 -0.7195689678
2.865469933 1.153655052 -0.7031936049
3.254316568 1.309547067 -0.6736186147
3.789410353 1.523331761 -0.6401814222
3.962931395 1.591482282 -0.5192199349
4.014478683 1.611367583 -0.3747442961
4.013537407 1.609365702 -0.2244177461
4.009618759 1.60616982 -0.07469450682
3.976850271 1.601909876 0.0741360262
3.670640469 1.477077127 0.2051580995
3.852534294 1.549490571 0.3595792055
3.949759722 1.586993217 0.5175138116
3.953363419 1.586836457 0.6680268049
3.928036928 1.575876951 0.8144356608
3.930896044 1.575429201 0.9677360654
3.917783976 1.568589449 1.119185686
2.534481287 1.011155009 -0.7195689678
2.862238169 1.140760303 -0.7013939619
3.258868217 1.298178554 -0.6736186147
3.791032791 1.508636594 -0.6395556927
3.89467597 1.548304796 -0.5094704032
4.018226624 1.596611738 -0.3745699823
4.039551258 1.603450418 -0.225569129
4.0319314 1.598796964 -0.07500864565
3.969414949 1.582834363 0.07389169186
3.905851364 1.555905938 0.2181374133
3.865323305 1.538981915 0.3602764606
3.958964825 1.574662566 0.518001318
3.955205202 1.571570754 0.6674010158
2.559556723 1.01081872 -0.7257806659
2.858952045 1.127900958 -0.6995943785
3.263379097 1.286797285 -0.6736186147
3.814655542 1.502633095 -0.6426844001
3.857375383 1.521018505 0.2151019424
3.708820105 1.458700776 0.6245380044
3.642944336 1.432059407 0.7526135445
3.707805872 1.456060767 0.9096986055
3.667869329 1.438900113 1.04412806
2.563069582 1.001877427 -0.7257806659
2.868317127 1.12004149 -0.7009441257
3.267851114 1.275397182 -0.6736186147
3.834600449 1.495049596 -0.6451873779
3.724115372 1.450473785 -0.4855840206
3.728494406 1.45143199 -0.3463315368
3.723029852 1.447806478 -0.2071468532
3.707476616 1.440270662 -0.06872577965
3.702842712 1.446655989 0.06869087368
3.685906649 1.438558459 0.2051580995
3.697782278 1.442447901 0.343542546
3.685019732 1.435989618 0.4804655313
3.678913593 1.432131171 0.618593514
3.724766254 1.44923234 0.7686414719
2.555741072 0.9887416363 -0.7226748466
2.864938736 1.107211709 -0.6991444826
3.266789675 1.261859417 -0.6724737287
3.810309649 1.470276117 -0.6401814222
4.156430721 1.598834753 -0.07703312486
3.720925093 1.438772798 0.06893520802
3.726053476 1.440006375 0.2071468532
4.032003403 1.554206252 0.6777256727
4.054087639 1.561091781 0.8361878395
4.03071785 1.550477386 0.9870818853
4.023788452 1.547005892 1.143514633
2.548351765 0.9756703973 -0.7195689678
2.888614893 1.105366707 -0.7040933967
3.274841547 1.251851201 -0.6732369661
3.822544813 1.460453391 -0.6414328814
4.01209259 1.53126812 -0.5221448541
4.148104668 1.581518173 -0.3846800625
4.160190582 1.58529675 -0.231116727
4.160117626 1.583603859 -0.07699821889
4.140261173 1.585154176 0.07668407261
3.979492903 1.520417452 0.3689920008
4.078587055 1.557459831 0.5309194326
4.089082718 1.559834719 0.6864860654
4.084924698 1.55742979 0.8415305018
4.061664104 1.545316935 1.15283215
2.551573038 0.967214942 -0.7195689678
2.877875805 1.089756608 -0.7004941702
3.286319256 1.243764877 -0.6747633815
3.805446386 1.438719392 -0.6376784444
4.232832909 1.598610044 -0.5504184961
4.214838505 1.590973616 -0.3904323578
4.219895363 1.591199756 -0.2341522276
4.189671993 1.578968287 -0.0774519816
4.162599564 1.577067614 0.07699821889
3.984513283 1.507211566 0.3689920008
4.113708973 1.55444324 0.5348192453
4.133040905 1.560921669 0.6930562854
4.095846176 1.545240998 0.8426753283
4.097500324 1.54341495 1.161631942
2.562169313 0.9610155225 -0.7216395736
2.877824783 1.078838348 -0.6995943785
3.294318438 1.233662128 -0.6755266786
3.828696966 1.433015227 -0.6408071518
4.244630337 1.585314751 -0.3926984072
4.223277569 1.576499701 -0.2340475619
4.23637867 1.579705715 -0.07821989059
4.194018841 1.573087811 0.07748688757
3.692056656 1.383342624 0.2044253945
4.019605637 1.504469156 0.3717809916
4.141152382 1.549138188 0.5377441049
4.158818722 1.554092169 0.6964978576
4.113821983 1.536459446 0.8453466296
4.060812473 1.51504612 0.9906810522
4.135446072 1.54124701 1.17094934
2.569296598 0.9529624581 -0.7226748466
2.885600328 1.06913507 -0.7004941702
3.282248259 1.215442777 -0.6720920801
3.83417058 1.418304443 -0.6408071518
4.270232677 1.57791245 -0.5538309216
4.280315876 1.580791593 -0.3954873979
4.259280682 1.571331263 -0.2357222885
4.264928818 1.571724176 -0.07863874733
4.230028629 1.568092465 0.07804536074
4.066200733 1.504939675 0.375615865
4.173137665 1.542862177 0.5411564708
4.18143177 1.544272184 0.6993136406
4.099431992 1.513173103 0.8411489129
4.179960728 1.541242361 1.018574953
4.170339108 1.536038995 1.179231644
2.576234818 0.9453183413 -0.7237101197
2.896633863 1.061737776 -0.7022937536
3.284627438 1.203303695 -0.6717104912
3.846519232 1.407626748 -0.6420586705
4.294758797 1.567410946 -0.2373970449
4.289176464 1.563677311 -0.07898779213
3.730449677 1.368104935 0.06865597516
4.022787094 1.473724008 0.2223242968
4.108847618 1.5044384 0.3791020811
4.212054729 1.540560126 0.5455437303
4.207207203 1.537122488 0.7027552724
4.228246689 1.543973088 0.866717279
4.207284927 1.534654617 1.023973823
4.19745636 1.529409766 1.185443282
2.564991474 0.9310472012 -0.7195689678
2.900322437 1.05161953 -0.7022937536
3.285115719 1.190493584 -0.6709472537
3.862553835 1.398224354 -0.6439358592
4.344615459 1.571013212 -0.5621179938
4.328723907 1.564412594 -0.398973614
4.337775707 1.565972447 -0.2394904792
3.699486017 1.342116475 0.06799277663
4.07109499 1.47532475 0.2247317582
4.11407423 1.490085483 0.3791020811
4.241672993 1.534628749 0.5487123728
4.245987415 1.534511328 0.7083868384
4.255768299 1.537208796 0.8712967038
4.245611668 1.531862855 1.032072067
4.23184824 1.525227785 1.193725586
2.580953598 0.9266570807 -0.723192513
2.896638155 1.038858175 -0.7004941702
3.305884838 1.184980392 -0.6743817925
3.848813057 1.378074884 -0.6408071518
4.394931793 1.571883321 -0.5679677129
4.422335625 1.580814123 -0.4071662426
4.367668152 1.559553385 -0.2408512086
3.71987772 1.326784492 -0.06823711842
4.330914974 1.554106593 0.07961608469
4.239791393 1.519735217 0.2338382006
4.153010845 1.487813473 0.3822396696
4.276909351 1.530513525 0.5526121855
4.264338017 1.5243361 0.7105769515
4.270352364 1.525645375 0.8732047677
4.27846384 1.526859522 1.038820624
4.258983612 1.518229723 1.199937224
2.589633703 0.9195821285 -0.7247454524
2.88922739 1.024831057 -0.6977947354
3.315552235 1.175402164 -0.6755266786
3.846152306 1.361993074 -0.6395556927
4.430335045 1.56712532 -0.5718675256
4.401529312 1.556069374 -0.4047258794
3.722600698 1.313125372 -0.068202205
4.370234966 1.551017046 0.08024436235
4.254482269 1.508263826 0.2343615443
4.184472084 1.482622385 0.3846800625
4.304681301 1.52352345 0.555537045
4.318056107 1.526559234 0.718711555
4.3071208 1.521849751 0.8796923161
4.309494495 1.520994544 1.045119166
4.297050953 1.514918447 1.209254622
2.585537195 0.9079759121 -0.7226748466
2.900141954 1.017321825 -0.6995943785
3.317782402 1.163171053 -0.67514503
3.843425035 1.345950365 -0.6383042336
4.450768948 1.556893349 -0.5738174319
4.450190544 1.555821657 -0.4087350667
4.442759514 1.549741864 -0.08143113554
4.407699585 1.547009706 0.0808377564
4.291762829 1.50463593 0.2361409962
4.294919014 1.504900813 0.3944415152
4.339951992 1.518979311 0.5594369173
4.353193283 1.521910667 0.7237174511
4.336500645 1.515223384 0.8846533895
4.325815678 1.509798288 1.047818661
4.349741936 1.51644361 1.222713232
2.57956624 0.8957758546 -0.7200866342
2.914722204 1.011023164 -0.7022937536
3.312547684 1.14836657 -0.6732369661
3.864899874 1.338342547 -0.6411200762
4.452424049 1.540050864 -0.5733299851
4.478190899 1.548088551 -0.4108267725
3.709787607 1.281005859 -0.203483358
4.467046738 1.540743351 -0.08178018034
4.447077274 1.543417215 0.08146603405
4.342278957 1.505345225 0.2386531085
4.443222523 1.539473295 0.407689184
4.397753716 1.521998167 0.5662615299
4.418222904 1.527357817 0.7337293029
4.414132595 1.525079131 0.8995363712
4.395534515 1.516938686 1.063565254
4.395188808 1.515102625 1.234101295
2.575368166 0.8842583895 -0.7180161476
2.921920776 1.002106428 -0.7031936049
3.301677704 1.131706357 -0.6701840162
3.848990679 1.31780386 -0.6376784444
4.521634579 1.54633832 -0.5816170573
4.508076668 1.540822864 -0.4130928218
4.498893738 1.534180045 -0.08226884902
4.461895466 1.531128764 0.08164056391
4.381514549 1.501838684 0.2405371964
4.465533733 1.529764533 0.409258008
4.459383965 1.525921106 0.5735737085
4.445957661 1.519591093 0.7374836802
4.438006878 1.516011119 0.9033525586
4.43215704 1.512283087 1.071213603
4.424222469 1.507851958 1.24083066
2.580268621 0.87588346 -0.7185336947
2.899563074 0.9831408262 -0.6968949437
3.320483685 1.125214219 -0.6732369661
3.840469122 1.299927711 -0.6354883909
4.549571991 1.538173795 -0.5845419765
4.539935112 1.532267451 -0.2489109784
4.542120457 1.531241655 -0.08296694607
4.497511387 1.525824547 0.08219903708
4.426454544 1.499995232 0.2427353263
4.50292635 1.525033355 0.4122212827
4.487248898 1.517978072 0.5764985681
4.488663197 1.51671052 0.7437410355
4.460012436 1.506162405 0.9067871571
4.472491741 1.508637786 1.079761624
4.46607399 1.504734635 1.251183391
2.605288029 0.8742470145 -0.7247454524
2.910368443 0.9754900336 -0.6986945868
3.328114033 1.114864707 -0.6740002036
3.859970093 1.29152751 -0.6379913688
4.568090916 1.526691079 -0.5862480998
3.708016872 1.238526344 -0.3383132219
4.566095352 1.523366928 -0.2500623465
4.591072083 1.529916644 -0.08376975358
4.542624474 1.523469806 0.0829320401
4.448707581 1.490245461 0.2436773777
4.53467226 1.518162251 0.4146616459
4.522641659 1.51237905 0.5803983808
4.529529572 1.512922406 0.7496855259
4.506211758 1.504262328 0.9151827693
4.503612995 1.501645327 1.086060405
4.506123066 1.500737071 1.261018395
2.611991405 0.8663631678 -0.7257806659
2.913755655 0.9653255939 -0.6986945868
3.32453084 1.100771308 -0.6724737287
3.87570715 1.281767964 -0.6398685575
4.614778519 1.523512602 -0.421459794
4.613114834 1.521178007 -0.2523651123
4.615111828 1.520943522 -0.08411879838
4.589673519 1.521445274 0.08369994909
4.480167866 1.484277248 0.2451427728
4.583449841 1.516719103 0.4186708033
4.558051109 1.506549358 0.5842982531
4.56453228 1.507808089 0.7546914816
4.554316521 1.502670527 0.9239599705
4.514120102 1.488534451 1.087410092
4.544103146 1.496662855 1.270336032
2.600164652 0.8528803587 -0.7216395736
2.928051949 0.9592988491 -0.7013939619
3.333760023 1.091574192 -0.6736186147
3.872426033 1.266453505 -0.6386170983
3.719594479 1.215752244 -0.4753470123
4.669049263 1.524278522 -0.4259918928
4.658010483 1.518873453 -0.2545632124
4.646747589 1.514306188 -0.08460746706
4.626997471 1.516805172 0.08429332823
4.515433311 1.479362488 0.2468175292
4.618751526 1.511424541 0.421459794
4.606419086 1.505611658 0.5899042487
4.5939188 1.500635982 0.7587587833
4.611534119 1.504611373 0.9346452355
4.585730076 1.495304465 1.103606582
4.567410469 1.487567186 1.275512338
2.588278055 0.8394844532 -0.7174984813
2.933071136 0.9501835108 -0.7018439174
3.339229345 1.081116796 -0.6740002036
3.869086742 1.251172662 -0.6373656392
3.710592985 1.198489189 -0.4736408293
4.69519949 1.514698863 -0.4279093146
4.702940464 1.516290069 -0.2567613423
4.69768858 1.512786746 -0.08544518799
4.658632278 1.510088801 0.08478199691
4.556672573 1.475279093 0.2488062829
4.650277138 1.504688025 0.4239001274
4.643498421 1.500704408 0.5940477848
4.632966042 1.49551475 0.7643904686
4.612761974 1.488104105 0.9338820577
4.624308109 1.490046978 1.111704707
4.605675697 1.482268929 1.284829736
2.59869647 0.8323498964 -0.7195689678
2.923377991 0.9357813597 -0.6986945868
3.335689306 1.066479921 -0.6724737287
4.703809738 1.501178503 -0.6011161804
4.742221355 1.511611223 -0.4317441583
4.73701334 1.508129835 -0.258331418
4.73533535 1.506685495 -0.08603856713
4.692441463 1.502966285 0.08530557156
4.603644371 1.472753644 0.2511090636
4.695615768 1.500369549 0.4275607169
4.673291206 1.492337584 0.5972163677
4.683325291 1.493740559 0.7718992829
4.610702515 1.468804836 0.9323556423
4.672449589 1.486676574 1.122052431
4.651324272 1.479063392 1.296217799
2.605270147 0.8244388103 -0.7206043005
2.908207178 0.9191867113 -0.6941955686
3.346880198 1.057194114 -0.6740002036
3.68955636 1.164020538 -0.6060786843
4.663839817 1.469610691 -0.5952664614
4.794977665 1.510010958 -0.4361019135
4.77082634 1.500577569 -0.2599014938
4.778718948 1.502141118 -0.08673666418
4.728423595 1.495406389 0.08586403728
4.63161087 1.463896751 0.2523651123
4.73122263 1.493567109 0.430349648
4.709021568 1.484748721 0.6011161804
4.713002682 1.485102415 0.7759665847
4.615801811 1.452700257 0.9323556423
4.696201324 1.476202369 1.126551509
4.693319798 1.474396825 1.306570649
2.619194746 0.8187986612 -0.7237101197
2.939140081 0.9182551503 -0.7009441257
3.346801758 1.044335961 -0.6732369661
3.740540981 1.166481972 -0.613900423
4.664897919 1.452955008 -0.5947790146
4.847781658 1.508058429 -0.4404597282
4.808199883 1.49482739 -0.2616809309
4.808760643 1.493158698 -0.08719042689
4.775346756 1.49284327 0.08663194627
4.665289402 1.456650496 0.2539351881
4.774449348 1.488904834 0.4338359237
4.746138096 1.47916472 0.6052597761
4.752108574 1.47920835 0.7815982103
4.652462959 1.447298288 0.9388431311
4.727123737 1.46871686 1.132850051
4.729803562 1.467739463 1.31537044
2.618204117 0.808968544 -0.7226748466
2.946051836 0.9091385007 -0.7018439174
3.342742205 1.030918241 -0.6717104912
3.874851465 1.193540454 -0.6354883909
4.681324959 1.440163255 -0.5962413549
4.881321907 1.500757933 -0.443074435
4.859210968 1.492103815 -0.2641930282
4.848095417 1.487764835 -0.087818712
4.826385498 1.490323663 0.08746965975
4.712080956 1.454127192 0.2562379837
4.807920933 1.481865168 0.4364505708
4.796804428 1.476608396 0.6111094952
4.785308838 1.472152829 0.7862912416
4.732552528 1.454117417 0.954107821
4.782523632 1.467642307 1.144997597
4.76973629 1.46280992 1.325205564
2.613621235 0.7975682616 -0.7206043005
2.945322037 0.8982292414 -0.7009441257
3.357588768 1.022674799 -0.6740002036
3.912804842 1.191037774 -0.6411200762
4.682276726 1.423477888 -0.5957539678
4.911314487 1.491236091 -0.4453404844
4.910000801 1.489901304 -0.2667051554
4.889620304 1.481853366 -0.08848190308
4.858077526 1.482482672 0.08795833588
4.764890194 1.452228069 0.2588547766
4.847373486 1.475515604 0.4395881891
4.83396101 1.470513701 0.6152530313
4.826330185 1.466349602 0.7922357917
4.80873394 1.460089326 0.9686092734
4.820931911 1.461952806 1.153095722
4.793303013 1.451750159 1.330381989
2.612552643 0.7877805829 -0.7195689678
2.937243938 0.8845701814 -0.6982446909
3.360961914 1.011534095 -0.6740002036
3.901803255 1.172825813 -0.6386170983
4.694821835 1.409409046 -0.5967288613
4.945116997 1.482664824 -0.4479551315
4.941956997 1.480777621 -0.2681705952
4.940742016 1.478534341 -0.08931962401
4.886197567 1.472440481 0.08837718517
4.815830708 1.449399829 0.2613669038
4.899937153 1.473782897 0.4439459443
4.873286247 1.463909626 0.6196403503
4.867367268 1.460282087 0.7981802225
4.843890667 1.452314734 0.9747151732
4.865208149 1.456858277 1.162543654
4.844613552 1.44884634 1.343322992
2.626532078 0.7815061212 -0.7226748466
2.938445807 0.8737556338 -0.6977947354
3.37782073 1.003121853 -0.676671505
3.917438507 1.161888003 -0.640494287
4.69971323 1.393011332 -0.5967288613
5.003753185 1.481232643 -0.4528358579
4.979911804 1.472281933 -0.2699500024
4.984226704 1.472614288 -0.09001772106
4.929641247 1.466779947 0.08907528222
4.847662926 1.440548778 0.2628323138
4.933957577 1.464315653 0.4465606511
4.910719395 1.456488967 0.6237838864
4.925468445 1.458990812 0.8069406152
4.900011539 1.449589968 0.985018909
4.900416851 1.447852254 1.169742107
4.895960331 1.445604086 1.356263876
2.625537157 0.7712433338 -0.7216395736
2.943498373 0.8635290861 -0.6982446909
3.362462282 0.9858007431 -0.6728553176
3.921470642 1.148205519 -0.640494287
4.693354607 1.372434616 -0.5952664614
5.045229435 1.474374175 -0.4561477602
5.032951832 1.468879938 -0.2725668252
5.031570435 1.467523813 -0.0907856226
4.981033802 1.462221503 0.08991300315
4.879493237 1.431488514 0.264297694
4.973454952 1.457168698 0.4496982396
4.948413372 1.447954059 0.6279274225
4.962762356 1.45121491 0.812259376
4.950270653 1.445684075 0.9941777587
4.937244892 1.440012455 1.177390456
4.934360981 1.438234448 1.365581393
2.62821269 0.762075603 -0.7216395736
2.961319923 0.8581014872 -0.7018439174
3.369654179 0.9751514792 -0.6736186147
3.929052353 1.136291742 -0.6411200762
4.705508709 1.359067559 -0.5962413549
5.082890034 1.466140151 -0.4591110647
5.068500996 1.461031675 -0.2742415369
5.059722424 1.456588626 -0.09120447934
5.031948566 1.45906198 0.09075071663
4.922829628 1.425556779 0.2663911581
5.014876366 1.450314641 0.4530101717
5.000863552 1.445316553 0.6340209246
4.996266842 1.442098618 0.8169524074
4.987104893 1.438511372 1.000665307
4.977572441 1.433879972 1.185938597
4.970912457 1.43008256 1.374381185
2.634440184 0.7544189692 -0.7226748466
2.969918013 0.8493674994 -0.7031936049
3.363431454 0.961273551 -0.6717104912
3.925396442 1.120399952 -0.6398685575
4.702588081 1.340456128 -0.5952664614
5.120299339 1.458554387 -0.4620743692
5.117753983 1.455900908 -0.2766489983
5.110688686 1.452924371 -0.09204219282
5.07161665 1.451390266 0.09137900174
4.973616123 1.422405601 0.2689032853
5.057973385 1.444621205 0.4564963877
5.045966148 1.439287186 0.6391394138
5.044714451 1.437978029 0.8241484165
5.026083469 1.430770636 1.007534385
5.027535439 1.429284453 1.196736336
5.005360126 1.422038794 1.382663488
2.62218523 0.7410147786 -0.7185336947
2.959590197 0.8358073831 -0.7000442743
3.383772373 0.9543222785 -0.67514503
3.923386097 1.105771899 -0.6389299631
4.722294807 1.329155803 -0.5972163677
5.165637493 1.451995134 -0.465734899
5.162933826 1.450263023 -0.2788471282
5.161938667 1.448039651 -0.09287991375
5.109116077 1.443807602 0.09197238833
5.03044939 1.419683576 0.2717294097
5.105174065 1.438848495 0.4603312612
5.083194256 1.431693435 0.6432829499
5.093439579 1.432663083 0.8313444257
5.072381496 1.425782084 1.015929937
5.079152584 1.425772548 1.207983732
5.054937363 1.417071939 1.395086765
2.635792494 0.7354310155 -0.7216395736
2.954981089 0.8233783841 -0.6982446909
3.383135796 0.9420434833 -0.6743817925
3.921513081 1.090481281 -0.6379913688
4.715428829 1.309477925 -0.5957539678
5.197301865 1.442317247 -0.4681752324
5.204534531 1.442368031 -0.2808358967
5.220923901 1.444948196 -0.09385724366
5.158427715 1.438318729 0.09277520329
5.079628468 1.414436579 0.2741368711
5.155984879 1.434728622 0.4645147026
5.126412868 1.42457211 0.6481577158
5.13457489 1.424909711 0.8372888565
5.11327219 1.418036938 1.023180723
5.114146709 1.416357398 1.215182185
5.108263016 1.412808299 1.408545375
2.642068863 0.7272518277 -0.7226748466
2.961595535 0.8140907884 -0.6991444826
3.382616997 0.9291889668 -0.6736186147
3.950060844 1.083578587 -0.6420586705
4.716142178 1.291959763 -0.5952664614
5.256112099 1.438895345 -0.4730559886
5.249995232 1.435251117 -0.2830339968
5.254872322 1.43461585 -0.09438081831
5.2116189 1.433561087 0.09364781529
5.109571457 1.403575182 0.2754976153
5.195545673 1.426214337 0.4676523507
5.183044434 1.420840025 0.6547386646
5.171907902 1.415843725 0.842607677
5.167426109 1.413650274 1.033102751
5.166056633 1.411334753 1.22642982
5.167212963 1.409712672 1.423556805
2.644591331 0.7180241346 -0.7226748466
2.970061541 0.8052784801 -0.7004941702
3.395314932 0.919942081 -0.6755266786
3.946191072 1.067720652 -0.6408071518
4.728288651 1.277561665 -0.5962413549
5.2918787 1.428850174 -0.4758449793
5.303182602 1.429916501 -0.2856507897
5.296535492 1.426141262 -0.09504400939
5.264839172 1.428452134 0.09452044219
5.168416977 1.400354505 0.2784284353
5.246647835 1.420567751 0.4718358219
5.235879898 1.415691018 0.6608321667
5.224494934 1.410655856 0.8504293561
5.219716072 1.408388376 1.042643189
5.210465431 1.403941274 1.235877752
5.194488049 1.397691727 1.429768562
2.628420353 0.7037922144 -0.7174984813
2.978502512 0.7964154482 -0.7018439174
3.392814875 0.9065648317 -0.6743817925
3.944168568 1.052410483 -0.6398685575
4.75190115 1.266161203 -0.5986788273
5.350743294 1.424721956 -0.4807256758
5.366047382 1.426794052 -0.288790971
5.345934391 1.419445634 -0.0958468169
5.302632809 1.418854117 0.09511382133
5.215723038 1.393648505 0.2807312012
5.293923378 1.413553953 0.4756706655
5.277233601 1.407121658 0.6654632092
5.269474506 1.403082848 0.8569996357
5.262546062 1.400254607 1.050275683
5.269952774 1.400255799 1.248924851
5.244148731 1.391442776 1.442191839
2.636465073 0.6960918307 -0.7190513611
2.96995759 0.7830348611 -0.6991444826
3.399755955 0.8957156539 -0.67514503
3.934445381 1.035120845 -0.6376784444
4.756292343 1.249565005 -0.5986788273
5.401932716 1.418181539 -0.4849091768
5.399974823 1.415650129 -0.290361017
5.401153564 1.413944483 -0.09675434232
5.338490009 1.408496499 0.0956722945
5.261115551 1.386118293 0.2829293311
5.339286327 1.405717015 0.4793311954
5.326269627 1.400302172 0.6710692048
5.327836037 1.398728728 0.8657599688
5.305381775 1.391841412 1.057908058
5.318166256 1.393211365 1.259272695
5.291959763 1.384372354 1.454097509
2.650096178 0.6898036599 -0.7221571803
2.96701479 0.7711915374 -0.6977947354
3.404762268 0.8843354583 -0.6755266786
3.936122417 1.020883799 -0.6373656392
4.722190857 1.223001719 -0.5938040018
5.422281265 1.40330863 -0.4863036573
5.453226566 1.409286737 -0.2929778397
5.448654652 1.406073809 -0.09752225131
5.395626545 1.403445601 0.09661472589
5.31618309 1.380798101 0.2856507897
5.39815855 1.401087165 0.4842118919
5.361871243 1.389668584 0.6749690175
5.378583431 1.391999483 0.8732687831
5.352023602 1.384126425 1.066303492
5.364507675 1.385360122 1.269170523
5.341655254 1.377470016 1.466520786
2.658101082 0.6819910407 -0.7237101197
2.973464489 0.7617965341 -0.6986945868
3.400220156 0.8704999089 -0.6740002036
3.966456175 1.013986588 -0.6417457461
4.734125137 1.208473563 -0.5947790146
5.515953541 1.407024264 -0.4943219721
5.504563808 1.402072906 -0.2954899371
5.494226456 1.397400618 -0.09825524688
5.460541725 1.399996877 0.09769678116
5.353862762 1.370657444 0.2874302268
5.44355154 1.392603874 0.4878724515
5.428235054 1.386669755 0.6827686429
5.417863846 1.382003307 0.8789004683
5.417699337 1.380957127 1.078515291
5.414635658 1.378160954 1.279968143
5.402601242 1.373090148 1.482049942
2.651100874 0.6703398228 -0.7211219072
2.97043705 0.7499819994 -0.6973448992
3.403238297 0.8586246967 -0.6740002036
3.956562519 0.9967576265 -0.6395556927
4.757565975 1.196782351 -0.5972163677
5.586528301 1.404276848 -0.500248611
5.555916786 1.39451766 -0.2980020642
5.543684006 1.389393449 -0.09905806184
5.513864517 1.393172622 0.09856939316
5.410902023 1.365151048 0.2902563512
5.496677876 1.38576889 0.4922302365
5.48116827 1.379827023 0.6888620853
5.464801788 1.373678684 0.8857836127
5.471993446 1.374471307 1.088437438
5.46477747 1.37063098 1.290765762
5.454211235 1.365954757 1.494990945
2.644052029 0.6587470174 -0.7185336947
2.988165855 0.7433715463 -0.7009441257
3.415740728 0.8491087556 -0.6759082675
3.95618391 0.981987834 -0.6389299631
4.769420624 1.182081461 -0.5981913209
5.622340202 1.39242959 -0.5030375719
5.620854378 1.389982581 -0.3012469113
5.604801178 1.383934021 -0.1000702977
5.551681042 1.382133603 0.0991627723
5.471844196 1.360229373 0.293291837
5.555622101 1.380026102 0.4971109927
5.549533367 1.376454353 0.6969054937
5.544343948 1.373113155 0.8979854584
5.535836697 1.36998105 1.100267529
5.547094345 1.370712399 1.30921185
5.505835533 1.35848093 1.507931948
2.655716181 0.6518152952 -0.7211219072
2.969922304 0.7278346419 -0.695995152
3.418684006 0.8371795416 -0.6759082675
3.95574975 0.9672346711 -0.6383042336
4.777375698 1.166366339 -0.5986788273
5.646521568 1.377518773 -0.5047807097
5.676126003 1.382642031 -0.30396837
5.660116673 1.376649737 -0.1009778306
5.599199295 1.373223662 0.09993068129
5.517297745 1.351095557 0.2954899371
5.610723972 1.372936249 0.5016431212
5.594799519 1.366969943 0.702023983
5.5989995 1.365925431 0.9061200023
5.576826096 1.359484673 1.107518315
5.595395565 1.361939669 1.319559574
5.546211243 1.347920418 1.517766953
2.656097889 0.6420865059 -0.7206043005
2.980021954 0.7192927599 -0.6977947354
3.419677496 0.8247798681 -0.6755266786
3.955260515 0.952496469 -0.6376784444
4.777557373 1.148755908 -0.5981913209
5.728786469 1.376419783 -0.5117532015
5.65761137 1.357230544 -0.3027123213
5.72104454 1.371391773 -0.1019900665
5.664215565 1.368227124 0.1010127291
5.566402435 1.343571544 0.2978973985
5.627103806 1.356144786 0.5026890039
5.60918808 1.349752903 0.7032427192
5.609260082 1.348737478 0.9070586562
5.573901653 1.338174939 1.10599184
5.569793224 1.335135341 1.312361121
5.561923027 1.332219601 1.520872831
2.66208148 0.6337063909 -0.7216395736
3.003245354 0.7143663764 -0.7027437091
3.407254457 0.809209466 -0.6724737287
3.977617264 0.9439350963 -0.6408071518
4.758161068 1.127413034 -0.5952664614
5.611406803 1.327515244 -0.5007715225
5.559066296 1.314108253 -0.2971647084
5.776398659 1.363354802 -0.1028975919
5.715410233 1.360548973 0.10185045
5.625466347 1.337063193 0.3008282185
5.622110844 1.334192634 0.5018174052
5.607837677 1.329771638 0.7025114894
5.583178043 1.321866035 0.9020527601
5.578308105 1.319684982 1.10599184
5.557121277 1.312624574 1.308311939
5.575940609 1.315015078 1.523461103
2.65664506 0.6231111288 -0.7195689678
2.99243927 0.7007676363 -0.6995943785
3.411830187 0.7983540893 -0.6728553176
3.980888128 0.930043757 -0.6408071518
4.76593399 1.111700058 -0.5957539678
5.592494488 1.303471446 -0.4986797869
5.557783127 1.293338656 -0.2968506813
5.815947056 1.352342606 -0.103525877
5.772691727 1.352911234 0.1027928814
5.692098141 1.332972169 0.3041777015
5.630383968 1.31645 0.5021660328
5.633708954 1.315153718 0.7051925659
5.59330225 1.304691672 0.9029913545
5.619210243 1.308667064 1.113242626
5.586345196 1.298954844 1.314160705
5.591560364 1.299141645 1.526566744
2.65880394 0.613833189 -0.7195689678
3.00613904 0.6934707165 -0.7022937536
3.412683725 0.7859982252 -0.6724737287
3.982025146 0.9163972735 -0.640494287
4.77733326 1.097666264 -0.5967288613
5.589241982 1.282161236 -0.4979825318
5.565935612 1.275792241 -0.2970600426
5.892756462 1.348539591 -0.1048173606
5.827806473 1.345454931 0.1037004068
5.751210213 1.325657129 0.3071085513
5.708726406 1.313769102 0.5087898374
5.694143772 1.309363961 0.7122610211
5.663282871 1.300186276 0.9136289358
5.671358109 1.300998449 1.122782946
5.668503284 1.298261046 1.332606673
5.637493134 1.289088011 1.537954807
2.660824776 0.6050134301 -0.7195689678
3.002840519 0.6816781759 -0.7009441257
3.419100285 0.7755462527 -0.6732369661
3.979419947 0.9011818767 -0.6395556927
4.827604294 1.091490865 -0.6025785804
5.558481693 1.255717993 -0.4948449135
5.543077946 1.250204802 -0.2955946028
5.973510742 1.345092177 -0.1061786413
5.914367676 1.343712449 0.1051664054
5.905781269 1.339594126 0.3151682615
5.736370087 1.300114274 0.5108816028
5.725785732 1.295614362 0.7156733871
5.89129734 1.330904484 0.9499217272
5.867372513 1.324420452 1.160944819
5.887820721 1.326879501 1.383445621
5.841741085 1.314349651 1.592824459
2.674232006 0.5982528329 -0.7226748466
2.982379198 0.6660940051 -0.6955452561
3.444779873 0.7687386274 -0.6778163314
4.003751278 0.8920099139 -0.6429972649
4.796506405 1.066873431 -0.5981913209
5.574500561 1.238899589 -0.4958907962
5.543509483 1.229981542 -0.2953852713
5.974264622 1.323371768 -0.1061088368
5.946343899 1.329164863 0.1056550741
5.935762405 1.324627399 0.3165290058
5.758375168 1.283983707 0.512450397
5.73027277 1.275621057 0.7156733871
5.924832344 1.316758752 0.9546146989
5.894958019 1.309042692 1.165524244
5.890513897 1.305895567 1.382995725
5.872700214 1.299795985 1.60007143
2.683850765 0.5905743241 -0.7247454524
2.992299557 0.6573526859 -0.6973448992
3.435937166 0.754183054 -0.6755266786
3.995262623 0.8754925728 -0.6411200762
4.807958603 1.051819682 -0.5991662741
5.579003811 1.218461037 -0.4958907962
5.551671505 1.211473703 -0.2955946028
5.969078541 1.300379753 -0.105934307
5.954852581 1.30926013 0.1057248861
5.938399315 1.303469777 0.31642434
5.784229279 1.268568754 0.5143678188
5.910093784 1.291852117 0.9514860511
5.893737316 1.28719914 1.164379358
5.883612633 1.282836318 1.38029635
5.882864952 1.280519605 1.60162437
2.674667835 0.5782846212 -0.7216395736
3.007909775 0.6497831941 -0.7004941702
3.407971859 0.7349633574 -0.6694207788
4.0100317 0.8633369207 -0.6429972649
4.81936264 1.036703467 -0.6001412272
5.559847832 1.193957925 -0.4937990308
5.550215721 1.189862967 -0.2952806056
5.942296028 1.27283299 -0.1053758338
5.957431793 1.288044453 0.1056899726
5.933152199 1.28062439 0.3159009516
5.775206089 1.244423509 0.5131476521
5.887530327 1.265401483 0.9471058846
5.879219532 1.261471391 1.160563111
5.888275146 1.261261702 1.38029635
5.866518021 1.255533457 1.595930338
2.65777421 0.5649275184 -0.7164632082
3.008364677 0.6383504272 -0.7000442743
3.433563471 0.72794801 -0.6740002036
4.001425266 0.846880734 -0.6411200762
4.807592869 1.015746474 -0.5981913209
5.567880154 1.175367355 -0.4941476882
5.546518326 1.168832898 -0.2948619127
5.943007469 1.250222921 -0.1053060293
5.944507599 1.262463212 0.1053758338
5.937805653 1.258871078 0.3159009516
5.834089756 1.235821247 0.5180283785
5.79208231 1.224807858 0.7217668295
5.890195847 1.243407488 0.9467930198
5.889350414 1.242155313 1.161707997
5.881199837 1.238292336 1.377596974
5.855957031 1.230839968 1.591789246
2.671075821 0.5580176115 -0.7195689678
3.022021055 0.6302316785 -0.7027437091
3.428395748 0.7143570781 -0.6724737287
3.994687319 0.8308955431 -0.6395556927
4.834432602 1.003804803 -0.6011161804
5.579752922 1.15754199 -0.4948449135
5.552519798 1.149873734 -0.2949666083
5.951251984 1.230278254 -0.1053758338
5.935175896 1.23884356 0.1051314995
5.942163467 1.238137841 0.3159009516
5.902738094 1.2288481 0.5237807035
5.912936211 1.228818059 0.7363911271
5.913842201 1.226850152 0.9499217272
5.864814281 1.215614557 1.155983806
5.881669998 1.216964245 1.376697063
5.858324528 1.210004687 1.59127152
2.676792622 0.54946661 -0.7206043005
3.005111217 0.6157692671 -0.6982446909
3.446255684 0.7055345774 -0.6755266786
4.003368855 0.8181356788 -0.640494287
4.791055202 0.978235364 -0.5952664614
5.622803688 1.146019816 -0.4983311594
5.570199966 1.133270621 -0.2956992984
5.947460175 1.208944321 -0.1052362099
5.937505722 1.217715144 0.1050965935
5.930583477 1.215219975 0.3150635958
5.928462982 1.212626338 0.5256980658
5.895795822 1.203800678 0.7337100506
5.888845444 1.201310992 0.9452286363
5.859403133 1.19317472 1.154075623
5.870396137 1.194346309 1.373097897
5.862305164 1.190569401 1.59127152
2.689961672 0.5428805947 -0.7237101197
3.003316164 0.6050300598 -0.6973448992
3.448575974 0.6941031814 -0.6755266786
4.021553516 0.8079672456 -0.6429972649
4.798165798 0.9631246924 -0.5957539678
5.663691044 1.134803176 -0.5016431212
5.601346016 1.12027514 -0.2971647084
5.939670563 1.18686533 -0.1050267816
5.941511631 1.198017359 0.1050965935
5.924791813 1.193572998 0.314540267
5.922685146 1.19099462 0.5248265266
5.895862103 1.183462739 0.7332225442
5.896670341 1.182551503 0.9458544254
5.859477997 1.172968268 1.153312445
5.870502949 1.174106836 1.372198105
5.864326477 1.17074585 1.590753913
2.67658782 0.5309494734 -0.7195689678
3.016775608 0.5973389745 -0.7000442743
3.431599617 0.6788525581 -0.6717104912
4.020334721 0.7938622832 -0.6423715353
4.828598976 0.9525856972 -0.5991662741
5.677197456 1.117938519 -0.5025146604
5.652064323 1.110940218 -0.2996768057
5.927876472 1.164077878 -0.1047475487
5.939566135 1.17714572 0.104991883
5.905206203 1.169265032 0.3132841885
5.914875031 1.169031143 0.5237807035
5.901702404 1.164287448 0.7334663272
5.881178379 1.159172177 0.942725718
5.8671875 1.154287338 1.154075623
5.859066963 1.151627541 1.368598938
5.847324371 1.14719975 1.58506
2.674541235 0.5213319659 -0.7185336947
3.030217409 0.5895639658 -0.7027437091
3.445394754 0.6697174907 -0.6740002036
4.011310101 0.7782674432 -0.640494287
4.812243462 0.9327917099 -0.5967288613
5.719995499 1.10667634 -0.5060008764
5.685133457 1.097870111 -0.3012469113
5.935631275 1.145172834 -0.1048173606
5.931660652 1.15514791 0.1047824472
5.926696301 1.153107524 0.3142262399
5.903071404 1.146372795 0.5223861337
5.897735596 1.143200517 0.732491374
5.890807629 1.140791059 0.943664372
5.861345768 1.132962942 1.152167678
5.864767551 1.132559657 1.369048715
5.84350872 1.126341701 1.582989454
2.680407763 0.5113161802 -0.7195689678
3.028731108 0.5766654611 -0.7018439174
3.448055267 0.6558822989 -0.6740002036
4.006639481 0.760684073 -0.6392428279
4.847314835 0.9185384512 -0.6006287336
5.867298603 1.110758781 -0.5187256336
5.715007305 1.079861879 -0.3026076555
5.99932766 1.131416202 -0.1058645025
5.918570995 1.127956748 0.1044683158
5.925587654 1.127153635 0.3139122128
5.909583092 1.123037696 0.5225604773
5.888624191 1.116928101 0.7307851315
5.887771606 1.114634633 0.9424129128
5.856200695 1.107602119 1.150259495
5.877119064 1.109431028 1.370848298
5.844378471 1.101137996 1.581954122
2.689771891 0.5033774376 -0.7216395736
3.023062944 0.5646591187 -0.7000442743
3.469623327 0.6474427581 -0.6778163314
4.017037868 0.7481411695 -0.640494287
4.834877968 0.8987113833 -0.5986788273
6.049399376 1.123375535 -0.5345879793
5.995639801 1.111227393 -0.3173663914
6.0406003 1.117379785 -0.1065276861
6.006994724 1.123094082 0.1059692204
5.988387585 1.117452145 0.3170523643
5.99377203 1.11737442 0.529707253
5.937374115 1.104716301 0.7363911271
5.96737051 1.108142734 0.9546146989
5.927592754 1.099685788 1.16361618
5.923111916 1.096715927 1.380746245
5.901377678 1.09056139 1.596448064
2.687712431 0.4932871461 -0.7206043005
3.028849602 0.5548046827 -0.7009441257
3.444825888 0.6303791404 -0.6724737287
4.041000366 0.7380173206 -0.6439358592
4.853609085 0.8846777081 -0.6006287336
6.067005157 1.104749084 -0.535808146
6.05843401 1.101006746 -0.3205065429
6.036402702 1.095911741 -0.1063880697
6.022678852 1.104283929 0.1061786413
6.00188303 1.099385381 0.3175757229
6.015274525 1.099671483 0.5312760472
5.991968632 1.093246579 0.7427283525
5.955465794 1.085515499 0.9521117806
5.960368633 1.084256768 1.169340372
5.953747749 1.080905676 1.387044787
5.948681355 1.078913569 1.608353734
2.685615301 0.4832186401 -0.7195689678
3.028754234 0.5444133878 -0.7004941702
3.447005033 0.6183513403 -0.6724737287
4.027870178 0.7218260169 -0.6414328814
4.829158783 0.8636835814 -0.5972163677
6.061017513 1.0818156 -0.5349366069
6.052220345 1.079155445 -0.3199831843
6.032316208 1.073434114 -0.1062484533
6.02630806 1.084304333 0.1061786413
5.9997859 1.077370405 0.3172616959
6.013193607 1.077611566 0.5307531357
5.989698887 1.072322249 0.7419971228
5.976719856 1.067845702 0.9549276233
5.961998463 1.06414187 1.168958783
5.95538044 1.060815811 1.386595011
5.950508595 1.0578053 1.607836008
2.691007853 0.4749822915 -0.7206043005
3.034474611 0.5345144868 -0.7013939619
3.452903509 0.607598424 -0.6732369661
4.024528503 0.7067376375 -0.640494287
4.890803337 0.8570998907 -0.6045285463
6.092233181 1.065458655 -0.5373769403
6.097267628 1.065239429 -0.3221812844
6.073456287 1.058897853 -0.1069116443
6.035964489 1.064302087 0.1062833592
6.025147915 1.06022954 0.3184131086
6.00103569 1.054903865 0.5293586254
5.999270916 1.052438021 0.7427283525
5.984302998 1.047656298 0.9555533528
5.97728014 1.045354724 1.171248555
5.976325035 1.04303515 1.390644073
5.940842628 1.034705758 1.604212523
2.68892312 0.464459002 -0.7195689678
3.024799824 0.5219300389 -0.6986945868
3.46671629 0.5969384909 -0.6755266786
4.025145531 0.6916466951 -0.6401814222
4.878112316 0.8373392224 -0.6025785804
6.103770733 1.045530081 -0.5380741954
6.124754906 1.046924233 -0.3234373331
6.120481491 1.045094371 -0.1076795533
6.063289165 1.047314882 0.106702216
6.058335781 1.044278622 0.3199831843
6.046096802 1.039996147 0.5330191851
6.038124084 1.037539721 0.7471156716
6.032702923 1.034440637 0.9627493024
6.008162975 1.028076887 1.176591158
6.024289131 1.028669238 1.400991797
5.938705444 1.012985945 1.602659583
2.698147297 0.4563580453 -0.7216395736
3.019006014 0.5095434189 -0.6968949437
3.480394363 0.5867912173 -0.6778163314
4.029482841 0.6779206395 -0.640494287
4.861429691 0.8170150518 -0.6001412272
6.111312866 1.024878025 -0.538422823
6.140192032 1.027514696 -0.3240653872
6.133953094 1.02537334 -0.1078540757
6.12229681 1.034408212 0.1076795533
6.087545872 1.027447104 0.3213438988
6.090948582 1.025832057 0.5366796851
6.079081535 1.021654367 0.7517467141
6.063551426 1.017953396 0.9671295285
6.050440788 1.013584137 1.184223533
6.046887398 1.011901021 1.405490875
5.946015358 0.9928902984 1.603694916
2.703457832 0.4480391443 -0.7226748466
3.03221488 0.5014376044 -0.6995943785
3.455203295 0.5707659721 -0.6724737287
4.041454315 0.6661618948 -0.6420586705
4.832772732 0.7957279086 -0.5962413549
6.130405426 1.007191658 -0.5398172736
6.139623165 1.006502509 -0.3238560557
6.129426003 1.003735423 -0.1077144593
6.119774342 1.013121724 0.1075748429
6.092890263 1.007581592 0.3214485943
6.100214958 1.006602526 0.5372026563
6.080476761 1.001165509 0.7515029311
6.078588486 0.9997650385 0.9690066576
6.05764389 0.9941487908 1.184986711
6.040594578 0.9902681112 1.403241277
5.937836647 0.9712943435 1.600589037
2.701114655 0.4384531379 -0.7216395736
3.037708521 0.4920018911 -0.7004941702
3.449324369 0.5580514669 -0.6709472537
4.045590878 0.6530699134 -0.6423715353
4.843360901 0.780115068 -0.5972163677
6.131917 0.9854687452 -0.5396429896
6.146871567 0.9867686033 -0.3240653872
6.121045589 0.9804343581 -0.1075050309
6.125073433 0.9931464195 0.1076097414
6.100313663 0.9869436622 0.3216579258
6.09171772 0.9844590425 0.5361567736
6.081803799 0.9806817174 0.7512592077
6.064488888 0.9757179618 0.9661909342
6.057029724 0.9734335542 1.184223533
6.04786253 0.9697948694 1.404141188
5.9259305 0.9481182694 1.596448064
2.691255093 0.426735431 -0.7185336947
3.039407492 0.4813945293 -0.7004941702
3.466860056 0.5478575826 -0.6740002036
4.04795742 0.6382386088 -0.6423715353
4.86958456 0.7669130564 -0.6001412272
6.139256477 0.9646752477 -0.5399916172
6.150446892 0.9642339945 -0.3240653872
6.116528034 0.9578227401 -0.107365407
6.108752728 0.9686265588 0.1072606966
6.103721142 0.965644896 0.3216579258
6.08347702 0.9602626562 0.5351108909
6.085189819 0.9594476223 0.7512592077
6.06395483 0.9539273977 0.965565145
6.050859451 0.9497061968 1.182315469
6.055226803 0.9482232332 1.40504086
5.91584301 0.9253413677 1.592824459
2.700365067 0.4185214341 -0.7206043005
3.05270648 0.4720387459 -0.7031936049
3.476512671 0.536950469 -0.6755266786
4.036494732 0.621997714 -0.6401814222
4.891983032 0.7520750165 -0.6025785804
6.126832008 0.9408215284 -0.5385971069
6.130084515 0.9391309619 -0.3228093386
6.123787403 0.9370723963 -0.1074352115
6.106333733 0.9453110099 0.1071559787
6.103107452 0.9437209368 0.3214485943
6.086791515 0.9390228391 0.5351108909
6.078855515 0.935626328 0.7500405312
6.069200039 0.9330559373 0.9658780098
6.034732342 0.9256008863 1.178499222
6.052720547 0.926197648 1.403691173
5.922856808 0.9052678347 1.593859792
2.701809406 0.4090934396 -0.7206043005
3.042694092 0.4601652026 -0.7004941702
3.470600367 0.5236409903 -0.6740002036
4.04439497 0.6094927192 -0.6411200762
4.87874651 0.7334885001 -0.6006287336
6.157663822 0.9235648513 -0.5410374999
6.117362976 0.9164316058 -0.3219719529
6.125043869 0.9153935909 -0.107400313
6.09757185 0.9232615232 0.1069465503
6.088591099 0.9197249413 0.3205065429
6.08215189 0.9165838957 0.5344136357
6.062295437 0.9125065207 0.7476031184
6.062652588 0.9103993177 0.9643136859
6.033885479 0.9049997926 1.177736044
6.046122551 0.9046803713 1.401441693
5.920247555 0.8837332129 1.592306852
2.718439341 0.4023939073 -0.7247454524
3.032714844 0.447832495 -0.6977947354
3.483971357 0.5138470531 -0.676289916
4.052361012 0.5962330699 -0.6420586705
4.881277561 0.7164527774 -0.6006287336
6.164635181 0.9037194848 -0.5413861275
6.12447691 0.8956488967 -0.3221812844
6.110237598 0.8924772739 -0.1070861667
6.104714394 0.9025546908 0.1070163622
6.077776432 0.8974882364 0.3197738528
6.089100361 0.8969888091 0.5347622633
6.073299408 0.8924953341 0.7485781312
6.055866241 0.888853848 0.9627493024
6.044777393 0.8850710392 1.179262519
6.033817768 0.8813152313 1.397842526
5.923146248 0.8640944958 1.592306852
2.700707197 0.3901408613 -0.7195689678
3.045755863 0.4394435287 -0.7004941702
3.470197678 0.4994458258 -0.6732369661
4.06213665 0.5839146972 -0.6433101296
4.848255634 0.6951910853 -0.5962413549
6.195363998 0.8861461282 -0.5438264608
6.12741375 0.8753327131 -0.3221812844
6.099457264 0.8691697121 -0.1068418324
6.105693817 0.8820210695 0.1069814488
6.082849026 0.8765535951 0.3198785186
6.080361843 0.8740258813 0.5337164402
6.068366051 0.8712235689 0.7476031184
6.055021286 0.8671478033 0.9621236324
6.03407526 0.8630763888 1.176591158
6.030919552 0.8604741096 1.396492839
5.918476582 0.8423232436 1.590236306
2.700073719 0.3809122741 -0.7190513611
3.066568613 0.4315238595 -0.7049931884
3.483500004 0.4895739853 -0.6755266786
4.054368973 0.568361342 -0.6417457461
4.901767731 0.6854117513 -0.6025785804
6.198268414 0.8655949235 -0.5438264608
6.130431652 0.8539400697 -0.3221812844
6.102454185 0.8478716016 -0.1068418324
6.094874382 0.8587511778 0.1067371219
6.077960968 0.8542016149 0.3194598258
6.069414616 0.8519232869 0.5324962139
6.077268124 0.8508597612 0.7483343482
6.044316769 0.8440953493 0.9599335194
6.042884827 0.8428202868 1.177736044
6.031955719 0.8391497135 1.396042824
5.90607214 0.8195358515 1.586095214
2.705214262 0.3720118403 -0.7200866342
3.041026831 0.4171102047 -0.6986945868
3.489077806 0.4779449105 -0.676289916
4.05828619 0.5544718504 -0.6420586705
4.876594067 0.6645433903 -0.5991662741
6.232840061 0.8482509255 -0.5466154218
6.10962534 0.8293132186 -0.3209252357
