# .PCD v0.7 - Point Cloud Data file format
VERSION 0.7
FIELDS x y z
SIZE 4 4 4
TYPE F F F
COUNT 1 1 1
WIDTH 1295
HEIGHT 1
VIEWPOINT 0 0 0 1 0 0 0
POINTS 1295
DATA ascii
1.755159974 5.276210785 -0.2892096341
1.762613773 5.295523167 -0.0967194438
1.752110362 5.294795513 0.09664962441
1.751561046 5.290031433 0.2898376882
1.75358355 5.289959431 0.4838632941
1.739715934 5.241998672 0.6730191112
1.737845063 5.233306408 0.8666985631
1.730398417 5.204806805 1.057908058
1.740540981 5.229208469 1.262421966
1.733916521 5.206282139 1.458756328
1.485571146 4.439902782 -1.242901206
1.665523291 4.974845409 -1.201235294
1.759958625 5.250822544 -1.068211675
1.764955163 5.256594181 -0.6757002473
1.775725245 5.282568455 -0.4838632941
1.779015541 5.289291382 -0.2902563512
1.783639431 5.296919346 -0.09685906023
1.773467302 5.3003335 0.09685906023
1.771281123 5.28767395 0.2900469899
1.777107716 5.29891777 0.4852577746
1.758351564 5.239965439 0.6735065579
1.758619905 5.234698296 0.8679500222
1.751400828 5.210206032 1.060197592
1.756627798 5.219713688 1.261522055
1.754548073 5.207520962 1.460826755
1.500285387 4.434952736 -1.242901206
1.690381289 4.991149902 -1.206634045
1.76538837 5.209629059 -1.060960889
1.779854655 5.246293545 -0.8707658648
1.789676428 5.269198418 -0.67813766
1.794796944 5.278223991 -0.4840376079
1.800042391 5.290611744 -0.2906750441
1.805341005 5.300125599 -0.09703358263
1.79195714 5.294111252 0.09685906023
1.788447142 5.277675152 0.2898376882
1.794668794 5.29299593 0.4852577746
1.779823422 5.243193626 0.6747252345
1.774338126 5.221046448 0.8666985631
1.773370743 5.215212345 1.062487364
1.776092172 5.217240334 1.262421966
1.772716403 5.20136404 1.460826755
1.509020209 4.407491684 -1.236689448
1.772844791 5.175106049 -1.252974033
1.783195853 5.199409962 -1.060197592
1.799711585 5.241603374 -0.8710787296
1.809349656 5.266673088 -0.6786250472
1.809969306 5.262506485 -0.4831660688
1.821370959 5.289644718 -0.2909890711
1.817967296 5.276776314 -0.0967194438
1.813015938 5.29539156 0.09699867666
1.810743332 5.282736778 0.2904657125
1.810177803 5.275074959 0.4842118919
1.800047755 5.242582321 0.6754564643
1.792553425 5.214820862 0.8666985631
1.7911973 5.204964638 1.061724186
1.79710567 5.216223717 1.263771653
1.788342237 5.187839031 1.458756328
1.521868467 4.3948946 -1.234618902
1.801373839 5.196191788 -1.259722471
1.81613338 5.235814095 -1.068974853
1.813462734 5.22222662 -0.8688886166
1.831247091 5.267506599 -0.6796000004
1.830947518 5.263682842 -0.4838632941
1.837852478 5.277596474 -0.2906750441
1.838351011 5.276062965 -0.09682415426
1.8304497 5.283042431 0.0968939662
1.833098888 5.287705421 0.2910937071
1.831192374 5.2762537 0.4849091768
1.82120645 5.241574287 0.6761876941
1.813339353 5.215995789 0.8679500222
1.807417989 5.193118095 1.0605793
1.818509936 5.219119072 1.266021132
1.806439161 5.181565285 1.458756328
1.530814409 4.371323586 -1.229442596
1.816663384 5.184671879 -1.258372784
1.827899218 5.21091795 -1.065158725
1.835350871 5.229230404 -0.8710787296
1.850019813 5.265151501 -0.6800875068
1.851295114 5.262897968 -0.4843862355
1.852690101 5.263937473 -0.2902563512
1.86739099 5.299789906 -0.09738263488
1.848618627 5.278831005 0.09692887217
1.850885987 5.279389381 0.2909890711
1.85223937 5.277348518 0.4856064022
1.834632993 5.22426796 0.6747252345
1.835467815 5.220814705 0.8698272705
1.827887893 5.196355343 1.062487364
1.834514141 5.209383965 1.265121341
1.829652548 5.189804077 1.462897301
1.550459266 4.380791664 -1.23358357
1.83084166 5.167279243 -1.255673409
1.87365973 5.267667294 -0.4854321182
1.873733401 5.264964104 -0.2906750441
1.883193851 5.285705566 -0.09724301845
1.871707916 5.285540581 0.09717320651
1.865965605 5.263484955 0.2904657125
1.875056744 5.28619957 0.4870008826
1.852856994 5.217832088 0.6747252345
1.852356315 5.210653782 0.8692014813
1.848645926 5.197342396 1.064013839
1.85137856 5.199276924 1.264221549
1.849056125 5.187024593 1.463932633
1.571714163 4.389630318 -1.237724781
1.585207105 4.420022011 -0.9044974446
1.618400931 4.507616997 -0.751875639
1.650497556 4.594499111 -0.5942915082
1.895722866 5.26557827 -0.2910937071
1.896212578 5.264047623 -0.09696377069
1.892167687 5.284623146 0.09727791697
1.887024283 5.264459133 0.2908844054
1.894417763 5.279292107 0.4870008826
1.875085592 5.222542286 0.6761876941
1.868528008 5.198580265 0.8682629466
1.874331117 5.209004879 1.067830086
1.873065472 5.199789524 1.266021132
1.869772315 5.18780756 1.46600318
1.585055828 4.378667831 -1.236171842
1.646134138 4.539966583 -0.9304474592
1.663816094 4.581245899 -0.593316555
1.708194137 4.698334694 -0.4336615801
1.916825652 5.266435623 -0.2915124297
1.922783375 5.279945374 -0.09738263488
1.909482479 5.27201128 0.09717320651
1.908787847 5.267230034 0.2914077342
1.908759117 5.261408806 0.4859549999
1.896924019 5.223098755 0.6771626472
1.88936305 5.199451923 0.8695144057
1.889816999 5.195051193 1.066303492
1.892963409 5.200874805 1.267820835
1.883900523 5.170359135 1.462897301
1.600229859 4.375201702 -1.236689448
1.629575133 4.450618744 -1.084260821
1.622009993 4.427563667 -0.908313632
1.642242074 4.47795105 -0.7487469316
1.672159791 4.557068348 -0.5908791423
1.705904484 4.64401865 -0.4291294813
1.932902098 5.256300926 -0.2913030684
1.941664338 5.277293205 -0.09745243937
1.924207211 5.25813818 0.09703358263
1.929679036 5.270248413 0.2919311225
1.928940296 5.262532711 0.4866522849
1.914916635 5.218643665 0.6774064302
1.909999967 5.202428818 0.8710787296
1.902969241 5.177699566 1.064013839
1.91154623 5.198226452 1.268720508
1.90236938 5.167709827 1.463932633
1.616070271 4.373494625 -1.237724781
1.656545758 4.473424435 -0.9189989567
1.665317178 4.494709015 -0.7525013685
1.686677337 4.547480583 -0.5903916955
1.722106099 4.638034821 -0.4291294813
1.951234579 5.24952364 -0.2913030684
1.959377885 5.26860857 -0.0974175334
1.945793033 5.262982845 0.09724301845
1.946678758 5.259733677 0.2917217612
1.949147344 5.263581276 0.48734954
1.927383304 5.199234962 0.6757002473
1.930893779 5.203139305 0.8723301888
1.921716452 5.172865391 1.064395547
1.928318381 5.187870502 1.267820835
1.9217453 5.16465807 1.464967847
1.63276422 4.369351864 -1.238242388
1.664667487 4.445260525 -0.9144195318
1.673466206 4.466376305 -0.7487469316
1.706120849 4.548702717 -0.5913665891
1.736291409 4.624231815 -0.4284322262
1.973276615 5.24981308 -0.2917217612
1.981489658 5.268878937 -0.09755715728
1.966468811 5.259561539 0.09731282294
1.961741686 5.24134016 0.2910937071
1.972617507 5.267597675 0.4883953929
1.948516011 5.197712898 0.6764314771
1.952731371 5.203423977 0.8735817075
1.945494652 5.178652287 1.067066789
1.945266843 5.175294399 1.266471148
1.946103334 5.172045231 1.469109058
1.652181149 4.372374535 -1.24083066
1.669054508 4.410044193 -0.908313632
1.714951158 4.524158001 -0.5889292359
1.752423644 4.618142128 -0.4284322262
1.992295384 5.244761467 -0.291826427
1.992056131 5.241368294 -0.09717320651
1.988560438 5.259801388 0.09745243937
1.983560205 5.243801117 0.2916170955
1.993320942 5.264059067 0.4887439907
1.973884702 5.207242012 0.6786250472
1.966676235 5.1854949 0.8717044592
1.969136 5.18651247 1.070119739
1.964008451 5.170295238 1.266920924
1.964146733 5.165220261 1.469109058
1.661161661 4.352432251 -1.236689448
1.686474919 4.411820889 -0.9098401666
1.744850993 4.557377338 -0.5940477848
1.762023211 4.5974226 -0.4270377755
2.014686346 5.251178741 -0.2925591469
2.018024683 5.257136345 -0.09759206325
2.007420063 5.256914139 0.09752225131
2.007352829 5.253986359 0.2925591469
2.006497145 5.246253967 0.4876981676
1.995401859 5.211791039 0.6800875068
1.986688972 5.186322689 0.8729559183
1.987729073 5.18362093 1.070883036
1.986728787 5.178308487 1.270520091
1.978492856 5.151464939 1.467038393
1.673500538 4.341492653 -1.235136509
1.699680567 4.402541161 -0.9090768695
1.719368339 4.448907375 -0.7487469316
1.763612747 4.558664322 -0.595022738
1.785890698 4.613850117 -0.4291294813
2.030644178 5.240744591 -0.2923497856
2.038531542 5.255653858 -0.09769678116
2.021962166 5.242765427 0.09738263488
2.025679111 5.246947765 0.2925591469
2.026753902 5.247005939 0.4883953929
2.01195693 5.2032938 0.6798437834
2.007634163 5.186724663 0.8742073774
2.002070665 5.169678211 1.069356561
2.007611513 5.178609848 1.272319794
1.999257326 5.151731968 1.469109058
1.693553805 4.34822464 -1.238759995
1.719320059 4.407554626 -0.9113665819
1.734886527 4.4428792 -0.7487469316
1.778070211 4.548781872 -0.5945352316
1.809240818 4.626143456 -0.4308725893
2.046014547 5.226184368 -0.2919311225
2.058325291 5.252228737 -0.09776658565
2.041704178 5.23940134 0.09745243937
2.043983698 5.239844322 0.2925591469
2.04795599 5.247323036 0.489092648
2.025774479 5.185144901 0.6783813238
2.030762196 5.192563057 0.8763974905
2.02439785 5.173627377 1.071646214
2.027096272 5.175199509 1.273219585
2.020050049 5.15191555 1.471179605
1.71013546 4.345882416 -1.239795327
1.74621141 4.430750847 -0.9174724817
1.759082794 4.458847046 -0.7525013685
1.792478561 4.538855553 -0.5940477848
1.832045555 4.634304047 -0.4322670996
2.06791687 5.22829771 -0.2924544513
2.078120232 5.248730183 -0.09783639759
2.065840006 5.247128963 0.09773167968
2.060795546 5.228961468 0.2923497856
2.067720652 5.243850231 0.4894412756
2.04677844 5.185427189 0.679356277
2.046696424 5.179932117 0.8754589558
2.048219919 5.181134701 1.074699163
2.042279482 5.160844326 1.271420002
2.039443254 5.148425102 1.472214937
1.724625587 4.33599472 -1.238759995
1.759534359 4.417025089 -0.9159459472
1.776877999 4.456039429 -0.7531271577
1.805370092 4.525195599 -0.5930728316
1.848210216 4.627881527 -0.4322670996
2.092256546 5.233664036 -0.2931871712
2.09345746 5.234017849 -0.09769678116
2.085622549 5.243600845 0.09780148417
2.079036951 5.221735477 0.2923497856
2.086925507 5.236236572 0.4894412756
2.068541765 5.187470913 0.6805750132
2.063299894 5.16908741 0.8748331666
2.070108891 5.180885792 1.076225638
2.0626297 5.156943321 1.272319794
2.058839083 5.144861698 1.473250031
1.736868739 4.322778225 -1.236689448
1.783735871 4.432712555 -0.9205254316
1.782087684 4.424157619 -0.7487469316
1.814518929 4.500137329 -0.5906354189
1.848701119 4.582599163 -0.42860654
2.113503218 5.233737469 -0.293605864
2.114124775 5.230017662 -0.09776658565
2.104826212 5.23592186 0.09780148417
2.102634192 5.225198269 0.2929778397
2.103703737 5.225223064 0.489092648
2.089765787 5.185378551 0.6813062429
2.085191488 5.168816566 0.8760846257
2.089649677 5.177269936 1.076988935
2.083539724 5.156938553 1.274119377
2.076232433 5.133699417 1.472214937
1.749769092 4.311318874 -1.235136509
1.783905864 4.391036034 -1.084260821
1.818419814 4.4737463 -0.9304474592
1.797519088 4.417910099 -0.7487469316
1.851183057 4.5452528 -0.5974600911
2.124819517 5.214520931 -0.4889183342
2.131760836 5.226327419 -0.293605864
2.137660742 5.235565186 -0.09801091999
2.120082378 5.221131325 0.09766186774
2.124622345 5.227077484 0.2935011685
2.121931791 5.21784687 0.489092648
2.110848665 5.185405731 0.6822811961
2.104708672 5.165166855 0.8767104149
2.109192371 5.173579216 1.077752113
2.105942488 5.160461426 1.276818871
2.097063303 5.133574009 1.474285364
1.771401525 4.321272373 -1.239795327
1.786307693 4.351136684 -0.9060239792
1.81893754 4.426225662 -0.7512499094
2.123042107 5.161112785 -0.6800875068
2.14225173 5.205228329 -0.4887439907
2.145425558 5.207774639 -0.2929778397
2.157449245 5.231768131 -0.09808073193
2.142846346 5.224800587 0.09787129611
2.141339779 5.2159338 0.293291837
2.144673347 5.221467018 0.4901385307
2.125163317 5.168826103 0.6810624599
2.128741264 5.172401428 0.8792133331
2.124997854 5.160738945 1.076607347
2.122459173 5.149474621 1.275918961
2.117916107 5.133366108 1.47635591
1.786473751 4.315063 -1.239795327
1.839078903 4.435553551 -0.9251048565
2.162370443 5.20499897 -0.6869122386
2.165762424 5.210596561 -0.4899641871
2.168195486 5.211317539 -0.293605864
2.174157143 5.220514774 -0.09801091999
2.162603378 5.220983505 0.0979411155
2.158764839 5.206583023 0.2931871712
2.168995142 5.228670597 0.4915329814
2.144711733 5.165044308 0.6815499663
2.144510269 5.159466267 0.8782746792
2.149779797 5.169605732 1.080041766
2.140422583 5.142034054 1.275918961
2.138795376 5.133073807 1.478426456
1.791835666 4.287724972 -1.23358357
2.06365943 4.933343887 -1.224630117
2.172645092 5.186254025 -0.8839063644
2.176547289 5.190477371 -0.6859372258
2.188563108 5.214028358 -0.49101004
2.190877199 5.216989517 -0.2943385541
2.187584162 5.204058647 -0.09783639759
2.184531689 5.224853039 0.09815053642
2.177562475 5.203080654 0.2933965027
2.188629627 5.226962566 0.4920559227
2.167200565 5.17071867 0.6832561493
2.159311771 5.146863461 0.8773360848
2.169192076 5.167878628 1.081186652
2.158973694 5.138500214 1.276818871
2.155804396 5.125953674 1.478426456
1.803029537 4.270450592 -1.23047781
2.054328442 4.863279819 -1.208883643
2.178126097 5.151333332 -1.07889688
2.1893332 5.172797203 -0.8829677701
2.198521376 5.191988468 -0.687155962
2.197421551 5.184343815 -0.4889183342
2.210762501 5.210763454 -0.2944432199
2.207300186 5.200071812 -0.09790620208
2.20197773 5.215353966 0.09811563045
2.198822737 5.202805996 0.2938151956
2.199233055 5.198722363 0.4901385307
2.187559128 5.168605804 0.6839873195
2.179577589 5.144750595 0.8782746792
2.191183567 5.167123795 1.082713127
2.182360172 5.141316414 1.279518247
2.170662642 5.111285686 1.47635591
1.82322979 4.27657032 -1.234101295
2.048426867 4.800154686 -1.194936633
2.199179173 5.150919914 -1.080423474
2.20426774 5.157859325 -0.881716311
2.219879627 5.189370632 -0.6878871918
2.220204592 5.187633038 -0.4899641871
2.226580143 5.197506905 -0.2941292226
2.231860161 5.20481205 -0.09815053642
2.216372252 5.196211815 0.09790620208
2.221797466 5.203896523 0.2943385541
2.220498323 5.198341846 0.4908357561
2.206487179 5.160553932 0.6839873195
2.202304363 5.14580822 0.8798390627
2.209981203 5.161248207 1.083094835
2.203362942 5.140832424 1.28131783
2.192429781 5.110395908 1.478426456
1.847313643 4.291472435 -1.240312934
2.049748898 4.757180691 -1.185938597
2.220255852 5.15042305 -1.081949949
2.223824978 5.153759956 -0.8823419809
2.237979412 5.181590557 -0.6878871918
2.243042707 5.190824509 -0.49101004
2.241536617 5.18237114 -0.2937105298
2.250015974 5.196989059 -0.09815053642
2.23686862 5.193953991 0.09801091999
2.236787558 5.188772678 0.2939198911
2.240207434 5.194219112 0.4911843836
2.223702192 5.150997639 0.6837435961
2.22338891 5.145341873 0.8810905218
2.229543209 5.157105446 1.083858013
2.222841263 5.136687279 1.282217622
2.2133255 5.1098032 1.480497003
1.864589691 4.290314674 -1.241865873
2.049239159 4.710684299 -1.176040769
2.236650229 5.139042854 -1.081186652
2.248903513 5.162264824 -0.8851578236
2.25594449 5.175960064 -0.6881309152
2.261149645 5.182962418 -0.49101004
2.261212826 5.178174973 -0.2939198911
2.267236233 5.189499855 -0.09815053642
2.255784273 5.187947273 0.09804582596
2.253978491 5.181328297 0.2939198911
2.264689684 5.200980663 0.4925788641
2.240874529 5.141384602 0.6834998727
2.242809296 5.143372536 0.8820291758
2.252242327 5.160088062 1.086147666
2.236744881 5.122143745 1.280418038
2.23335433 5.109515667 1.482567668
1.874928355 4.275261402 -1.23927772
2.065633774 4.705646515 -1.176490664
2.252891541 5.129799366 -1.080805063
2.269188404 5.162012577 -0.8864092827
2.269898415 5.161182404 -0.687155962
2.287153959 5.195495605 -0.4929274917
2.283202648 5.181614876 -0.2945478857
2.283627748 5.180122375 -0.09811563045
2.279402256 5.195088387 0.09832505882
2.274360418 5.181139946 0.2943385541
2.280320406 5.189794064 0.4922302365
2.261107445 5.141194344 0.6844748259
2.252691984 5.119634151 0.8792133331
2.272505522 5.159778118 1.087674141
2.255288839 5.118265152 1.28131783
2.25028491 5.102082253 1.482567668
1.880495191 4.249588013 -1.23358357
2.078068972 4.691644192 -1.174691081
2.270686865 5.124094486 -1.081186652
2.284690857 5.150848389 -0.8857836127
2.290318251 5.158669949 -0.6878871918
2.294758558 5.163810253 -0.4906614423
2.303620338 5.181314468 -0.2949666083
2.305760145 5.181254864 -0.0982901603
2.294999361 5.183843136 0.09825524688
2.294051886 5.176820278 0.2945478857
2.297518969 5.182202816 0.4922302365
2.285392046 5.149996758 0.6866684556
2.275359154 5.122571945 0.8810905218
2.291199684 5.155801773 1.088437438
2.27630806 5.117484093 1.283117414
2.267296314 5.092430115 1.482049942
2.046608686 4.579540253 -1.332452536
2.098411322 4.693255901 -1.17694056
2.286243439 5.108570099 -1.079660177
2.298710346 5.131622791 -0.8839063644
2.308310509 5.150644302 -0.6878871918
2.317661285 5.166676521 -0.491707325
2.320957661 5.169192791 -0.294757247
2.32301116 5.171350956 -0.09825524688
2.31144762 5.172149658 0.09818544239
2.317816019 5.181543827 0.2952806056
2.321381569 5.184659004 0.4932760894
2.303353786 5.141988754 0.6866684556
2.299693108 5.129017353 0.8835934401
2.306864738 5.140205383 1.086910963
2.303035736 5.126882553 1.287616491
2.287432909 5.089771271 1.483602881
2.075293064 4.600543022 -1.34073472
2.119607925 4.694414616 -1.17919004
2.303254843 5.098768711 -1.079278588
2.313352823 5.116368771 -0.8826549053
2.328811169 5.145765781 -0.6883746386
2.332393885 5.151294708 -0.49101004
2.334042311 5.1501441 -0.2941292226
2.322951078 5.120916367 -0.09745243937
2.33368063 5.170933247 0.09832505882
2.34008193 5.180294037 0.2956992984
2.341107845 5.1801548 0.4936247468
2.322185993 5.133511066 0.6866684556
2.318475246 5.120554924 0.8835934401
2.328034878 5.139274597 1.088437438
2.319307327 5.115262985 1.28671658
2.307670593 5.084871292 1.484638214
2.08973527 4.589756489 -1.339699507
2.132750034 4.679893017 -1.177390456
2.316148758 5.079981804 -1.076988935
2.330379248 5.106463909 -0.8823419809
2.337685585 5.117743969 -0.6856935024
2.35615921 5.155806065 -0.4922302365
2.350342751 5.138333321 -0.2939198911
2.295027494 5.012776375 -0.09553267807
2.353373289 5.166396141 0.09839487821
2.35068965 5.155740261 0.294757247
2.364135742 5.18282795 0.4946706295
2.340090036 5.125374317 0.6866684556
2.333873749 5.107040405 0.8826549053
2.350857258 5.141829967 1.090727091
2.335528374 5.103590965 1.285816908
2.330232143 5.087324142 1.487743974
2.10090518 4.571901321 -1.336593628
2.151514769 4.677731991 -1.178740144
2.164806128 4.704465866 -0.9983754754
2.272987843 4.935025692 -0.8538709879
2.271597624 4.927474022 -0.6610758901
2.295436144 4.972334385 -0.2848134041
2.241208553 4.852642059 -0.09260067344
2.380582571 5.178134918 0.09877882153
2.374451876 5.162432194 0.2955946028
2.385546684 5.181782246 0.4953678548
2.364611864 5.131598949 0.6886184216
2.345835447 5.088508129 0.8807777166
2.372080088 5.140723705 1.092253566
2.356598616 5.102483749 1.287616491
2.347088337 5.07956934 1.487743974
2.101409674 4.531240463 -1.326758504
2.147329807 4.628146172 -1.167942524
2.155581713 4.641681194 -0.9865453839
2.1678195 4.66590786 -0.8081920743
2.176596642 4.680517197 -0.6286586523
2.197880745 4.72197485 -0.4519642889
2.194716215 4.713026047 -0.2702640295
2.190549374 4.699790478 -0.08980829269
2.39605689 5.166584015 0.09870900959
2.397504568 5.164981365 0.296222657
2.400258541 5.166198254 0.4946706295
2.389984608 5.141730309 0.6910557747
2.363579988 5.080290318 0.8807777166
2.38745904 5.129268646 1.091490269
2.37844038 5.105240822 1.290315866
2.364806414 5.071344852 1.487743974
2.11315155 4.517246723 -1.324687958
2.303951979 4.920648575 -1.244425893
2.235090017 4.771402359 -1.015929937
2.292270899 4.889033794 -0.8485521674
2.386886358 5.086213112 -0.6847185493
2.30412817 4.907636642 -0.4706156254
2.283356667 4.858984947 -0.2791611254
2.213751554 4.706591129 -0.09008752555
2.415771484 5.161811829 0.09877882153
2.417215109 5.160197258 0.2964319885
2.422451496 5.169034004 0.4957164824
2.407919407 5.133355618 0.6910557747
2.382979393 5.075584412 0.8814033866
2.405350447 5.120903492 1.091490269
2.399564266 5.103960991 1.29211545
2.385783434 5.070051193 1.48981452
2.123955488 4.499362469 -1.321582079
2.368568182 5.013008118 -1.270070314
2.245016336 4.749373436 -1.012877107
2.343117237 4.95242691 -0.8610669374
2.411423922 5.09220171 -0.6866684556
2.327217579 4.912166595 -0.4718358219
2.308862209 4.869030476 -0.2802078426
2.23873806 4.716901779 -0.09043657035
2.440607548 5.167811871 0.09905806184
2.435209036 5.151730061 0.2964319885
2.443888426 5.167750359 0.4964137375
2.424121141 5.121331692 0.6905682683
2.406603575 5.079730988 0.8835934401
2.428252459 5.123121738 1.093780041
2.419037819 5.099074841 1.293015361
2.406782389 5.06867218 1.491885066
2.356698513 4.943142891 -1.254323721
2.250594854 4.718471527 -1.007915974
2.386771441 4.999479771 -0.8707658648
2.42405057 5.073006153 -0.685205996
2.346924067 4.907199383 -0.4721844196
2.331017971 4.871751308 -0.2808358967
2.255190611 4.709057808 -0.09043657035
2.462072134 5.166482925 0.09919768572
2.451459169 5.139592171 0.296222657
2.465343475 5.166380882 0.4971109927
2.443696022 5.116420746 0.6910557747
2.425171614 5.073082447 0.8839063644
2.449510336 5.12169838 1.095306516
2.436821222 5.090600491 1.293015361
2.429470539 5.070693016 1.494990945
2.188746929 4.551949501 -1.341770053
2.349442005 4.883958817 -1.241276622
2.262762308 4.699577808 -1.005626321
2.413653851 5.008494377 -0.8738945723
2.443464756 5.068092346 -0.6856935024
2.365769625 4.902566433 -0.4725330472
2.352331638 4.870368958 -0.2812545896
2.269876003 4.697555542 -0.09036676586
2.483556271 5.165066242 0.09933730215
2.472847939 5.138202667 0.29664132
2.487722635 5.164489746 0.4978081882
2.466710329 5.118589878 0.6925182343
2.439434052 5.057468414 0.8826549053
2.473386049 5.12329483 1.097596169
2.453768253 5.078124523 1.29211545
2.447152138 5.06218338 1.494990945
2.204624176 4.544281006 -1.341770053
2.376688719 4.894598484 -1.246225476
2.287733078 4.709309101 -1.009442449
2.428531885 4.994708061 -0.8729559183
2.467236996 5.069810867 -0.687155962
2.382869959 4.894278049 -0.4725330472
2.376316309 4.876491547 -0.2820919454
2.293268919 4.703983307 -0.09064600617
2.499852419 5.150531292 0.09923259169
2.494259834 5.136726379 0.2970600426
2.503992319 5.152191639 0.4974596202
2.489797115 5.118439198 0.6937369108
2.460529327 5.056027889 0.8839063644
2.489536762 5.111099243 1.096832991
2.47830987 5.08354187 1.295714617
2.464809179 5.053609371 1.494990945
2.245950937 4.588612556 -1.357299209
2.392905712 4.886690617 -1.246225476
2.30415678 4.701295376 -1.009442449
2.44595027 4.988401413 -0.8732687831
2.49365449 5.081204414 -0.6898370385
2.401697636 4.88950634 -0.4728816748
2.392473221 4.86858511 -0.2820919454
2.307910919 4.692360401 -0.09057618678
2.516917467 5.142213821 0.09923259169
2.517448425 5.138748646 0.297688067
2.521960258 5.143420219 0.4974596202
2.508506775 5.11371851 0.6942243576
2.481644392 5.054501534 0.8851578236
2.505607843 5.101052284 1.096451402
2.498592138 5.08229208 1.297514319
2.485845089 5.051908493 1.497061491
2.271416664 4.601926804 -1.363510847
2.404771566 4.867824078 -1.243526101
2.32843399 4.711228371 -1.013258696
2.463349581 4.979832649 -0.8732687831
2.506973505 5.063573837 -0.6886184216
2.421434879 4.888657093 -0.4735789299
2.405905962 4.85304594 -0.2816732526
2.334941387 4.705771923 -0.09099505097
2.53839469 5.140568256 0.09937220812
2.536254644 5.131721497 0.2977927327
2.54606843 5.149315834 0.4988540709
2.521938324 5.096035957 0.693005681
2.502781153 5.05288744 0.8864092827
2.528627634 5.102829933 1.098741055
2.516318798 5.073538303 1.297514319
2.508619547 5.053582668 1.500167251
2.2943542 4.607805252 -1.367651939
2.414793968 4.845448017 -1.239926934
2.343111753 4.699558258 -1.012495399
2.483362436 4.97650671 -0.8742073774
2.522861004 5.051239491 -0.6881309152
2.450061083 4.903345585 -0.4758449793
2.425513268 4.849977016 -0.2819872797
2.349564552 4.69401598 -0.09092524648
2.559888601 5.138835907 0.09951182455
2.557715654 5.12998724 0.2982114255
2.567583561 5.147529125 0.499551326
2.545030594 5.097858429 0.694468081
2.5230515 5.049422264 0.8873479366
2.549059391 5.099239826 1.099885941
2.534012318 5.064724445 1.297514319
2.529705763 5.05170393 1.502237797
2.306955099 4.59286356 -1.365581393
2.501718521 4.976276398 -1.275918961
2.356854916 4.686089516 -1.011350632
2.502496481 4.971335888 -0.8748331666
2.544049263 5.04949379 -0.6891058087
2.450124502 4.860958099 -0.4725330472
2.452322245 4.861095905 -0.2831386626
2.361512423 4.679058075 -0.0907856226
2.583199501 5.140589237 0.09972125292
2.572023392 5.116122723 0.2978973985
2.587328672 5.142094135 0.4998999536
2.56727314 5.097809315 0.6956868172
2.539783716 5.041027069 0.8873479366
2.573911905 5.104337215 1.10293889
2.55518961 5.062806606 1.299313903
2.546442986 5.043287754 1.502237797
2.327339888 4.593398571 -1.368169546
2.520848989 4.973168373 -1.277268767
2.379417181 4.690089226 -1.014021873
2.523439407 4.971816063 -0.8763974905
2.564375401 5.048110008 -0.6900808215
2.466173649 4.850600719 -0.4723587334
2.472049713 4.860057831 -0.2835573256
2.381458998 4.677915573 -0.09092524648
2.602038622 5.135562897 0.09979106486
2.595284939 5.117802143 0.2985254526
2.599853039 5.12237072 0.4988540709
2.590456486 5.101656914 0.6973930001
2.560945988 5.039174557 0.8885993958
2.591715574 5.097523212 1.103320479
2.5772686 5.064725399 1.302013397
2.562277317 5.030926228 1.501202583
2.345197201 4.590816021 -1.369722486
2.538192272 4.964339256 -1.277268767
2.402110338 4.696155071 -1.017074823
2.541676044 4.964738369 -0.8767104149
2.5892241 5.053260326 -0.6920307279
2.48042655 4.838850021 -0.4720101058
2.523645639 4.918926716 -0.2875348926
2.4033494 4.68244648 -0.09116958082
2.614490509 5.115764141 0.09958163649
2.618605614 5.121616364 0.2992581427
2.620454788 5.120816231 0.499551326
2.605535507 5.087282181 0.6966617703
2.580343723 5.035928726 0.8895379901
2.61218214 5.09368515 1.104465365
2.598487854 5.062634945 1.303812981
2.584242105 5.032711983 1.504308343
2.363859177 4.587755203 -1.371275425
2.54124856 4.929911613 -1.270520091
2.420289993 4.691230297 -1.01783812
2.554502964 4.949260235 -0.8754589558
2.605968475 5.044645786 -0.6920307279
2.500963449 4.837241173 -0.4727073312
2.613351822 5.052449703 -0.2959086299
2.424277544 4.682907104 -0.09134409577
2.63326931 5.110623837 0.09965144843
2.638299704 5.115994453 0.299467504
2.645623207 5.12580204 0.5009458661
2.623300791 5.080378056 0.6969054937
2.602440119 5.035665989 0.8911023736
2.629058123 5.08499527 1.104465365
2.618845701 5.060912132 1.305612564
2.607125998 5.033952713 1.507414222
2.390464306 4.597913265 -1.376969457
2.570952415 4.940863132 -1.275918961
2.433840752 4.675363064 -1.016311526
2.579876184 4.95167923 -0.8776490092
2.623482227 5.031082153 -0.6915432215
2.527890205 4.84570694 -0.474450469
2.633656025 5.044148922 -0.2960133255
2.442349434 4.675762653 -0.09137900174
2.662101746 5.118214607 0.1000004932
2.658875465 5.109833717 0.2996768057
2.668072462 5.123140335 0.5016431212
2.643707514 5.072027206 0.6971492171
2.62453413 5.033099651 0.8923538327
2.655831814 5.088786125 1.107518315
2.635550976 5.045638084 1.304262877
2.634505033 5.04148531 1.512590528
2.401113749 4.579277039 -1.373863578
2.604524136 4.965098381 -1.28446722
2.453793287 4.673793316 -1.01783812
2.599039316 4.948342323 -0.8785876036
2.64199543 5.025871277 -0.6920307279
2.545718431 4.838616371 -0.4746247828
2.655016184 5.04422617 -0.2965366542
2.463317633 4.676054955 -0.09155353159
2.684630156 5.119984627 0.1002099216
2.680409908 5.107594967 0.3000955284
2.687793493 5.117322445 0.5019916892
2.665128231 5.072020054 0.6983679533
2.64024663 5.020411015 0.8917280436
2.680003881 5.093851089 1.110571265
2.654993773 5.042042732 1.305612564
2.648485422 5.025421619 1.510520101
2.413578749 4.56616497 -1.372310638
2.628219843 4.968033791 -1.287616491
2.467443228 4.662159443 -1.017074823
2.623694658 4.953204155 -0.8810905218
2.668822289 5.034156322 -0.694468081
2.570152998 4.845988274 -0.4761935771
2.681973457 5.052568436 -0.2975833714
2.481500626 4.670960426 -0.09162334353
2.704356909 5.114117622 0.1002797335
2.702892542 5.107034206 0.3006188869
2.702882767 5.104860783 0.5016431212
2.689321995 5.074964523 0.7000740767
2.657756567 5.011163235 0.8917280436
2.695927382 5.080997467 1.109807968
2.678062916 5.043070316 1.308311939
2.664194584 5.012735844 1.509484768
2.429503918 4.557711601 -1.372310638
2.64829421 4.963989258 -1.288966179
2.487401009 4.660445213 -1.018601298
2.688251734 5.028310299 -0.6949555874
2.653768301 4.961727142 -0.4885697067
2.701480389 5.04669714 -0.2977927327
2.502512932 4.67108202 -0.09179785848
2.716547728 5.09405899 0.1000702977
2.725406647 5.106378078 0.3011422455
2.722563744 5.098908901 0.5019916892
2.709828854 5.07079792 0.7008053064
2.686411142 5.022758961 0.8954825401
2.711795568 5.068092823 1.10904479
2.703008652 5.047435284 1.311911106
2.687153101 5.013621807 1.512590528
2.454544544 4.566219807 -1.377487063
2.665606737 4.954713821 -1.288966179
2.505516052 4.655191422 -1.019364595
2.707670212 5.022390842 -0.6954430342
2.68336606 4.975230217 -0.4908357561
2.714335203 5.028449059 -0.2972693741
2.528308868 4.679911137 -0.09214691073
2.741888762 5.098635674 0.1003495455
2.746055365 5.102108479 0.3014562428
2.744122982 5.096392155 0.5026890039
2.724689007 5.056064606 0.7000740767
2.706739902 5.018567562 0.8964211345
2.736929655 5.072417736 1.11209774
2.720610142 5.037969589 1.311911106
2.711984634 5.017807484 1.516731739
2.577258825 4.754637718 -1.437533021
2.682884693 4.945379257 -1.288966179
2.519876242 4.642966747 -1.018601298
2.643359184 4.86644125 -0.8704530001
2.727082968 5.016396046 -0.6959305406
2.697862148 4.960581779 -0.4903128147
2.731872559 5.018942833 -0.2972693741
2.539845467 4.662277699 -0.09197238833
2.765390158 5.099579811 0.1005589664
2.759083986 5.083715439 0.3009328842
2.76950264 5.100788593 0.5040834546
2.747059345 5.055244923 0.7012928128
2.717636108 4.996940613 0.894231081
2.758370876 5.069731712 1.113624215
2.732589006 5.018173218 1.30921185
2.733182907 5.015095234 1.518802285
2.610518932 4.776124477 -1.446850657
2.706678867 4.94795084 -1.29211545
2.538894653 4.639309406 -1.019746184
2.744575739 5.006846905 -0.6959305406
2.720908403 4.961616516 -0.4913586974
2.758984089 5.026885986 -0.2983160913
2.558028698 4.656889439 -0.09204219282
2.788929224 5.100423336 0.1007683948
2.78256464 5.084566593 0.3015609384
2.791116953 5.098081112 0.5047807097
2.768503189 5.05258894 0.702267766
2.744559526 5.004745007 0.8973597288
2.781715631 5.070400715 1.115913868
2.75571537 5.018853664 1.311911106
2.754395008 5.012295246 1.520872831
1.386513591 2.512703419 -0.5495927334
1.352732062 2.449458599 -0.4365036786
2.767799139 5.007659435 -0.6973930001
2.744961023 4.964293003 -0.4925788641
2.786186457 5.034698486 -0.2993628085
2.574267626 4.647932529 -0.09204219282
2.806717634 5.090656281 0.1007683948
2.808014393 5.088812828 0.3023982942
2.805045366 5.081329823 0.5040834546
2.793801546 5.056794643 0.7042176127
2.755322695 4.983032227 0.8951696754
2.801296949 5.064095974 1.116677046
2.780770302 5.022842407 1.315510392
2.768128395 4.995891571 1.518802285
1.327295184 2.388602018 -0.7206043005
1.35263896 2.432210445 -0.6325589418
1.361869216 2.447801828 -0.5362361073
1.354546547 2.432641268 -0.4343136251
2.796857119 5.018776417 -0.7003178
2.766152859 4.961642742 -0.4932760894
2.80860877 5.033664227 -0.299886167
2.594377279 4.645900726 -0.09218180925
2.82446909 5.080828667 0.1007683948
2.827703953 5.08246994 0.3026076555
2.826640129 5.078471184 0.5047807097
2.814335585 5.052213669 0.7049488425
2.783279896 4.992363453 0.8986111879
2.817045927 5.050857067 1.115913868
2.803984165 5.02331543 1.318209887
2.791202307 4.99631834 1.521908164
1.350637317 2.408776283 -0.6276100278
1.370406032 2.443032742 -0.5362361073
2.808523417 4.998599529 -0.6988554597
2.788337946 4.96064043 -0.4941476882
2.815389633 5.004682541 -0.2987347841
2.620390892 4.654241562 -0.09253086895
2.845119238 5.076172352 0.1008731127
2.847383499 5.076051235 0.302816987
2.850199223 5.078999043 0.5058265924
2.832927227 5.04408884 0.7051925659
2.803594351 4.987782955 0.8995497823
2.842358828 5.054681778 1.118966818
2.821503162 5.013496399 1.318209887
2.816209078 5.000010967 1.526049137
1.357239962 2.402826071 -0.727851212
1.362871766 2.410833836 -0.6294096708
1.382790685 2.445070028 -0.5377625823
1.3802526 2.438598156 -0.4371294677
2.827041626 4.992712498 -0.6993428469
2.815458775 4.968211651 -0.4958907962
2.844666958 5.015670776 -0.2999908328
2.628903627 4.633350372 -0.09228652716
2.866757631 5.073173046 0.1010127291
2.867145777 5.071798801 0.3031309843
2.877723455 5.086359501 0.5075696707
2.857363224 5.046262264 0.7068988085
2.824012756 4.98533392 0.900801301
2.859984636 5.04472971 1.118966818
2.838111877 5.00411272 1.318209887
2.8384974 5.000724316 1.529155016
1.367111564 2.401670218 -0.7288864851
1.375682712 2.414766788 -0.6316591501
1.386030078 2.43194294 -0.5358544588
1.395183444 2.446018457 -0.4393195212
2.843581438 4.983311176 -0.6993428469
2.835869551 4.965768814 -0.4965880215
2.86326766 5.00967741 -0.3002001941
2.650206566 4.635025024 -0.09249595553
2.873671055 5.046260834 0.1006636843
2.866154432 5.03102541 0.3012469113
2.877799749 5.047363758 0.5046063662
2.848500729 4.991931915 0.700561583
2.834654331 4.965647697 0.8989240527
2.883514404 5.047151566 1.121638179
2.860493898 5.004824638 1.320909262
2.853145361 4.987930775 1.528119683
1.37218523 2.392096043 -0.7273336053
1.391444325 2.423712254 -0.6352583766
1.40484333 2.446060181 -0.5400522947
1.403286576 2.441378593 -0.4393195212
2.864919901 4.98023653 -0.7003178
2.883850574 5.007078171 -0.3006188869
2.669366598 4.630942345 -0.09260067344
2.885411739 5.028032303 0.1004891619
2.889667988 5.03138113 0.3018749356
2.883602142 5.018790722 0.5026890039
2.883841276 5.015153885 0.7051925659
2.856893778 4.964285374 0.9004884362
2.901216507 5.039262772 1.122019768
2.881834745 5.001564503 1.322708845
2.86861062 4.974593163 1.52708447
1.385362864 2.395653009 -0.7299218178
1.401849031 2.422213316 -0.6361581683
1.416324735 2.446238041 -0.5411971211
1.417742968 2.446720123 -0.4411967695
2.888260603 4.980509758 -0.7017802596
2.908330202 5.009072304 -0.301351577
2.689535141 4.628511429 -0.09274028987
2.90094161 5.014469147 0.10041935
2.908215284 5.02299118 0.3019796014
2.905096769 5.015591621 0.5033861995
2.891376019 4.987882137 0.7027552128
2.882136345 4.967950821 0.9029913545
2.916819334 5.025708199 1.12125659
2.905150175 5.00158453 1.32540834
2.893723726 4.977911472 1.531225562
1.401498437 2.404155254 -0.7340628505
1.40734911 2.412255764 -0.6348084807
1.428812027 2.44806242 -0.5427235961
1.428268194 2.445167303 -0.441822499
2.909636974 4.977252007 -0.7027552128
2.786273003 4.764316082 -0.4791569114
2.921763182 4.991994381 -0.3009328842
2.709715128 4.625999451 -0.09287991375
2.92245841 5.011220932 0.1005589664
2.925727844 5.012811184 0.3019796014
2.928615808 5.015742779 0.5044320822
2.906763077 4.974333286 0.702267766
2.905444622 4.968090534 0.9048685431
2.939298153 5.023970127 1.123164654
2.924561739 4.994775772 1.326308012
2.913037062 4.971112728 1.532260895
1.419670224 2.415903807 -0.7392392755
1.42366457 2.420766354 -0.6384077072
1.444318056 2.454904556 -0.5453948975
1.443810225 2.452082634 -0.4440125525
2.923968554 4.961934566 -0.702023983
2.776578665 4.709936619 -0.4746247828
2.942214251 4.986926556 -0.3012469113
2.725847721 4.616511822 -0.09287991375
2.948039293 5.014780998 0.1008382067
2.941183567 4.99912405 0.3017702699
2.956211329 5.022660732 0.50617522
2.930155516 4.974418163 0.7037302256
2.924774647 4.961322784 0.9054943323
2.961804867 5.022134304 1.125072718
2.941977739 4.984537601 1.326308012
2.938233137 4.974220276 1.536401868
1.434985995 2.422568798 -0.742862761
1.44105041 2.430868626 -0.6424568295
1.450875282 2.446471214 -0.54463166
1.462443709 2.46401453 -0.4471412599
2.947352648 4.961938858 -0.7034864426
2.781604528 4.679177284 -0.4725330472
2.965728045 4.986926079 -0.3018749356
2.741945028 4.606969357 -0.09287991375
2.971641779 5.014782429 0.1010476425
2.964727879 4.999135017 0.3023982942
2.978807449 5.020878792 0.5070467591
2.954594851 4.976108551 0.7054363489
2.942076206 4.95108223 0.9054943323
2.985335588 5.021891594 1.12736249
2.963346004 4.980935574 1.328107595
2.955574989 4.963935375 1.536401868
1.441874981 2.413975716 -0.7418274879
1.457522869 2.4392066 -0.6460559964
1.467893839 2.45461607 -0.5476846099
1.47450757 2.463723183 -0.4480798542
2.97281456 4.965245247 -0.7054363489
2.799970388 4.672856808 -0.4728816748
2.989123344 4.984586239 -0.3023982942
2.76624012 4.611086845 -0.09315914661
3.013740301 5.045580387 0.101885356
3.010855198 5.036756039 0.3053291142
3.018671989 5.045832157 0.5107073188
3.009666443 5.028787136 0.7144547105
2.989790916 4.991622448 0.9148803949
3.005742073 5.01428318 1.128125668
2.989601135 4.983410835 1.331706882
2.976862192 4.960213184 1.538472414
1.460256219 2.425478935 -0.7470038533
1.474499702 2.447201252 -0.6496552229
1.483546972 2.461247444 -0.5503559709
1.481058598 2.455177784 -0.4474541247
2.997148037 4.964513302 -0.7068988085
2.822446108 4.673286438 -0.4739275575
3.004439592 4.970702648 -0.3021889627
2.789331436 4.611184597 -0.09336858243
3.031179905 5.032788277 0.10185045
3.043728828 5.049634457 0.3067945242
3.03626585 5.035264969 0.5107073188
3.024999619 5.012624741 0.7137234807
3.016236782 4.994157314 0.9173833132
3.023225546 5.003760815 1.128125668
3.01504612 4.986284256 1.335306048
2.997024059 4.952574253 1.539507747
1.472723007 2.426972389 -0.7490743995
1.476963401 2.432045698 -0.6469558477
1.50028491 2.4694767 -0.5534089208
1.493724108 2.456744909 -0.4487055838
3.012396336 4.950628281 -0.7064113021
2.843920469 4.671915531 -0.4747990966
3.022810459 4.961890697 -0.3022936285
2.813738823 4.615077496 -0.09364781529
3.055992365 5.034142971 0.1020947844
3.057190418 5.032150745 0.3063758314
3.058996201 5.033149242 0.5115788579
3.038353682 4.995249748 0.7127485275
3.03365016 4.983598709 0.9173833132
3.036590338 4.986469269 1.126599193
3.032432079 4.975730419 1.335306048
3.014292002 4.942082882 1.539507747
1.487233162 2.431705475 -0.7521802187
1.490530014 2.435186386 -0.6492053866
1.507869959 2.462550402 -0.5530272722
1.516741276 2.47509551 -0.4530857801
3.028795481 4.940612316 -0.7064113021
2.869589806 4.677244186 -0.4763679206
3.044291258 4.958117485 -0.3027123213
2.824842691 4.598905087 -0.09350819886
3.075634718 5.026855469 0.1021645889
3.067603588 5.011765003 0.305747807
3.077588558 5.024138927 0.5117532015
3.056807995 4.986306667 0.7129922509
3.050158739 4.973512173 0.9173833132
3.063219547 4.990898609 1.130033731
3.042796612 4.955683231 1.332606673
3.036734104 4.941935062 1.542613626
1.493261456 2.423471451 -0.7511449456
1.49859786 2.430229664 -0.6492053866
1.518088937 2.460879087 -0.5537905097
1.532203913 2.481818438 -0.4552758336
3.049334049 4.937297821 -0.7073862553
2.885083437 4.667703152 -0.4763679206
3.068072319 4.959884644 -0.3034450114
2.842181206 4.592914104 -0.0935780108
3.098584175 5.02684164 0.1023740172
3.089449167 5.010063648 0.3062711358
3.106789827 5.034250736 0.5138449073
3.086886168 4.998099804 0.7161608338
3.072865963 4.973452091 0.9192605615
3.088012218 4.994072914 1.133086801
3.071516752 4.965452671 1.338005543
3.06123662 4.944979668 1.546754718
1.498233795 2.41358161 -0.7495920658
1.514876008 2.43848896 -0.6528045535
1.534532189 2.46917057 -0.5568434596
1.544599414 2.48343277 -0.4565272927
3.074080944 4.940641403 -0.7093361616
2.902653694 4.661491394 -0.4767165184
3.084502459 4.949683666 -0.3034450114
2.859513044 4.586856365 -0.09364781529
3.125785351 5.033526897 0.1027230695
3.114479303 5.013362885 0.3071085513
3.121362209 5.020537376 0.5134962797
3.112882853 5.003004074 0.7183545232
3.097691536 4.976652145 0.9217635393
3.111823797 4.995469093 1.135758042
3.094149113 4.965163708 1.340704918
3.079663992 4.93807888 1.547790051
1.504180193 2.405324697 -0.7485567927
1.525020003 2.436756849 -0.6537043452
1.545836687 2.469060421 -0.557988286
1.552825809 2.478297472 -0.4565272927
3.098881245 4.943876743 -0.711286068
2.918094873 4.651841164 -0.4767165184
3.108333826 4.951268196 -0.3041777015
2.887469769 4.597671032 -0.09406667948
3.138219118 5.016352177 0.1025834456
3.13744092 5.013167858 0.3077365756
3.146455526 5.023666382 0.51489079
3.125238419 4.985926628 0.71737957
3.113129377 4.964677334 0.9214506149
3.124197006 4.978470802 1.134231567
3.120959759 4.971379757 1.345203996
3.098077059 4.931112289 1.548825383
1.524132967 2.415605068 -0.7537331581
1.53374958 2.428967237 -0.6532544494
1.565172791 2.477773428 -0.5614228845
1.566983461 2.478723526 -0.4577788115
3.117642403 4.929718971 -0.7110423446
2.936743736 4.640089989 -0.4767165184
3.127117157 4.93706274 -0.3040730357
2.910182714 4.592799664 -0.09420629591
3.167933226 5.01893568 0.1028975919
3.159673691 5.003909588 0.3079459071
3.168721676 5.01436615 0.5152394176
3.148412228 4.978373528 0.7181107998
3.147821188 4.975511074 0.9258308411
3.150459051 4.975841045 1.13652122
3.142977715 4.962103367 1.346103787
3.126121998 4.931687832 1.552966356
1.544571042 2.430101871 -0.7599447966
1.548070908 2.43373394 -0.6559538841
1.574435353 2.474225521 -0.5618044734
1.58580482 2.490175724 -0.4609074891
3.138240099 4.926049232 -0.7120172977
2.961753607 4.645446301 -0.4782853127
3.144542456 4.928351402 -0.3041777015
2.927547932 4.586496353 -0.09427610785
3.186706543 5.011776447 0.1029673964
3.174105167 4.99003458 0.3077365756
3.196033001 5.020637035 0.5169824958
3.17023778 4.976275444 0.7193294764
3.160053015 4.95838356 0.9245793223
3.174334049 4.976952553 1.139192581
3.158363581 4.950012684 1.345653772
3.150777578 4.934319019 1.557107449
1.55262053 2.424966812 -0.7599447966
1.566647053 2.44499445 -0.6604529023
1.58157146 2.467338324 -0.5614228845
1.602587342 2.49820447 -0.4634104371
3.144688845 4.89836216 -0.709579885
2.976875782 4.633402824 -0.4781110287
3.158710003 4.914535046 -0.30396837
2.94354105 4.576248169 -0.09427610785
3.21085763 5.012969494 0.1032117382
3.20120573 4.994056702 0.3086785972
3.214814425 5.013365746 0.5173311234
3.195298672 4.979101181 0.7212793827
3.174140453 4.942335606 0.9236406684
3.213105202 5.001085758 1.147206545
3.183001995 4.95043087 1.348803163
3.174253464 4.933038712 1.560213327
1.561497569 2.419260025 -0.7599447966
1.586800694 2.457519054 -0.6654018164
1.594865799 2.46812129 -0.5629493594
1.613877654 2.495631695 -0.4640361667
3.141282558 4.855686665 -0.7049488425
2.990864277 4.61963892 -0.4777623713
3.161498308 4.879457951 -0.3025029898
2.963846922 4.572658062 -0.09441572428
3.234844685 5.01181078 0.1034211591
3.233789444 5.006340504 0.310144037
3.237497568 5.008239746 0.5180283785
3.219125748 4.977919102 0.7227417827
3.196741104 4.939516544 0.9252050519
3.214336157 4.962910652 1.141100645
3.197944164 4.933826447 1.347453356
3.184095621 4.910583019 1.556589842
1.579411864 2.428369999 -0.7646034956
1.600049138 2.458219767 -0.6672013998
1.614184976 2.478990793 -0.5667654872
1.623658419 2.491637468 -0.4643490613
3.124360323 4.790931225 -0.6971492171
3.036365747 4.654224396 -0.4824687839
3.168683529 4.853342056 -0.3015609384
2.986352682 4.572329521 -0.09462515265
3.239013195 4.978131771 0.1029673964
3.244709492 4.984977722 0.3095159829
3.225597382 4.951833725 0.5133219361
3.209164858 4.922849178 0.7164045572
3.199934959 4.90681839 0.9211377501
3.200524807 4.903980732 1.130033731
3.191704273 4.8867383 1.337555647
3.174801826 4.859006882 1.543648958
1.604822516 2.448693991 -0.7728857398
1.613533854 2.46104908 -0.6694509387
1.631443858 2.486473083 -0.5698184371
1.638415217 2.496148348 -0.4662262499
3.1140728 4.74072504 -0.6912994981
3.060256243 4.655250549 -0.4836890101
3.13866806 4.772720337 -0.2971647084
3.013289452 4.578580379 -0.0949742049
3.228101969 4.925549984 0.1020947844
3.228132486 4.921848774 0.3062711358
3.218809843 4.9039011 0.5094871521
3.197142601 4.869038582 0.7100673914
3.19317627 4.859300613 0.9142546058
3.190888166 4.85396719 1.120875001
3.180043936 4.833799362 1.325858116
3.167309284 4.81078434 1.531743288
1.624640703 2.461093903 -0.7785797715
1.626410842 2.461906195 -0.6712505817
1.639681101 2.481049061 -0.5698184371
1.653656125 2.500300169 -0.4681034684
3.095542908 4.67685461 -0.6834998727
3.097391129 4.676100254 -0.4870008826
3.117799997 4.705127716 -0.293605864
3.029252052 4.568034649 -0.0949742049
3.212218285 4.864190578 0.1010476425
3.204550505 4.848898411 0.3023982942
3.20318985 4.845001698 0.5044320822
3.186736584 4.816459656 0.703973949
3.187216282 4.813537598 0.9076843858
3.177454472 4.796970844 1.110189557
3.163517952 4.77231741 1.311911106
3.152045012 4.751402855 1.516214013
1.63258028 2.453513622 -0.7780621052
1.633915424 2.454591274 -0.6708006263
1.653116703 2.481558561 -0.5713449717
1.67376709 2.510658026 -0.4712321758
3.079907179 4.6181283 -0.6764314771
3.076088667 4.608916283 -0.4810743034
3.095087528 4.633878708 -0.2898376882
3.049622297 4.564084053 -0.09511382133
3.211452007 4.826311588 0.1004891619
3.210385561 4.821059704 0.301351577
3.214296103 4.823281765 0.5033861995
3.201326132 4.802003384 0.7034864426
3.185363054 4.774446964 0.9023656249
3.197194099 4.78855896 1.110952854
3.178824425 4.75744915 1.311011434
3.161095619 4.729129314 1.512590528
1.637908101 2.442985773 -0.7765091658
1.64181459 2.446968317 -0.6703507304
1.666146159 2.482293129 -0.572871387
1.68802762 2.512999535 -0.4727964997
3.061375141 4.554088593 -0.6686317921
3.081038713 4.581617832 -0.4793311954
3.091172934 4.593220234 -0.2879535556
3.075267553 4.56614399 -0.09539305419
3.229121447 4.814508438 0.1004891619
3.22135663 4.799309731 0.3007235527
3.226671457 4.805415154 0.5026890039
3.210048676 4.77705574 0.7015365362
3.203942299 4.764379978 0.9026784897
3.212795258 4.77573967 1.110571265
3.195410728 4.746324539 1.311011434
3.182726383 4.723919392 1.514661074
1.647505522 2.438855648 -0.7770268321
1.638341308 2.423463106 -0.6654018164
1.686898351 2.494351149 -0.5770692229
1.697897315 2.508727551 -0.4731093943
3.054987907 4.510503769 -0.6637570262
3.065721273 4.524650097 -0.474450469
3.0601089 4.512973785 -0.2835573256
3.222561359 4.748980045 -0.09947691858
3.242547035 4.798237324 0.100384444
3.247040033 4.801272392 0.3015609384
3.247890472 4.80072403 0.5033861995
3.228929281 4.769109726 0.702023983
3.216122389 4.746624947 0.9014270306
3.227241993 4.761246681 1.109807968
3.222899437 4.75126791 1.315510392
3.203536034 4.719174862 1.516731739
1.637530684 2.405939817 -0.7682270408
1.640208006 2.408066034 -0.6627023816
1.697805524 2.49169302 -0.5778324604
1.713320732 2.512577772 -0.474986583
3.13317132 4.589613914 -0.4824687839
3.125417709 4.574826241 -0.2881629169
3.289902687 4.811988831 -0.1010476425
3.261528969 4.790194511 0.1004542559
3.267152548 4.79486084 0.3018749356
3.271362782 4.79923439 0.5044320822
3.241081238 4.751250744 0.7010490298
3.239355803 4.745157719 0.9033042789
3.25269866 4.762922764 1.112860918
3.23946619 4.739988327 1.315510392
3.230896711 4.723908901 1.521908164
1.647011995 2.401801825 -0.7687446475
1.639783025 2.389471292 -0.6591031551
1.710937858 2.492224693 -0.5793588758
1.732148767 2.521234989 -0.4778024256
3.284339666 4.776963234 -0.7066550255
3.293693542 4.78877306 -0.5047807097
3.299901724 4.794219017 -0.302816987
3.302143812 4.793887615 -0.1009080261
3.289538383 4.795272827 0.1008033082
3.28161025 4.780132771 0.3016656041
3.297115326 4.800927162 0.5058265924
3.266642809 4.752995491 0.7029989958
3.270451069 4.754980564 0.9073715806
3.277096033 4.762860775 1.115532279
3.25599122 4.728652 1.315510392
3.256137133 4.725327015 1.526049137
1.652091146 2.391270161 -0.7671917081
1.656980634 2.396555662 -0.6627023816
1.72186017 2.489467144 -0.5801221728
1.752182245 2.531415224 -0.4809311032
3.303256273 4.768732548 -0.7071425319
3.314930201 4.783796787 -0.5054779649
3.323446512 4.792517662 -0.3034450114
3.324862719 4.792768002 -0.101117447
3.317627907 4.800210476 0.101152353
3.301988363 4.775794506 0.3020842671
3.318389654 4.79594183 0.506523788
3.289993525 4.751356602 0.7044613957
3.273827314 4.726247311 0.9039299488
3.308240891 4.772368431 1.120493412
3.279143333 4.726864338 1.318209887
3.273988485 4.717679977 1.52708447
1.651599765 2.372803926 -0.7630506158
1.673826933 2.403842211 -0.6663016081
1.737274647 2.493105412 -0.5824118257
1.766214609 2.53369379 -0.4824954569
3.328139305 4.770775795 -0.7090924382
3.330464602 4.770564556 -0.5053036213
3.345040321 4.789657116 -0.30396837
3.342714787 4.782774448 -0.101152353
