# .PCD v0.7 - Point Cloud Data file format
VERSION 0.7
FIELDS x y z
SIZE 4 4 4
TYPE F F F
COUNT 1 1 1
WIDTH 1200
HEIGHT 1
VIEWPOINT 0 0 0 1 0 0 0
POINTS 1200
DATA ascii
-0.4570268095 -3.76015687 0.5932510495
-0.4598655105 -3.772517681 0.7304796576
-0.4595591724 -3.76453495 0.8656082749
-0.4644809067 -3.793842077 1.012552142
-0.4454046786 -3.601547241 -0.9607883692
-0.3905119896 -3.148658276 -0.7225394249
-0.4664875567 -3.75587821 -0.7274267077
-0.4706227779 -3.778386593 -0.5963797569
-0.4708459079 -3.774806738 -0.4619413912
-0.4731198251 -3.782287598 -0.3297719359
-0.3487913013 -2.780478239 -0.1446577311
-0.3457015455 -2.75196147 -0.04771308228
-0.4018516839 -3.244724751 0.05636947975
-0.401448667 -3.236839533 0.1687322706
-0.404327631 -3.250762463 0.282882154
-0.4760056436 -3.816172838 0.4670598805
-0.4731658101 -3.788022995 0.5979440808
-0.4733493626 -3.778764009 0.7320061326
-0.4725255966 -3.766857386 0.8665081263
-0.4768181741 -3.790364027 1.012034535
-0.4553978145 -3.584718704 -0.9566472769
-0.4026747942 -3.160877705 -0.7256886959
-0.4794369936 -3.758205891 -0.7281899452
-0.4821473062 -3.768967628 -0.5951282978
-0.4840196967 -3.773140192 -0.4619413912
-0.484898299 -3.774769545 -0.3292489946
-0.3582647145 -2.781287432 -0.1447623968
-0.3588923514 -2.778502703 -0.04820175096
-0.4100858867 -3.223537207 0.05602043122
-0.4140083492 -3.245324612 0.1692556292
-0.4133381248 -3.235569239 0.2816619873
-0.4889099002 -3.816542864 0.4673036337
-0.488902539 -3.805941105 0.6010728478
-0.4898849428 -3.808329105 0.7381119728
-0.4916543961 -3.811570644 0.8773057461
-0.4890545607 -3.78101325 1.009963989
-0.4709099233 -3.606094122 -0.9628589153
-0.4114288092 -3.142062664 -0.7216396332
-0.4925531745 -3.756509542 -0.7281899452
-0.4947851896 -3.763344765 -0.5945025682
-0.4987437725 -3.783235788 -0.4634037912
-0.4983326793 -3.775029182 -0.3294233382
-0.3663986921 -2.768140078 -0.1441343725
-0.3649054468 -2.749480724 -0.04771308228
-0.4208167493 -3.218120575 0.05595061556
-0.4253345728 -3.243859768 0.1692556292
-0.4254077077 -3.240033388 0.2821849287
-0.5014523864 -3.808908463 0.4665724039
-0.5021849275 -3.80421114 0.6010728478
-0.5031756163 -3.806596041 0.7381119728
-0.5075168014 -3.829149485 0.8818047643
-0.5081033111 -3.823328257 1.021869659
-0.4829811752 -3.600599051 -0.9618236423
-0.4213552177 -3.132882118 -0.7198399901
-0.5067105889 -3.762549877 -0.7297164202
-0.5084474087 -3.765509605 -0.5951282978
-0.5103493929 -3.769669294 -0.4619413912
-0.5121651292 -3.773177385 -0.3294233382
-0.3747141659 -2.756948471 -0.143610999
-0.3782805204 -2.775929451 -0.04820175096
-0.4323137999 -3.218613863 0.05598552525
-0.4358551502 -3.236416817 0.168941617
-0.4372475147 -3.242477655 0.2825335264
-0.5136806369 -3.799265862 0.4655974507
-0.5162571669 -3.808307171 0.6020113826
-0.5164597034 -3.804816246 0.7381119728
-0.519040525 -3.813838005 0.8786554337
-0.5224909782 -3.82918787 1.023940206
-0.4982856512 -3.614114523 -0.9659647346
-0.4333545566 -3.139113903 -0.7216396332
-0.5194211006 -3.75288868 -0.7281899452
-0.5222458243 -3.763620853 -0.5951282978
-0.5224117637 -3.759999752 -0.4609664083
-0.5258831382 -3.775313139 -0.3297719359
-0.3861973286 -2.765447378 -0.1441343725
-0.4435463548 -3.217085123 0.05598552525
-0.4463290274 -3.228940725 0.1686275899
-0.4491289258 -3.240853548 0.2825335264
-0.5277584791 -3.803348541 0.4663286805
-0.5287305713 -3.800612688 0.6010728478
-0.5309440494 -3.806786776 0.7388752699
-0.5327456594 -3.809979916 0.8782055378
-0.5358542204 -3.827340841 1.023940206
-0.5076515079 -3.589399815 -0.9597530961
-0.4443099499 -3.133645296 -0.7207397819
-0.531965673 -3.747164965 -0.7274267077
-0.5359364748 -3.765686512 -0.5957540274
-0.5373109579 -3.765920639 -0.4619413912
-0.5397164226 -3.773360491 -0.3297719359
-0.396414876 -2.768036366 -0.1443437189
-0.4567361474 -3.225337744 0.05616004765
-0.4575992823 -3.223328114 0.1684182584
-0.4601585865 -3.237293243 0.2823592126
-0.5416945219 -3.801388741 0.4663286805
-0.541539669 -3.790827036 0.5998213291
-0.5447850823 -3.808797359 0.7396385074
-0.5463179946 -3.810026169 0.8786554337
-0.549053967 -3.819614172 1.022387266
-0.520803988 -3.587514877 -0.9597530961
-0.4544045329 -3.126290083 -0.7193900943
-0.5456966758 -3.745189905 -0.7274267077
-0.549163878 -3.75978756 -0.5951282978
-0.5510277748 -3.767950535 -0.4624288678
-0.5517287254 -3.763568163 -0.3290746808
-0.4082999229 -2.778420925 -0.1449717432
-0.4656936824 -3.207892179 0.05588080734
-0.4702865779 -3.231593132 0.168941617
-0.4691442847 -3.215869665 0.2806161046
-0.5561082959 -3.8073318 0.4673036337
-0.5547684431 -3.788913727 0.5998213291
-0.5587413907 -3.806774855 0.7396385074
-0.5614134669 -3.815710306 0.8804550171
-0.5615385771 -3.811940908 1.020834446
-0.5338333845 -3.593411684 -0.9618236423
-0.4641668797 -3.116974831 -0.7175904512
-0.5592709184 -3.751127243 -0.7289531827
-0.5607529283 -3.752084732 -0.5941897035
-0.5647648573 -3.769930363 -0.4629163444
-0.5647974014 -3.765658617 -0.3294233382
-0.4151352048 -2.761251688 -0.1441343725
-0.4754175842 -3.196357489 0.05570628494
-0.4806802273 -3.224005938 0.1686275899
-0.4806885123 -3.22020793 0.281139046
-0.5688070655 -3.801440954 0.4668161571
-0.5718004704 -3.812350035 0.6038886309
-0.5696129203 -3.793251991 0.7373487949
-0.5731937885 -3.808046579 0.8791053295
-0.5757060647 -3.815687895 1.022387266
-0.5469546318 -3.595345974 -0.9628589153
-0.4750440121 -3.115335703 -0.7175904512
-0.5723614693 -3.749151945 -0.7289531827
-0.5741451979 -3.752057314 -0.5945025682
-0.576115787 -3.756162882 -0.4614538848
-0.5788453817 -3.76957202 -0.3299462497
-0.4244678319 -2.757811308 -0.1440296918
-0.4880776405 -3.204562664 0.05588080734
-0.4901227355 -3.210461855 0.1679995656
-0.4922273159 -3.220479965 0.2813133597
-0.5805701613 -3.789621115 0.4655974507
-0.5842047334 -3.804473162 0.6029500365
-0.5822533965 -3.787359715 0.7365855575
-0.5870760679 -3.809874535 0.8800051212
-0.5899065733 -3.819382906 1.023940206
-0.560690403 -3.601050377 -0.9649294615
-0.4871173203 -3.121360302 -0.7193900943
-0.5842328072 -3.739372253 -0.7274267077
-0.5881558061 -3.755884886 -0.5954411626
-0.5892233849 -3.754129171 -0.4614538848
-0.5923099518 -3.769496679 -0.3301205635
-0.435023725 -2.762231827 -0.1443437189
-0.498028785 -3.194936275 0.05574119091
-0.4995342195 -3.200925589 0.1675808728
-0.5034659505 -3.218742132 0.2813133597
-0.594409883 -3.791493654 0.4660849273
-0.5952863097 -3.792757511 0.601385653
-0.596080482 -3.78918314 0.7373487949
-0.5994614959 -3.802027225 0.8786554337
-0.6031714678 -3.821222544 1.024975538
-0.5720411539 -3.591439724 -0.9628589153
-0.4959312975 -3.110105753 -0.717140615
-0.5966621637 -3.73343277 -0.7266634703
-0.6009193063 -3.75586462 -0.5957540274
-0.6019837856 -3.754114866 -0.461697638
-0.6051478386 -3.765439034 -0.3299462497
-0.4444985092 -2.762745619 -0.1444483697
-0.5095642209 -3.19919157 0.0558459051
-0.5116494894 -3.205079079 0.1678948998
-0.5131242871 -3.207128525 0.2804417908
-0.6076077223 -3.793421984 0.4665724039
-0.6063297987 -3.777004004 0.5991955996
-0.6092658043 -3.791062355 0.7381119728
-0.6117563844 -3.798094273 0.8782055378
-0.6152744889 -3.811464787 1.022904992
-0.5827070475 -3.581896305 -0.9607883692
-0.5105475783 -3.131435633 -0.7225394249
-0.6103045344 -3.73918438 -0.7281899452
-0.6127510667 -3.74594593 -0.5945025682
-0.613799572 -3.74415493 -0.4607226849
-0.6160179973 -3.753581285 -0.3290746808
-0.4544638395 -2.763148308 -0.1445530504
-0.5187998414 -3.185551167 0.05563647673
-0.5222748518 -3.203364611 0.1678948998
-0.5221503377 -3.195577383 0.2795702517
-0.6185996532 -3.777565002 0.4648662508
-0.6175733209 -3.767174721 0.5979440808
-0.6231315732 -3.792787075 0.7388752699
-0.6253267527 -3.797858715 0.8786554337
-0.6250827909 -3.792248249 1.018246174
-0.5939388871 -3.572217703 -0.958717823
-0.5183694363 -3.114346981 -0.7189401984
-0.6227070689 -3.733158112 -0.7274267077
-0.6241933703 -3.738048315 -0.5935639739
-0.6285062432 -3.755803823 -0.4624288678
-0.6294458508 -3.753373146 -0.3292489946
-0.4626323581 -2.755716801 -0.1442390382
-0.4867023826 -2.892910004 -0.05050547048
-0.5280485153 -3.175923109 0.0554968603
-0.5334535837 -3.201522112 0.1678948998
-0.5333018899 -3.193735361 0.2795702517
-0.6298140883 -3.767661333 0.4638912976
-0.633656919 -3.782530069 0.6007599235
-0.6305102706 -3.759720325 0.7327693701
-0.6340419054 -3.772702694 0.8732566237
-0.6395998597 -3.797663689 1.02031672
-0.6083669662 -3.585465193 -0.9628589153
-0.5285841823 -3.108676195 -0.7180404067
-0.6383727193 -3.746444702 -0.7304796576
-0.6375700235 -3.737793922 -0.5938768387
-0.6409433484 -3.749673605 -0.4619413912
-0.6432170868 -3.755080462 -0.3295976222
-0.4713776112 -2.746129036 -0.1438203603
-0.4896863699 -2.849806309 -0.04977246746
-0.5381271839 -3.168145895 0.05539214239
-0.5429497957 -3.189796209 0.1673715413
-0.545563221 -3.201769829 0.2804417908
-0.6426273584 -3.763483286 0.4636475444
-0.6451907754 -3.770560265 0.5991955996
-0.6456134319 -3.765124321 0.734295845
-0.6501740217 -3.78775239 0.8773057461
-0.6505595446 -3.782080412 1.016693354
-0.5363037586 -3.085598469 -0.713091433
-0.650752008 -3.736343145 -0.7289531827
-0.653301239 -3.747108221 -0.5957540274
-0.654340744 -3.745343924 -0.461697638
-0.6586933136 -3.7625103 -0.3304691911
-0.4828199744 -2.752251625 -0.1442390382
-0.4963233173 -2.826327085 -0.04938851297
-0.5514455438 -3.176003456 0.05556666851
-0.5532678962 -3.179913521 0.1669528484
-0.5576362014 -3.201711416 0.2806161046
-0.6557348371 -3.75719142 0.4631600678
-0.6579854488 -3.762332439 0.5982570052
-0.6614423394 -3.774335146 0.7365855575
-0.6593384743 -3.758471966 0.8710071445
-0.6657555699 -3.787281036 1.018763781
-0.6366561055 -3.592322826 -0.9659647346
-0.5540831685 -3.120067835 -0.7216396332
-0.6624159813 -3.726317167 -0.7274267077
-0.6684163809 -3.752467632 -0.5970055461
-0.6673657298 -3.739012241 -0.4612101614
-0.6697204709 -3.748420477 -0.3294233382
-0.4934801757 -2.756447554 -0.1445530504
-0.5006765723 -2.7910285 -0.04879513383
-0.5616853237 -3.166085243 0.05542704463
-0.5642201304 -3.173931837 0.166743502
-0.5669239759 -3.185914993 0.2793959379
-0.6754251122 -3.787985325 0.4673036337
-0.6731603742 -3.767673492 0.5995084643
-0.674613297 -3.772003651 0.7365855575
-0.6748283505 -3.765621185 0.8732566237
-0.6789493561 -3.781012774 1.017728567
-0.6471292973 -3.578672171 -0.9628589153
-0.5656658411 -3.121949673 -0.7225394249
-0.675419271 -3.723982096 -0.7274267077
-0.6793912649 -3.738450289 -0.5951282978
-0.682903111 -3.750330448 -0.4629163444
-0.6813713908 -3.7382195 -0.328726083
-0.5038167238 -2.758637667 -0.1447623968
-0.5086160302 -2.77942872 -0.04862061143
-0.5453076959 -3.012590647 0.05273937434
-0.5774344206 -3.183734179 0.1673715413
-0.5759064555 -3.172154665 0.2783500552
-0.6893537045 -3.789510489 0.4677911103
-0.6902039647 -3.786677837 0.6029500365
-0.6898899078 -3.781213999 0.7388752699
-0.6925246119 -3.788162947 0.8791053295
-0.6921430826 -3.778620005 1.017728567
-0.6627705693 -3.593490124 -0.967517674
-0.5716023445 -3.093127966 -0.7162407637
-0.6926996112 -3.744767666 -0.7320061326
-0.6938768029 -3.743824959 -0.5963797569
-0.6960597634 -3.751948833 -0.4634037912
-0.6958726048 -3.743653536 -0.3294233382
-0.5116143823 -2.747044802 -0.1442390382
-0.516364634 -2.769863129 -0.04848098755
-0.5177012682 -2.804190159 0.04907437414
-0.5883519053 -3.18376565 0.167476207
-0.5877010822 -3.174043179 0.2786986828
-0.7018533349 -3.783177614 0.4673036337
-0.7020360827 -3.7804842 0.602324307
-0.7016487122 -3.771062136 0.7373487949
-0.7061528563 -3.791593075 0.8804550171
-0.7067959905 -3.787698269 1.020834446
-0.6750401258 -3.593170881 -0.9680352807
-0.5836585164 -3.100790977 -0.718490243
-0.7029330134 -3.7308743 -0.7297164202
-0.7051883936 -3.73568058 -0.5954411626
-0.7077608705 -3.745718718 -0.4629163444
-0.7090245485 -3.745240688 -0.3297719359
-0.5203490257 -2.74337101 -0.1441343725
-0.5233092308 -2.756348133 -0.0482715629
-0.5233018994 -2.782805204 0.04872532189
-0.5963200331 -3.16805768 0.166743502
-0.598592639 -3.174034595 0.2788729966
-0.7125522494 -3.771076202 0.4660849273
-0.714201808 -3.776194096 0.6020113826
-0.7148808241 -3.772572517 0.7381119728
-0.7172698975 -3.781572342 0.8786554337
-0.7211556435 -3.79482317 1.023422599
-0.6873144507 -3.592810392 -0.968552947
-0.5932043791 -3.095010757 -0.7175904512
-0.6979162097 -3.63790226 -0.7117803693
-0.7149626017 -3.71974206 -0.5932510495
-0.7167025208 -3.7217834 -0.4602352083
-0.7224710584 -3.744699001 -0.3299462497
-0.5286862254 -2.737708092 -0.1439250112
-0.5279892087 -2.728981972 -0.04781780019
-0.5389202237 -2.814443111 0.04931870475
-0.605117619 -3.154187679 0.1661154628
-0.6098660827 -3.17594552 0.2792215943
-0.7254288793 -3.770642281 0.4663286805
-0.7270047069 -3.771738768 0.6016985774
-0.728875041 -3.777891874 0.7396385074
-0.7282463312 -3.767565489 0.8759559989
-0.7347650528 -3.794179201 1.023940206
-0.6982590556 -3.578890085 -0.9654470682
-0.6062455177 -3.10439682 -0.720289886
-0.7103530765 -3.624049187 -0.5782333612
-0.7117271423 -3.627705097 -0.4487794936
-0.7336164713 -3.732379436 -0.3290746808
-0.5402604938 -2.743590593 -0.1443437189
-0.5378986597 -2.729084015 -0.04785270244
-0.569036603 -2.916567326 0.05116865784
-0.6176564097 -3.159897089 0.1665341556
-0.6199708581 -3.165868044 0.278524369
-0.7401133776 -3.775879145 0.4673036337
-0.7378827333 -3.757547617 0.5998213291
-0.7427168489 -3.775195122 0.7396385074
-0.7446887493 -3.778254747 0.8791053295
-0.7468830943 -3.785905361 1.022387266
-0.7099944353 -3.572641373 -0.9644118547
-0.6187608242 -3.107887745 -0.7216396332
-0.7124196291 -3.575053215 -0.7003318071
-0.7202920914 -3.607987642 -0.5760433078
-0.7230721116 -3.615339279 -0.4475607872
-0.7247403264 -3.620392323 -0.3193132579
-0.5521901846 -2.753437519 -0.1449717432
-0.5497829914 -2.738953352 -0.04806213081
-0.5863546133 -2.947803497 0.0517620407
-0.6286824346 -3.157721758 0.1665341556
-0.627900362 -3.148053408 0.2771298885
-0.7551146746 -3.77898097 0.4680348635
-0.7529312372 -3.764634132 0.601385653
-0.7558898926 -3.77257967 0.7396385074
-0.7582563758 -3.77754283 0.8795552254
-0.7585718036 -3.775699139 1.02031672
-0.7239933014 -3.577715158 -0.9664824009
-0.6275162697 -3.098178864 -0.7198399901
-0.7299698591 -3.597557068 -0.7052928805
-0.7310729027 -3.5997715 -0.5751047134
-0.7322868109 -3.599305153 -0.445854634
-0.7349857092 -3.606127501 -0.318267405
-0.5581242442 -2.735935688 -0.1441343725
-0.5601409078 -2.740936041 -0.04813193902
-0.6016791463 -2.973282576 0.05225070938
-0.640098393 -3.157464981 0.1666388214
-0.6400746703 -3.15170002 0.2776528001
-0.7652696967 -3.764784098 0.4665724039
-0.7672498226 -3.767790079 0.602324307
-0.7652595043 -3.754662514 0.7365855575
-0.7727283239 -3.784554243 0.8818047643
-0.7732949853 -3.780598879 1.022387266
-0.7358536124 -3.575294733 -0.9664824009
-0.6402951479 -3.105512381 -0.7220894694
-0.7450697422 -3.610498667 -0.7083458304
-0.7432345748 -3.595263004 -0.5747917891
-0.7456510663 -3.600614786 -0.4463421106
-0.7477489114 -3.607572079 -0.3186160028
-0.5672650933 -2.732015133 -0.1440296918
-0.5725557804 -2.752668619 -0.04837627336
-0.6382792592 -3.098471403 0.05451951921
-0.6482902765 -3.141519547 0.1659061313
-0.6501196027 -3.147608757 0.2774784863
-0.7759929895 -3.750426292 0.4651100039
-0.7779922485 -3.753483295 0.6004470587
-0.779158771 -3.755813122 0.7373487949
-0.7827617526 -3.766570091 0.8782055378
-0.7860934138 -3.775985479 1.021869659
-0.7487249374 -3.574595213 -0.9670000076
-0.6503308415 -3.099444151 -0.7211896777
-0.7544403672 -3.592504978 -0.7052928805
-0.7553729415 -3.590713978 -0.5744789839
-0.7565781474 -3.590219975 -0.4453671277
-0.7607479692 -3.606889486 -0.3187903166
-0.5805140138 -2.747605324 -0.1449717432
-0.5983090401 -2.826951265 -0.04973756149
-0.6556559205 -3.127538681 0.0550779961
-0.657610476 -3.131418943 0.1654874384
-0.660693109 -3.143370628 0.2773042023
-0.7690394521 -3.652512074 0.4531667829
-0.7784515023 -3.690826178 0.5907481313
-0.7983469367 -3.781884193 0.7430730462
-0.7950981259 -3.760001659 0.8773057461
-0.8016714454 -3.784558058 1.024975538
-0.7571721077 -3.553065538 -0.9618236423
-0.6599252224 -3.091437817 -0.7198399901
-0.7653353214 -3.582170248 -0.7037664056
-0.7691543698 -3.584731102 -0.3170472085
-0.5888420939 -2.73970437 -0.1446577311
-0.6165117025 -2.866006136 -0.05047056451
-0.6686547399 -3.135009527 0.05525252223
-0.6688246727 -3.133127689 0.1656967849
-0.6695785522 -3.131303549 0.2764326334
-0.7792894244 -3.638159037 0.4517043531
-0.7778502703 -3.628348589 0.5810492039
-0.7839252949 -3.650468349 0.7175046802
-0.7885472178 -3.66575551 0.8557104468
-0.812184155 -3.772435427 1.022387266
-0.7703881264 -3.554176807 -0.9628589153
-0.6689338088 -3.08351922 -0.718490243
-0.7795019746 -3.587150574 -0.7052928805
-0.7776972055 -3.575837851 -0.5729146004
-0.7842111588 -3.593704224 -0.3180930614
-0.5979241729 -2.737736702 -0.1446577311
-0.6183920503 -2.826720238 -0.04980736971
-0.6760816574 -3.119094849 0.05500818789
-0.6793338656 -3.128821611 0.1655921042
-0.6796575785 -3.125053406 0.2760840058
-0.7896610498 -3.627796412 0.4507293999
-0.7896692157 -3.621750832 0.5804234743
-0.7926779389 -3.632503986 0.7144517303
-0.7977856994 -3.649794102 0.8525611162
-0.7989029884 -3.648800373 0.9892584085
-0.7842476368 -3.561035872 -0.9654470682
-0.6805329919 -3.084971428 -0.7193900943
-0.7922397256 -3.588380098 -0.7060560584
-0.7935873866 -3.588531733 -0.5754175782
-0.7978005409 -3.601620197 -0.4478045106
-0.7971820235 -3.592890024 -0.318267405
-0.6066111326 -2.731733322 -0.1444483697
-0.6312947273 -2.838208675 -0.05005170777
-0.6839522719 -3.103046179 0.05476385728
-0.689820528 -3.12448144 0.1654874384
-0.6891576648 -3.118891478 0.2757353783
-0.8006033301 -3.617264986 0.4497544467
-0.8048722148 -3.630543709 0.582300663
-0.802801013 -3.618214846 0.7121619582
-0.8100982904 -3.645084858 0.8521112204
-0.8107953668 -3.642217875 0.9882231951
-0.8002511263 -3.571333408 -0.9690706134
-0.6895917058 -3.074970961 -0.7175904512
-0.8079682589 -3.596945524 -0.7083458304
-0.8089027405 -3.595234632 -0.5769819021
-0.8077508807 -3.587194204 -0.4463421106
-0.8114725947 -3.597859621 -0.3189646304
-0.615298748 -2.723647356 -0.1441343725
-0.6451669931 -2.853541613 -0.05036585033
-0.6952171326 -3.102591038 0.05479875952
-0.6994103193 -3.116208076 0.1651734263
-0.7023320794 -3.124120235 0.2764326334
-0.8132256269 -3.614448309 0.4497544467
-0.8175398707 -3.62771225 0.582300663
-0.8169221282 -3.619078159 0.7129251957
-0.8204445839 -3.628785849 0.8489618897
-0.8230779171 -3.637481451 0.9877055883
-0.8152860999 -3.579819918 -0.972176373
-0.7017242312 -3.07622242 -0.718490243
-0.8170233965 -3.578791142 -0.7052928805
-0.8218874931 -3.594315052 -0.5772947669
-0.8217796683 -3.588079214 -0.4468295872
-0.8255445361 -3.598745108 -0.3193132579
-0.6261433959 -2.72732234 -0.1444483697
-0.6766837835 -2.942753077 -0.05200637504
-0.7065836787 -3.100022316 0.05479875952
-0.7077158689 -3.099993467 0.1644407213
-0.7123454213 -3.117764711 0.2760840058
-0.8264673948 -3.61144352 0.4497544467
-0.8303893209 -3.622765779 0.5819877982
-0.8313055634 -3.623858929 0.7144517303
-0.8313605785 -3.618302822 0.8471622467
-0.8390040398 -3.645735979 0.990811348
-0.8249146938 -3.561751366 -0.9680352807
-0.7146578431 -3.083246469 -0.7207397819
-0.8292469382 -3.571947813 -0.7045296431
-0.8363980055 -3.597050667 -0.5782333612
-0.8333996534 -3.581321955 -0.4463421106
-0.8358403444 -3.586139679 -0.318441689
-0.6356813908 -2.723064423 -0.1443437189
-0.746547699 -3.195464134 -0.05657890439
-0.7192057371 -3.105329514 0.05493837968
-0.7194352746 -3.101395369 0.1646500677
-0.7219638824 -3.107370138 0.2753867507
-0.8417662978 -3.620137691 0.4512168765
-0.8407898545 -3.610225439 0.5804234743
-0.8463661075 -3.628435373 0.7159781456
-0.8468334675 -3.62471962 0.8494117856
-0.8508449197 -3.639023066 0.9897761345
-0.8352168202 -3.55538106 -0.9670000076
-0.7271100879 -3.090344191 -0.7229892612
-0.8431645632 -3.580791235 -0.7068193555
-0.8467872739 -3.590559959 -0.5776076317
-0.8470965624 -3.586266279 -0.4473170638
-0.8457270861 -3.577679396 -0.3179187477
-0.6469936371 -2.732714891 -0.1449717432
-0.7602709532 -3.208669424 -0.0568581447
-0.7258379459 -3.087354422 0.05465914309
-0.7310045362 -3.106896639 0.1650687456
-0.7280666828 -3.089572668 0.2739922702
-0.8546785712 -3.621190071 0.4517043531
-0.8543982506 -3.617178917 0.5819877982
-0.8568571806 -3.621937513 0.7152149081
-0.8586657047 -3.623937607 0.8498616815
-0.8604902625 -3.628813028 0.9877055883
-0.8494154215 -3.559960365 -0.9690706134
-0.7350910306 -3.078438759 -0.7207397819
-0.8565716147 -3.581644773 -0.707582593
-0.8577698469 -3.583889961 -0.5769819021
-0.8612977862 -3.593089581 -0.4485357404
-0.8600713611 -3.582454681 -0.3186160028
-0.6532523632 -2.718902826 -0.1443437189
-0.7667887807 -3.186553955 -0.05650909618
-0.7323592305 -3.069369555 0.05437990278
-0.7395241857 -3.094613075 0.164545387
-0.7388468981 -3.087012291 0.2739922702
-0.8648327589 -3.6106143 0.4507293999
-0.8684014678 -3.619936943 0.5829263926
-0.8661135435 -3.607621908 0.7129251957
-0.8734124899 -3.63243866 0.8525611162
-0.8745089173 -3.631421566 0.9892584085
-0.8603069782 -3.553368568 -0.9680352807
-0.7407810092 -3.055022001 -0.7157908678
-0.8684442043 -3.578784704 -0.707582593
-0.8688753247 -3.575115442 -0.5760433078
-0.8705486059 -3.576559782 -0.4468295872
-0.8725708723 -3.579430819 -0.3186160028
-0.6617928147 -2.712725163 -0.1441343725
-0.7779069543 -3.183858156 -0.05650909618
-0.7449521422 -3.074568272 0.05451951921
-0.747025013 -3.0784266 0.163812682
-0.748609364 -3.082609415 0.2738179564
-0.8764922619 -3.603715658 0.4502418935
-0.8814997077 -3.618803024 0.5832393169
-0.8805606961 -3.612206459 0.7144517303
-0.8856246471 -3.627474308 0.8521112204
-0.888556242 -3.63397646 0.990811348
-0.8705561757 -3.538936138 -0.9649294615
-0.7565643191 -3.073231936 -0.7207397819
-0.8796754479 -3.567952871 -0.7060560584
-0.8843402863 -3.581496 -0.5776076317
-0.8801706433 -3.561936378 -0.4453671277
-0.8869742751 -3.584099293 -0.3193132579
-0.6741330624 -2.719974279 -0.1446577311
-0.7625394464 -3.074374437 -0.05458933115
-0.7728765011 -3.141854048 0.05577609316
-0.7572880983 -3.073860645 0.1637080163
-0.7536984682 -3.054697752 0.2715519071
-0.8909693956 -3.608343363 0.4512168765
-0.8931780457 -3.61186862 0.5826135874
-0.8956821561 -3.616577625 0.7159781456
-0.896099329 -3.612855434 0.8494117856
-0.9021662474 -3.634603024 0.9918466806
-0.8660553694 -3.468400717 -0.9462944865
-0.7687692046 -3.074219465 -0.7216396332
-0.895396471 -3.57263875 -0.5766690373
-0.8966028094 -3.572164059 -0.4470733404
-0.8975387812 -3.573251724 -0.3186160028
-0.6841107607 -2.71954155 -0.1447623968
-0.7703371048 -3.060058832 -0.05437990278
-0.7965061665 -3.187501669 0.05664871633
-0.797085762 -3.187453985 0.1699883342
-0.8993998766 -3.591271877 0.320184797
-0.9041887522 -3.605053425 0.4512168765
-0.9038568735 -3.60106492 0.5813620687
-0.9083009958 -3.613428831 0.7159781456
-0.9106076956 -3.617264748 0.8512114286
-0.9120163918 -3.620191813 0.9887408614
-0.8767334819 -3.459738731 -0.9447416067
-0.7794381976 -3.073542118 -0.7220894694
-0.8808828592 -3.468485355 -0.6873568296
-0.8814498186 -3.468180656 -0.5600869656
-0.9050847292 -3.550790548 -0.3168728948
-0.6946064234 -2.723063707 -0.145076409
-0.7829934359 -3.065101147 -0.05451951921
-0.8046159148 -3.175150633 0.05647419393
-0.8086981773 -3.186588287 0.1700929999
-0.9138935208 -3.595834732 0.3208820522
-0.9195638299 -3.615501881 0.4529230297
-0.9164215922 -3.597887993 0.5813620687
-0.9212480187 -3.614201784 0.7167413831
-0.9216341376 -3.610448837 0.8503116369
-0.9246477485 -3.616986036 0.9887408614
-0.8901243806 -3.464296818 -0.9468121529
-0.7921047211 -3.078351974 -0.7238891125
-0.891890049 -3.463644028 -0.6869751811
-0.8910844922 -3.455518723 -0.5585226417
-0.8975678682 -3.475642681 -0.4356175959
-0.8974125981 -3.472537994 -0.3100747466
-0.7006043792 -2.707087755 -0.1443437189
-0.7951933742 -3.068156481 -0.05462423339
-0.8127065897 -3.160702229 0.05626476184
-0.8178240657 -3.176009655 0.169674322
-0.9307845235 -3.612077713 0.3226251602
-0.9287070632 -3.598815203 0.4512168765
-0.9309516549 -3.602317333 0.5826135874
-0.9299263954 -3.595757961 0.7136884332
-0.93618536 -3.61475563 0.8521112204
-0.9392078519 -3.621216297 0.990811348
-0.7900477648 -3.026543856 -0.7121916413
-0.9272969961 -3.549786091 -0.704911232
-0.9126394987 -3.488697529 -0.5644671321
-0.9096947312 -3.472488403 -0.4356175959
-0.9135706425 -3.484802485 -0.3114692271
-0.7100496292 -2.704625607 -0.1443437189
-0.807423532 -3.071164131 -0.05472895131
-0.8227248192 -3.153976679 0.05619495362
-0.8253723383 -3.159608364 0.168941617
-0.943386972 -3.608806849 0.3226251602
-0.9402578473 -3.591710806 0.4507293999
-0.9465261698 -3.610510588 0.5844907761
-0.9434683919 -3.596288204 0.7144517303
-0.9487980008 -3.611465693 0.8521112204
-0.9518421292 -3.61791563 0.990811348
-0.8011063337 -3.025651217 -0.7126415372
-0.9447104335 -3.565505743 -0.7087274194
-0.9455829263 -3.563772202 -0.5772947669
-0.9442400932 -3.553706884 -0.4463421106
-0.9400646091 -3.535505772 -0.3163499534
-0.7200001478 -2.704060316 -0.1444483697
-0.8171086907 -3.064462662 -0.05465914309
-0.843447566 -3.187815428 0.0568581447
-0.8348614573 -3.1509161 0.1686275899
-0.9564895034 -3.607417583 0.3227995038
-0.9548268914 -3.596081018 0.4517043531
-0.9550626874 -3.59191227 0.5819877982
-0.9580349326 -3.600562334 0.7159781456
-0.960896492 -3.606248856 0.8516612649
-0.9664575458 -3.622037649 0.9928820133
-0.7592440248 -2.831562042 -0.7739210129
-0.822275579 -3.062360048 -0.7220894694
-0.9546038508 -3.55270648 -0.7068193555
-0.9590432644 -3.564264774 -0.5779204965
-0.9597374797 -3.561889648 -0.4478045106
-0.961217463 -3.564905405 -0.3193132579
-0.7309967279 -2.707315445 -0.1447623968
-0.8319762945 -3.077034712 -0.05493837968
-0.8618254066 -3.211891651 0.05734681338
-0.857775867 -3.192346096 0.1710350513
-0.9680409431 -3.600208759 0.3224508464
-0.9678903222 -3.594643116 0.4519481063
-0.9691373706 -3.594278574 0.5829263926
-0.9746894836 -3.612359762 0.7190310955
-0.9739867449 -3.604753971 0.8521112204
-0.9790951014 -3.618641853 0.9928820133
-0.7270565033 -2.674167395 -0.7309570909
-0.7351826429 -2.700334072 -0.6361581683
-0.973734498 -3.564262629 -0.4485357404
-0.9747068882 -3.565372467 -0.3196618855
-0.7430790663 -2.714379072 -0.1452857554
-0.8411257267 -3.068325996 -0.05483366549
-0.9302536845 -3.419184923 0.06115143746
-0.8799389005 -3.229799986 0.1732331663
-0.9790300131 -3.59104085 0.3219279051
-0.9835686684 -3.602732658 0.4534105062
-0.9832411408 -3.596589804 0.5838650465
-0.9852205515 -3.601360798 0.7175046802
-0.9860494733 -3.599452496 0.8516612649
-0.9886542559 -3.604023933 0.9897761345
-0.7379264235 -2.677200794 -0.7325099707
-0.7446044683 -2.697751284 -0.6361581683
-0.7405197024 -2.681128502 -0.5324198604
-0.7401024103 -2.675976276 -0.433062166
-0.750413239 -2.704070807 -0.1448670775
-0.9937136769 -3.57594347 -0.06408344209
-0.9857831001 -3.57398963 0.06401363015
-0.9906404614 -3.58671689 0.1928068101
-0.9931515455 -3.593362808 0.3224508464
-0.9940207005 -3.591624737 0.4524355829
-0.9978995323 -3.600750446 0.5851165056
-0.9956870675 -3.590332508 0.7159781456
-1.002257705 -3.609132767 0.8548106551
-1.002781391 -3.606134415 0.9913290739
-0.7493468523 -2.682050705 -0.7345805168
-0.7498162985 -2.680122375 -0.6325589418
-0.7514622808 -2.684198856 -0.5335647464
-0.7531710267 -2.686691046 -0.4352522194
-0.7550231814 -2.689684153 -0.3378783762
-0.7576491237 -2.697230816 -0.2413960099
-0.7571437955 -2.691821575 -0.1443437189
-1.007733822 -3.580328226 -0.06422305852
-0.9982523322 -3.570526838 0.06401363015
-1.001991153 -3.581488848 0.1927021444
-1.00676322 -3.593711376 0.3227995038
-1.006015658 -3.586221457 0.4521918297
-1.009834647 -3.597421169 0.5851165056
-1.009276152 -3.590614796 0.7167413831
-1.013266325 -3.599984407 0.8534609079
-1.017876387 -3.613946438 0.9944348335
-0.7618621588 -2.690571547 -0.737686336
-0.7613561153 -2.686995745 -0.6348084807
-0.759219408 -2.675893307 -0.5324198604
-0.766392529 -2.699380875 -0.4377551973
-0.7612239122 -2.677618265 -0.3366596699
-0.7681509852 -2.698402405 -0.2417446524
-0.7671601176 -2.693137646 -0.1445530504
-1.020225048 -3.576788902 -0.06422305852
-1.013356209 -3.578741074 0.06422305852
-1.012307525 -3.570283175 0.1922834516
-1.022566557 -3.601674795 0.3238453567
-1.018987656 -3.586684942 0.4526793063
-1.021304607 -3.590074778 0.5844907761
-1.024402857 -3.598577738 0.7190310955
-1.023061633 -3.58910799 0.8516612649
-1.029955149 -3.608513594 0.9939172268
-0.9720616937 -3.389981985 -0.9333535433
-0.7653529644 -2.665591002 -0.6303094625
-0.7675468922 -2.671474218 -0.5320382714
-0.7719875574 -2.683400631 -0.435565114
-0.7727639079 -2.682574987 -0.3376346231
-0.7770947218 -2.695840359 -0.2417446524
-0.7771105766 -2.692362309 -0.1446577311
-1.029306173 -3.563780069 -0.06404853612
-1.025841832 -3.575181961 0.06422305852
-1.025795102 -3.572665691 0.1925974637
-1.032302618 -3.590604782 0.3231481016
-1.033697605 -3.590736628 0.4536542594
-1.031563759 -3.580973625 0.5835521221
-1.036957622 -3.594980001 0.7190310955
-1.035583735 -3.585515022 0.8516612649
-1.042451739 -3.606934309 0.9944348335
-0.9828108549 -3.382858038 -0.9323183298
-0.9945115447 -3.420902014 -0.8125198483
-1.029277086 -3.535885096 -0.707582593
-0.7875111103 -2.703584433 -0.4393195212
-0.7822110653 -2.681903601 -0.3378783762
-0.7831491828 -2.681636333 -0.2406987846
-0.7905163169 -2.705106974 -0.1454951018
-1.044547439 -3.569761753 -0.06422305852
-1.036576271 -3.567919731 0.06415324658
-1.041607261 -3.580569983 0.193225503
-1.043715596 -3.583153963 0.3227995038
-1.045599341 -3.587289095 0.4536542594
-1.046824694 -3.586832047 0.5851165056
-1.047772765 -3.587752581 0.718267858
-1.051296473 -3.595154285 0.8548106551
-1.053407907 -3.597711563 0.9928820133
-0.9929332137 -3.375873089 -0.9312829971
-0.995986104 -3.381891966 -0.8039717078
-1.047656536 -3.555050611 -0.7121619582
-1.045722008 -3.543923616 -0.5785462856
-1.050802588 -3.552002907 -0.3203591108
-0.8373705149 -2.828728676 -0.152403459
-1.05813849 -3.569928169 -0.06429287046
-1.047895193 -3.560442924 0.06408344209
-1.055792809 -3.582659721 0.1935395151
-1.055592179 -3.579673052 0.3227995038
-1.056990385 -3.579809666 0.4531667829
-1.059898853 -3.585050583 0.5854293704
-1.059176207 -3.580307961 0.7175046802
-1.065499902 -3.597068071 0.8561603427
-1.068156838 -3.601421118 0.9949524403
-1.000332594 -3.355549574 -0.9266242981
-0.9983151555 -3.346648455 -0.796323359
-1.059555769 -3.547424555 -0.7113987803
-1.060968161 -3.547637224 -0.5797977448
-1.060429096 -3.543581486 -0.449023217
-1.06662631 -3.559764624 -0.3214049935
-1.068697214 -3.562153101 -0.1927021444
-1.074043393 -3.577704191 -0.06450229883
-1.061459661 -3.560595989 0.06415324658
-1.064864755 -3.567469597 0.1929114759
-1.072128057 -3.587233543 0.3238453567
-1.068342328 -3.572294712 0.4526793063
-1.073539853 -3.585113525 0.5860551
-1.073418856 -3.580163002 0.718267858
-1.076435566 -3.585672855 0.8543606997
-1.083500624 -3.606921196 0.9975407124
-1.008130789 -3.339091778 -0.9230008125
-1.007755041 -3.333640099 -0.7940738797
-1.07022655 -3.538066864 -0.7102538943
-1.07563591 -3.551474333 -0.5810492039
-1.074562073 -3.543470621 -0.4495107234
-1.080245137 -3.557737589 -0.3215793073
-1.081124544 -3.558401108 -0.1927021444
-1.083657146 -3.562264919 -0.06429287046
-1.076816201 -3.564338684 0.06429287046
-1.080245733 -3.571189404 0.1933301687
-1.086374998 -3.589190483 0.3243682981
-1.080277205 -3.564555168 0.4521918297
-1.08724606 -3.583045244 0.5863679647
-1.087050676 -3.58015132 0.7190310955
-1.087811351 -3.578164577 0.8534609079
-1.097276092 -3.604773998 0.9980583191
-1.012450457 -3.309511185 -0.9157538414
-1.017103553 -3.322648525 -0.7922742367
-1.089515924 -3.554768324 -0.7144517303
-1.092122555 -3.558838606 -0.5829263926
-1.088090062 -3.543493271 -0.4499981999
-1.090315223 -3.546327829 -0.3208820522
-1.097097993 -3.563958645 -0.193225503
-1.095496178 -3.556549549 -0.06425796449
-1.09159112 -3.568207264 0.06443248689
-1.090950727 -3.561667919 0.1930161566
-1.098354459 -3.581374884 0.3240196705
-1.09853673 -3.579740047 0.4546292126
-1.096845865 -3.569787025 0.5848036408
-1.102474093 -3.583648682 0.7205575705
-1.10321331 -3.58160305 0.8552604914
-1.108713984 -3.597229481 0.9970231056
-1.015994549 -3.280122042 -0.9085069299
-1.026965976 -3.311453342 -0.7904746532
-1.15137589 -3.710322618 -0.7468892336
-1.139704943 -3.668190479 -0.6016985774
-1.112273812 -3.57549572 -0.4546292126
-1.106832623 -3.55581665 -0.3221022487
-1.111314416 -3.565828085 -0.1935395151
-1.111476779 -3.564157724 -0.06446739286
-1.102294326 -3.55654192 0.06429287046
-1.106334329 -3.567376375 0.1935395151
-1.107895017 -3.568005085 0.3231481016
-1.112828493 -3.579481125 0.455116719
-1.109886765 -3.567822456 0.5851165056
-1.114976764 -3.579778433 0.7205575705
-1.116869569 -3.581450939 0.8561603427
-1.119537592 -3.587805033 0.9954701662
-1.026860118 -3.274712086 -0.9079892635
-1.030357361 -3.283857584 -0.7846258879
-1.168438911 -3.719392061 -0.7495605946
-1.168449044 -3.717155933 -0.6104589105
-1.170607686 -3.719483137 -0.4736408293
-1.164746284 -3.69635272 -0.3353499174
-1.136345983 -3.60402894 -0.1958422959
-1.131134748 -3.583139658 -0.0648862496
-1.11468029 -3.554775238 0.06432776898
-1.121173501 -3.571114779 0.1939581931
-1.122135043 -3.569818258 0.3236710429
-1.123501182 -3.571983576 0.4546292126
-1.126487136 -3.577116013 0.5873065591
-1.124481559 -3.568571806 0.7190310955
-1.131670952 -3.587020159 0.8584098816
-1.133800387 -3.589401722 0.9970231056
-1.032456756 -3.254715919 -0.9033305049
-1.031785488 -3.248666763 -0.7769775391
-1.180766463 -3.715497017 -0.7495605946
-1.183813095 -3.720584154 -0.6117103696
-1.184788704 -3.719156981 -0.4741283059
-1.190309525 -3.734232187 -0.339184761
-1.192032576 -3.735132933 -0.2032739967
-1.196541667 -3.747002602 -0.06795787811
-1.134341955 -3.573734522 0.06474663317
-1.135427237 -3.574991703 0.1943769008
-1.136381984 -3.573672295 0.3243682981
-1.133553863 -3.560474157 0.4536542594
-1.140142083 -3.579007149 0.588245213
-1.138124108 -3.568365335 0.719794333
-1.141221523 -3.573765993 0.8561603427
-1.148049116 -3.592982769 0.9990936518
-1.037905574 -3.232698679 -0.8981541395
-1.043149471 -3.247082472 -0.7774274349
-1.192526102 -3.70761466 -0.7487972975
-1.196144581 -3.71663785 -0.6117103696
-1.196506858 -3.71331811 -0.4738845825
-1.201501608 -3.72436595 -0.3386618197
-1.20257163 -3.72545743 -0.2029599845
-1.207768679 -3.737094641 -0.0678531602
-1.197535157 -3.72988677 0.0676786378
-1.166847467 -3.629950523 0.197621718
-1.155563951 -3.59054637 0.3262857199
-1.150830984 -3.573701143 0.4558478892
-1.148385167 -3.561844826 0.5860551
-1.151156545 -3.568308353 0.7205575705
-1.151867986 -3.566252947 0.8552604914
-1.161772847 -3.592629671 1.000128865
-1.042617321 -3.208845615 -0.8924601674
-1.048411965 -3.222852707 -0.7724785209
-1.205461383 -3.703429222 -0.7487972975
-1.213430882 -3.723498106 -0.6135875583
-1.212571621 -3.716456652 -0.4748595357
-1.216381431 -3.723724842 -0.3390104473
-1.219941139 -3.732415438 -0.2035880238
-1.22021389 -3.72884202 -0.06778335571
-1.213052869 -3.731177807 0.06778335571
-1.211671472 -3.722507954 0.2029599845
-1.219301701 -3.743729353 0.3407535553
-1.192845583 -3.658162117 0.4673036337
-1.185340881 -3.630847931 0.5982570052
-1.178858161 -3.608854294 0.7297164202
-1.169777751 -3.576824665 0.8588597178
-1.176134706 -3.592019558 1.001164079
-1.045315385 -3.177476168 -0.8846955895
-1.056000113 -3.208067417 -0.7697791457
-1.22271359 -3.710174084 -0.7510870099
-1.224594116 -3.711521864 -0.6123360991
-1.228648424 -3.72162652 -0.4760782123
-1.226871371 -3.711889744 -0.3383132219
-1.236750245 -3.737399578 -0.2041113824
-1.235736847 -3.732152939 -0.06792297214
-1.226069689 -3.726920843 0.06778335571
-1.229031324 -3.731534958 0.2036926895
-1.233639002 -3.741127491 0.3409278691
-1.237950683 -3.752003193 0.4799780548
-1.237042785 -3.744856358 0.6179677248
-1.241393209 -3.753626347 0.7602458
-1.22453177 -3.698311567 0.8894531131
-1.194133997 -3.604396582 1.005822897
-1.055180311 -3.170141935 -0.8836602569
-1.059741735 -3.180141211 -0.7639303803
-1.234415293 -3.702158451 -0.7503237724
-1.238793492 -3.710972309 -0.6129618287
-1.243539095 -3.720863819 -0.4765656888
-1.241084576 -3.711363316 -0.3386618197
-1.247252107 -3.725484133 -0.2036926895
-1.250027418 -3.731609106 -0.06799277663
-1.238457561 -3.718606949 0.06771353632
-1.246469378 -3.740485907 0.2044253945
-1.249212265 -3.74435854 0.3416251242
-1.250436783 -3.743674517 0.4794905484
-1.253863692 -3.751756668 0.6198449731
-1.252619505 -3.743685007 0.7591009736
-1.259098411 -3.758687973 0.9051995873
-1.257051945 -3.750405312 1.048269153
-1.06315732 -3.157284975 -0.881072104
-1.064681411 -3.159988642 -0.759881258
-1.251095772 -3.708988667 -0.7526135445
-1.251724005 -3.7087152 -0.6132746935
-1.252058506 -3.705435753 -0.4751032889
-1.256585598 -3.714557648 -0.3393590748
-1.257038116 -3.713760376 -0.2032739967
-1.262403965 -3.725329161 -0.06795787811
-1.252058744 -3.718270302 0.06778335571
-1.257604599 -3.730433941 0.2041113824
-1.260363102 -3.734311819 0.3411021829
-1.260938883 -3.733865499 0.4787593484
-1.268850803 -3.752970934 0.6207835674
-1.265655994 -3.74137044 0.7594826221
-1.269055486 -3.747108936 0.9034000039
-1.275718331 -3.762460709 1.052927971
-1.06988585 -3.142769814 -0.8779662848
-1.068161845 -3.134118319 -0.7544824481
-1.262120605 -3.701102972 -0.7518502474
-1.265939355 -3.708062172 -0.613900423
-1.264985442 -3.701042891 -0.4751032889
-1.272120357 -3.719796419 -0.3402306139
-1.273875713 -3.720687389 -0.203902036
-1.277344823 -3.726574898 -0.06806258857
-1.267608881 -3.72144866 0.06792297214
-1.26739502 -3.716569901 0.2035880238
-1.276600242 -3.741425753 0.3421480656
-1.274606466 -3.731319427 0.4790030718
-1.276829481 -3.733566284 0.6182805896
-1.281250596 -3.744359732 0.7610090971
-1.282127261 -3.742656469 0.9034000039
-1.290724754 -3.763466835 1.05448091
-1.075818062 -3.124403238 -0.8738251925
-1.075919747 -3.121159077 -0.7522329092
-1.273751974 -3.692962885 -0.7510870099
-1.281453848 -3.711089611 -0.6151519418
-1.280491114 -3.704108953 -0.4760782123
-1.284445524 -3.713450432 -0.34005633
-1.289469838 -3.723767042 -0.2043207139
-1.288380384 -3.71642518 -0.06795787811
-1.284499884 -3.728345156 0.06813240051
-1.283616781 -3.721563578 0.2041113824
-1.289652944 -3.736946821 0.3421480656
-1.292809606 -3.741857767 0.4809530079
-1.291790962 -3.73468709 0.6192191839
-1.298165679 -3.750996113 0.7632988095
-1.297735691 -3.745523453 0.9051995873
-1.301321149 -3.751637936 1.052410364
-1.077188015 -3.093262672 -0.8660606146
-1.084884048 -3.111863852 -0.7508832216
-1.290514946 -3.699616671 -0.7533767223
-1.293098092 -3.702863693 -0.6145262122
-1.297343612 -3.710860252 -0.4775406718
-1.296084881 -3.705183029 -0.3397077024
-1.30510056 -3.726783514 -0.2047394067
-1.302668571 -3.715679407 -0.0680276826
-1.294874549 -3.71628499 0.06799277663
-1.299888849 -3.726489544 0.2046347409
-1.302689075 -3.732422352 0.3421480656
-1.307172537 -3.741070032 0.4814404547
-1.305472493 -3.732019901 0.6195321083
-1.309954166 -3.742735863 0.7625355721
-1.314668655 -3.7520051 0.9078990221
-1.313129544 -3.7434268 1.051375031
-1.08605361 -3.084017515 -0.8645076752
-1.089260221 -3.089679241 -0.7463842034
-1.303421259 -3.69508934 -0.7533767223
-1.304699779 -3.694602013 -0.613900423
-1.312935948 -3.713794947 -0.4785155952
-1.310338974 -3.70439291 -0.34005633
-1.314768553 -3.712791681 -0.2042160481
-1.318971276 -3.720533371 -0.068202205
-1.30518043 -3.70419836 0.0678531602
-1.316875339 -3.733230352 0.2052627653
-1.315709949 -3.727852345 0.3421480656
-1.317578077 -3.728997707 0.4804655313
-1.322443962 -3.738614082 0.6214093566
-1.319080114 -3.727035761 0.7602458
-1.328408241 -3.749230623 0.9083490372
-1.330064058 -3.749744177 1.05448091
-1.094220042 -3.072927713 -0.862437129
-1.095457792 -3.073009014 -0.7432348728
-1.318949938 -3.69791317 -0.7549031973
-1.320245147 -3.697467089 -0.6151519418
-1.323218584 -3.701712608 -0.4775406718
-1.323932767 -3.701672316 -0.3402306139
-1.326373816 -3.704419136 -0.2040067166
-1.33599937 -3.727201223 -0.06841164082
-1.322129846 -3.710922003 0.06806258857
-1.325873017 -3.717323542 0.2046347409
-1.33206284 -3.732619047 0.3430196047
-1.330586791 -3.724375725 0.4804655313
-1.336816549 -3.73769474 0.6220350266
-1.334728122 -3.729802847 0.7617723942
-1.342145205 -3.746405125 0.9087988734
-1.34379673 -3.746896982 1.054998517
-1.104285717 -3.067271948 -0.8619195223
-1.105517745 -3.067332983 -0.742784977
-1.331849694 -3.693287134 -0.7549031973
-1.33448565 -3.696551561 -0.6157776713
-1.334782124 -3.69333744 -0.4770531654
-1.34091115 -3.708270311 -0.3412764966
-1.342695236 -3.709156513 -0.2045300752
-1.346957207 -3.716874838 -0.06830692291
-1.33914113 -3.717572451 0.06827201694
-1.33951807 -3.714551926 0.2047394067
-1.346436024 -3.731694937 0.3433682323
-1.344928026 -3.723442554 0.4809530079
-1.350527167 -3.734863281 0.6223478913
-1.351747036 -3.736197472 0.7640619874
-1.35189569 -3.732535839 0.9065493345
-1.361477733 -3.754896164 1.058621883
-1.115646482 -3.06521368 -0.862437129
-1.120887756 -3.076272488 -0.7459343076
-1.344733596 -3.688615561 -0.7549031973
-1.351444006 -3.703005075 -0.61765486
-1.351072669 -3.69797802 -0.4782718718
-1.355214953 -3.707309484 -0.3416251242
-1.358380437 -3.71194911 -0.2049487531
-1.359275579 -3.712387562 -0.06830692291
-1.354847074 -3.720391512 0.06841164082
-1.351828694 -3.710089207 0.2047394067
-1.356723547 -3.719485283 0.3426710069
-1.363363981 -3.733642578 0.4829029143
-1.361549497 -3.726653576 0.6217221618
-1.368826389 -3.74251914 0.7663516998
-1.367596865 -3.735114336 0.9083490372
-1.372592688 -3.746733427 1.05758667
-1.123671174 -3.054048777 -0.8603665829
-1.133102536 -3.078024626 -0.7472839952
-1.358959079 -3.687583447 -0.7556664944
-1.36234951 -3.694796324 -0.6170291305
-1.364015341 -3.69533968 -0.4785155952
-1.36400485 -3.691343069 -0.3405792713
-1.373452783 -3.714917421 -0.205367431
-1.373614192 -3.711370945 -0.06837673485
-1.36441493 -3.708371162 0.06827201694
-1.368912935 -3.716592789 0.205367431
-1.371076822 -3.718465567 0.3430196047
-1.378486037 -3.73655057 0.4838778377
-1.375233531 -3.723731041 0.6220350266
-1.379869342 -3.734276533 0.765588522
-1.380651236 -3.732386351 0.9087988734
-1.381637812 -3.731049538 1.05448091
-0.9843703508 -2.648306608 -0.7454509139
-1.145878434 -3.079530001 -0.7486336827
-1.373235106 -3.688576221 -0.7568113208
-1.37523818 -3.690018654 -0.6170291305
-1.380375743 -3.699855328 -0.4797343016
-1.381063819 -3.697757959 -0.3416251242
-1.385013342 -3.70635891 -0.2051580995
-1.38936317 -3.714045286 -0.06851635128
-1.37874496 -3.707334518 0.06834182888
-1.386059165 -3.723022223 0.2059954703
-1.384791374 -3.717632294 0.3433682323
-1.3887465 -3.724275827 0.4829029143
-1.393059731 -3.731862307 0.62422508
-1.392895579 -3.729437113 0.765588522
-1.399131417 -3.742146254 0.9123980403
-1.40007019 -3.740677834 1.058621883
-0.9913511872 -2.637447357 -0.7433803678
-1.156621456 -3.075511217 -0.7486336827
-1.388128161 -3.687192917 -0.7575744987
-1.388753653 -3.684953213 -0.6170291305
-1.391881227 -3.691299677 -0.479246825
-1.395370364 -3.696642876 -0.3419737518
-1.396470666 -3.695652962 -0.2048440725
-1.405148029 -3.716655016 -0.06865597516
-1.393085003 -3.706243038 0.06841164082
-1.397639394 -3.714422941 0.2057861239
-1.399812579 -3.716261148 0.3437168598
-1.401737809 -3.719405651 0.4829029143
-1.406077623 -3.72697711 0.62422508
-1.406555414 -3.72430706 0.765588522
-1.41076982 -3.731524944 0.9110483527
-1.417904258 -3.748416424 1.062245488
-0.9998655915 -2.632164955 -0.742862761
-1.170656323 -3.078537464 -0.7504333258
-1.398896098 -3.676820278 -0.7564296722
-1.403717399 -3.685621023 -0.6179677248
-1.403986812 -3.682463884 -0.4787593484
-1.41181612 -3.701056957 -0.3428452909
-1.417199492 -3.711280107 -0.2059954703
-1.410192609 -3.689065218 -0.06823711842
-1.409501314 -3.708589077 0.06855125725
-1.407693028 -3.699941874 0.2052627653
-1.415611148 -3.718800545 0.344414115
-1.416775107 -3.717953205 0.4833904207
-1.422544241 -3.729180574 0.6254765391
-1.425147414 -3.73404789 0.7686414719
-1.421004772 -3.719296217 0.9092487693
-1.431632996 -3.74319458 1.062245488
-1.007663012 -2.625051975 -0.7418274879
-1.186987281 -3.088984728 -0.7540324926
-1.411722183 -3.671914577 -0.7564296722
-1.420831203 -3.691759825 -0.6198449731
-1.422542334 -3.692359209 -0.4807092845
-1.4240098 -3.694247723 -0.3426710069
-1.430146217 -3.706310272 -0.2059954703
-1.433148384 -3.710235596 -0.06872577965
-1.425305605 -3.711113453 0.06869087368
-1.423466682 -3.702462196 0.2056814581
-1.429299474 -3.715695858 0.3445884287
-1.434024096 -3.724099874 0.4848527908
-1.429868817 -3.709447384 0.6229736209
-1.438172698 -3.729050398 0.7686414719
-1.438892007 -3.72703886 0.9123980403
-1.443297625 -3.734570503 1.061210155
-1.008436441 -2.599905014 -0.7356157899
-1.201994896 -3.095722198 -0.7567319274
-1.427374363 -3.674284935 -0.7579562068
-1.43156147 -3.681254625 -0.6189063191
-1.435422063 -3.687371254 -0.4807092845
-1.434004188 -3.68182826 -0.3419737518
-1.448153138 -3.714321613 -0.2067281753
-1.441729069 -3.694033146 -0.06851635128
-1.435357809 -3.698658466 0.06855125725
-1.440721035 -3.708641529 0.2063094825
-1.438651562 -3.701398849 0.3437168598
-1.448454499 -3.722771645 0.4853402972
-1.449260831 -3.720999956 0.6257894635
-1.451181293 -3.724007368 0.7686414719
-1.456850052 -3.734702349 0.9155473709
-1.4549191 -3.725910425 1.060174823
-1.019620419 -2.601765156 -0.7371687293
-1.212081671 -3.089693546 -0.7562820315
-1.439474463 -3.667452097 -0.7575744987
-1.444402814 -3.676234961 -0.6189063191
-1.451954484 -3.68977809 -0.3431939483
-1.455253839 -3.694377661 -0.2058907896
-1.461949944 -3.707581282 -0.06886540353
-1.448259473 -3.69362545 0.06855125725
-1.457306981 -3.71288538 0.206832841
-1.455932379 -3.707481623 0.3447627425
-1.459988236 -3.713997841 0.4848527908
-1.460794091 -3.712241888 0.625163734
-1.462732792 -3.715265512 0.7678781748
-1.469877839 -3.729593992 0.9155473709
-1.472170472 -3.731591225 1.063280702
-1.030829668 -2.603578806 -0.7387216091
-1.226449609 -3.094502211 -0.7585315704
-1.455885768 -3.671530485 -0.7594826221
-1.460141182 -3.678514957 -0.6201577783
-1.466297507 -3.688390017 -0.343542546
-1.468879342 -3.691131115 -0.2059954703
-1.477843642 -3.709886074 -0.06900501996
-1.465563178 -3.699702501 0.06876068562
-1.470258236 -3.707775831 0.206832841
-1.472539306 -3.711636543 0.3456343114
-1.470012426 -3.701499224 0.4838778377
-1.481770754 -3.727312088 0.6286053061
-1.477143526 -3.713785887 0.7686414719
-1.480004311 -3.717198372 0.9137477875
-1.490193605 -3.738991976 1.066904187
-1.03991127 -2.599964619 -0.7387216091
-1.243038535 -3.104675055 -0.7621307373
-1.470883012 -3.671893358 -0.7606275082
-1.474443436 -3.67706275 -0.6207835674
-1.475435495 -3.67582202 -0.4811967313
-1.488073111 -3.705435991 -0.3456343114
-1.484734416 -3.693393946 -0.2064141631
-1.487798095 -3.69728446 -0.06886540353
-1.482925773 -3.705703735 0.06897011399
-1.480221152 -3.695204973 0.2064141631
-1.488450646 -3.713871241 0.3463315368
-1.487359524 -3.707399368 0.4853402972
-1.486674428 -3.701953173 0.625163734
-1.494490266 -3.719536781 0.7709311843
-1.492970824 -3.712009668 0.9137477875
-1.503957748 -3.735559702 1.067421913
-1.049704671 -2.598109961 -0.7392392755
-1.258252263 -3.111156464 -0.7648301721
-1.480745792 -3.65945673 -0.7591009736
-1.493202329 -3.686540365 -0.6232864857
-1.491241097 -3.678007841 -0.4821716845
-1.492760062 -3.679910183 -0.3437168598
-1.499872327 -3.693740129 -0.2067281753
-1.499188542 -3.688363314 -0.06879559159
-1.497350812 -3.704212904 0.06903992593
-1.496107459 -3.697421074 0.206832841
-1.500658035 -3.706806898 0.3461572528
-1.506255627 -3.716902733 0.4872901738
-1.504785419 -3.709554672 0.6273537874
-1.5104177 -3.721574068 0.7724575996
-1.510320187 -3.717608213 0.9164472222
-1.516260386 -3.728497267 1.066904187
-1.050737858 -2.574754953 -0.7335452437
-1.275000215 -3.121177673 -0.7684293985
-1.462314963 -3.57793808 -0.7430730462
-1.503318429 -3.67094326 -0.4819279611
