# .PCD v0.7 - Point Cloud Data file format
VERSION 0.7
FIELDS x y z
SIZE 4 4 4
TYPE F F F
COUNT 1 1 1
WIDTH 1275
HEIGHT 1
VIEWPOINT 0 0 0 1 0 0 0
POINTS 1275
DATA ascii
0.2205309272 5.58809042 0.2908844054
0.2222669423 5.582559586 0.4850834906
0.2221183032 5.554440498 0.6774064302
0.2225790322 5.517723083 0.8679500222
0.2255290896 5.566731453 1.074699163
0.2255782038 5.52030468 1.265571237
0.2262000591 5.488562107 1.460309267
0.1926063746 4.538665295 -1.205631256
0.1933573931 4.519124985 -1.034321547
0.1950584352 4.540328026 -0.8751128912
0.213647753 4.93287468 -0.7753407955
0.2171899378 4.97449398 -0.6062346697
0.2092932165 4.75553751 -0.4127442241
0.2467772216 5.584993839 -0.2907797098
0.2494676411 5.601606369 -0.09717320651
0.2378621697 5.5820961 0.09682415426
0.240208596 5.591277122 0.2910937071
0.2409487665 5.585773468 0.4854321182
0.2410731763 5.543715 0.6761876941
0.2419234812 5.518886089 0.8682629466
0.2442675233 5.550220013 1.071646214
0.2450204939 5.523377895 1.266471148
0.2455313951 5.491599083 1.461344361
0.2088831961 4.530210018 -1.20356071
0.2086815685 4.50868845 -1.032072067
0.2115143239 4.535660267 -0.8743495941
0.2319128662 4.936004639 -0.7759665847
0.2344582826 4.97172308 -0.6059910059
0.2618217766 5.511032581 -0.4789825678
0.2664805353 5.568092346 -0.2899423242
0.2694046199 5.608690739 -0.09731282294
0.2575289309 5.585227013 0.0968939662
0.2593550384 5.582424164 0.2906750441
0.2614214718 5.584852695 0.4854321182
0.2599585652 5.532925606 0.6749690175
0.2613748014 5.52195406 0.8688886166
0.2646072209 5.549287319 1.071646214
0.2648878098 5.514656067 1.264671445
0.2648814321 5.494567871 1.462379694
0.224505052 4.525593758 -1.202525377
0.224232018 4.4884305 -1.027572989
0.2269534767 4.527051449 -0.8728231788
0.2497378886 4.947002411 -0.777843833
0.252581805 4.968847275 -0.6057472229
0.2861215472 5.571116924 -0.2901516855
0.2896486521 5.601674557 -0.09720810503
0.2779995203 5.584245682 0.0968939662
0.2794126868 5.573457241 0.2902563512
0.2809161246 5.583905697 0.4854321182
0.2804356515 5.53590107 0.6754564643
0.2812082469 5.513067722 0.8676371574
0.2841784358 5.552251339 1.072409391
0.2835330665 5.502021313 1.26197207
0.2850222588 5.493560314 1.462379694
0.2394825816 4.509349823 -1.198384285
0.2411477268 4.510972023 -1.032971859
0.2421247959 4.51446867 -0.8705334663
0.2674318552 4.953990459 -0.7790952921
0.2701368034 4.971899986 -0.6062346697
0.2599497736 4.769001007 -0.4141387045
0.2656314969 4.842179298 -0.2519464493
0.3067767918 5.556703091 -0.09644020349
0.2974893153 5.583241463 0.0968939662
0.2990814149 5.576436996 0.2904657125
0.3001879454 5.578912258 0.4850834906
0.2998666465 5.536870003 0.6757002473
0.2996996343 5.498245716 0.865447104
0.3033447564 5.54730463 1.071646214
0.3028455079 5.502943516 1.262421966
0.3035518825 5.480957985 1.459273934
0.2547839582 4.500771046 -1.19631362
0.2573326528 4.517885208 -1.034771442
0.2581048012 4.517516613 -0.8712967038
0.2844974399 4.949081898 -0.7784695029
0.2879500687 4.978853226 -0.6072096229
0.2748655975 4.738228798 -0.4115240574
0.3258201778 5.582941055 -0.2908844054
0.3254370093 5.55964756 -0.09651000798
0.3169781268 5.582169056 0.0968939662
0.3175681233 5.575414658 0.2904657125
0.3187496662 5.561917305 0.4836890101
0.3191909492 5.53578949 0.6757002473
0.3180437684 5.499193668 0.8657599688
0.3227054477 5.546212196 1.071646214
0.321940124 5.49990797 1.26197207
0.3212743402 5.472207546 1.457203388
0.2701464593 4.494068623 -1.194760799
0.2707898617 4.491719723 -1.028922796
0.2745864391 4.528345585 -0.8735864162
0.300904274 4.948111534 -0.7784695029
0.3002188206 4.908523083 -0.5986788273
0.2902992368 4.719342709 -0.4099552333
0.3433498144 5.565881729 -0.2900469899
0.3455809355 5.570453167 -0.0967194438
0.3342891335 5.561125278 0.09654491395
0.3370295167 5.574272156 0.2904657125
0.3381612897 5.560770988 0.4836890101
0.337062031 5.526774883 0.6747252345
0.3374783099 5.501993179 0.8663856983
0.3398890793 5.525516033 1.067830086
0.3407771885 5.508534431 1.264221549
0.3403754234 5.471052647 1.457203388
0.2832123041 4.464229107 -1.186996222
0.2858481407 4.481022835 -1.026673317
0.2893499434 4.523491859 -0.8728231788
0.3181759119 4.947031021 -0.7784695029
0.3204219937 4.954987526 -0.6045285463
0.3081404865 4.752153397 -0.4129185081
0.3621228337 5.554685116 -0.2895236611
0.3639224172 5.567281246 -0.09668453783
0.3534413576 5.555933952 0.09647510946
0.3547512591 5.561164379 0.2898376882
0.3568535447 5.563595772 0.4840376079
0.3558424711 5.517641068 0.6737502813
0.3557206392 5.500844002 0.8663856983
0.3594308794 5.528213501 1.068593264
0.3594938815 5.499533176 1.262421966
0.3585151136 5.469893932 1.457203388
0.2989217341 4.46514082 -1.187513828
0.3007052541 4.480050564 -1.026673317
0.3047406375 4.516577721 -0.8716782928
0.3349780738 4.951861382 -0.7794080973
0.3387383223 4.981625557 -0.6079408526
0.3298906982 4.826583862 -0.4195423722
0.3797231019 5.541497707 -0.288895607
0.3830803037 5.561986923 -0.09661472589
0.372666508 5.566702843 0.09668453783
0.3730897605 5.543950081 0.2890002728
0.3765423894 5.566291809 0.4843862355
0.3742735088 5.518410683 0.6739940047
0.3749214709 5.499568939 0.8663856983
0.3777626455 5.526991367 1.068593264
0.3769265711 5.486646175 1.259722471
0.377871424 5.472463131 1.458238602
0.3154225349 4.465942383 -1.188031554
0.3187340498 4.490525246 -1.029372573
0.3205971122 4.505639076 -0.8697702289
0.3531452119 4.938716888 -0.7775309086
0.3581496179 4.984247684 -0.608428359
0.3475777209 4.825342178 -0.4195423722
0.401576221 5.547966957 -0.2893142998
0.4024492502 5.546584606 -0.09637039155
0.3940370381 5.565230846 0.09668453783
0.3934056163 5.542545319 0.2890002728
0.3966565728 5.560899734 0.4840376079
0.3951748013 5.512973309 0.6735065579
0.3942278028 5.486336231 0.8645085096
0.3989806473 5.525499821 1.068593264
0.3975692391 5.479327202 1.258372784
0.3968067169 5.455627441 1.454097509
0.3311515749 4.466740608 -1.188549161
0.3334781229 4.487500668 -1.028922796
0.3366141915 4.50840807 -0.8705334663
0.3711413443 4.959187508 -0.7809724808
0.3752703667 4.990951061 -0.6094033122
0.3644205034 4.824099541 -0.4195423722
0.4202722311 5.550588131 -0.2895236611
0.4216577709 5.543151855 -0.09633549303
0.4121956825 5.559905052 0.09661472589
0.4133425951 5.549105167 0.2894189656
0.4150259495 5.545573235 0.4828174114
0.4146437645 5.527468681 0.6754564643
0.4129298031 5.479017258 0.8635698557
0.4170074463 5.520231247 1.067830086
0.4160309732 5.481865406 1.259272695
0.415553093 5.450356483 1.453062177
0.3526759148 4.55229187 -1.211842895
0.3538267016 4.546538353 -1.042869806
0.3630141616 4.654065132 -0.8991547823
0.3881402314 4.953922749 -0.7803467512
0.3981422782 5.058874607 -0.6179341674
0.3763391674 4.771223068 -0.4150102735
0.4388575256 5.539131641 -0.2890002728
0.4406692684 5.549696922 -0.09647510946
0.43067348 5.546470165 0.09640529752
0.4323606193 5.555669308 0.2898376882
0.4338808358 5.550125122 0.4833403528
0.4323805273 5.506197453 0.6730191112
0.4315630496 5.483525276 0.8645085096
0.4347257316 5.499170303 1.064013839
0.4351651967 5.480379581 1.259272695
0.4333198965 5.44509697 1.452026963
0.371060431 4.581841469 -1.220125079
0.3890810907 4.793960571 -1.100457191
0.3880292177 4.760392189 -0.9201438427
0.4487950802 5.494033813 -0.8663856983
0.4528954327 5.520483017 -0.6749690175
0.3867760003 4.694424629 -0.4083864093
0.4570581317 5.535655499 -0.288895607
0.4602026641 5.550117493 -0.09651000798
0.4487399459 5.541025162 0.09633549303
0.4507808685 5.542181969 0.2892096341
0.4529261291 5.544604778 0.4829917252
0.4493405223 5.488905907 0.6710692048
0.4503766 5.478047848 0.8638827205
0.4529581666 5.497698784 1.064013839
0.4530138671 5.475022316 1.258372784
0.4526429474 5.447401524 1.453062177
0.3867405653 4.586360455 -1.221677899
0.415679425 4.909081459 -1.127451301
0.4653961062 5.484838009 -1.061724186
0.4689777493 5.504242897 -0.8682629466
0.4721615613 5.518868446 -0.6749690175
0.4023424685 4.693116188 -0.4083864093
0.4753494859 5.522087574 -0.2882675827
0.4792304635 5.544492722 -0.09644020349
0.4684145749 5.543409824 0.09640529752
0.4694499671 5.532614231 0.288790971
0.4719843268 5.551013947 0.4836890101
0.468836844 5.491259575 0.6715566516
0.4698347747 5.480379105 0.8645085096
0.4724835157 5.499996662 1.064777136
0.4711191356 5.461758614 1.255673409
0.4716540575 5.445788383 1.453062177
0.4034228623 4.592680931 -1.223748565
0.4718451202 5.350194931 -1.230028987
0.4843649268 5.481224537 -1.061342478
0.4885362387 5.506507874 -0.8688886166
0.4914246202 5.517186165 -0.6749690175
0.417304188 4.675807476 -0.4069919288
0.494980216 5.524373055 -0.288476944
0.4971470535 5.526852608 -0.09616096318
0.4877633154 5.541740894 0.09640529752
0.4884067476 5.526962757 0.2885816097
0.4906566441 5.541393757 0.4829917252
0.4887040555 5.497499466 0.6725316644
0.4875560105 5.462964535 0.8620054722
0.4930769503 5.5139575 1.067830086
0.4901802242 5.460080624 1.255673409
0.4906619787 5.444108486 1.453062177
0.500839293 5.461070061 -1.256123304
0.5042150617 5.4873209 -1.062869072
0.5073905587 5.500834942 -0.8682629466
0.5110477209 5.519390583 -0.6754564643
0.4284691811 4.618773937 -0.4021112025
0.5150030255 5.530565739 -0.288895607
0.5160657167 5.521101952 -0.09609115869
0.5067389011 5.536022186 0.09633549303
0.5076979399 5.525224209 0.2885816097
0.5088996291 5.52774334 0.4819458425
0.5084403753 5.501689911 0.6732628345
0.506621182 5.461229801 0.8620054722
0.510869205 5.496563435 1.064777136
0.5095973611 5.462217331 1.2565732
0.5078626871 5.423128128 1.447885752
0.2588391602 2.728080988 -0.7226748466
0.5195308328 5.455408573 -1.255223513
0.5222437382 5.473801136 -1.0605793
0.5250840187 5.483299255 -0.8657599688
0.5303096771 5.51757288 -0.6754564643
0.5316690207 5.521596909 -0.4815972447
0.5327670574 5.512830734 -0.2880582511
0.5359153748 5.52523756 -0.0961958617
0.5249262452 5.522274971 0.09612605721
0.5269776583 5.523418903 0.2885816097
0.5278143287 5.521966934 0.4815972447
0.5265005827 5.488025665 0.6718004346
0.5258721709 5.46139431 0.8623183966
0.5289178491 5.483022213 1.062487364
0.5286624432 5.460404873 1.2565732
0.5271624327 5.425168991 1.448921084
0.4564124048 4.638190746 -1.237207055
0.5421223044 5.479759216 -1.062105775
0.5442199111 5.481432915 -0.8657599688
0.5491742492 5.511737347 -0.6749690175
0.5524966121 5.525558949 -0.4821201861
0.5512123704 5.502987862 -0.2876395583
0.5565949678 5.537261486 -0.09644020349
0.5442008376 5.520409107 0.09612605721
0.5462562442 5.521544933 0.2885816097
0.547480762 5.524055481 0.4819458425
0.5450661778 5.480227947 0.6710692048
0.5451278687 5.461491585 0.8626312613
0.5480554104 5.481142521 1.062487364
0.5477184057 5.458526611 1.2565732
0.5464850664 5.427139282 1.449956298
0.5284560919 5.166670799 -1.189087868
0.560999155 5.4660182 -1.059816003
0.5651175976 5.487261295 -0.8670114279
0.5671844482 5.497940063 -0.6735065579
0.5711670518 5.517651081 -0.4815972447
0.5713769197 5.500930786 -0.2876395583
0.5746800303 5.523350716 -0.09623077512
0.5634635687 5.518476009 0.09612605721
0.5638996363 5.50371027 0.2877442241
0.5685376525 5.529940128 0.4826431274
0.5633804202 5.470393181 0.6700942516
0.5637840033 5.455625057 0.8620054722
0.5681398511 5.479096889 1.062487364
0.5669159889 5.448729038 1.254773617
0.5658227801 5.429042339 1.450991631
0.4855320454 4.596382618 -1.226854324
0.5728565454 5.404996872 -1.244875789
0.5742738247 5.409362316 -1.049130797
0.5842671394 5.485255241 -0.8670114279
0.5869136453 5.491875648 -0.6730191112
0.588938117 5.501756191 -0.4803770781
0.5912165642 5.504859924 -0.2879535556
0.5920305252 5.503417492 -0.09591662884
0.5841108561 5.520350456 0.0961958617
0.5831065774 5.501708031 0.2877442241
0.5869960189 5.519996643 0.4819458425
0.5838466287 5.472239494 0.6705816984
0.5817761421 5.443802834 0.8604412079
0.587682128 5.480984688 1.063250661
0.5855141282 5.44284153 1.253873825
0.5839438438 5.419351101 1.448921084
0.5015724897 4.594659805 -1.226854324
0.5812442303 5.31589365 -1.224630117
0.584802568 5.331214905 -1.034247637
0.6000794768 5.461688995 -0.8635698557
0.6051210761 5.489899158 -0.6730191112
0.6068268418 5.487784863 -0.4793311954
0.6103464365 5.510809898 -0.2883722484
0.6123430729 5.511254787 -0.09609115869
0.601976037 5.514408112 0.09612605721
0.6029613614 5.505595684 0.2880582511
0.6049515009 5.50603199 0.4809000194
0.6032943726 5.482111931 0.672044158
0.6009880304 5.443702221 0.8607540131
0.6049929261 5.471199989 1.061724186
0.6039886475 5.44474411 1.254773617
0.6015768051 5.405759335 1.445815325
0.5198315978 4.619847775 -1.234101295
0.608103931 5.387417316 -1.241726518
0.6077728271 5.376065254 -1.043406487
0.618696928 5.455634594 -0.8629441261
0.6256258488 5.499588013 -0.6744815111
0.6254717112 5.489702225 -0.4796798229
0.6282171607 5.496739864 -0.2877442241
0.6320340633 5.513056278 -0.09616096318
0.6198790669 5.500350475 0.09591662884
0.6232964396 5.513380051 0.2885816097
0.6227599978 5.500035763 0.480551362
0.6215295792 5.472083569 0.6710692048
0.619987905 5.441571236 0.8607540131
0.6231957674 5.461252213 1.060197592
0.6229921579 5.442602634 1.254773617
0.6208823323 5.407464981 1.446850657
0.5953579545 5.114268303 -1.178740144
0.625397265 5.364161491 -1.041498423
0.6381946206 5.457366467 -0.8635698557
0.6438956261 5.489484787 -0.6735065579
0.6455591917 5.495400429 -0.4803770781
0.6462333798 5.484595776 -0.2872208655
0.6515053511 5.512803078 -0.0961958617
0.6386147738 5.494179726 0.0958468169
0.6416116357 5.503235817 0.2881629169
0.6424185634 5.501786232 0.4809000194
0.6392403245 5.458050728 0.6696067452
0.6396690011 5.445259571 0.861692667
0.6413366199 5.451244354 1.058671236
0.6406151652 5.42878294 1.252074242
0.639755547 5.405264854 1.446850657
0.6296862364 5.249534607 -1.210683227
0.6455241442 5.373640537 -1.043788075
0.6581870914 5.462949753 -0.8648213148
0.6625760794 5.483261585 -0.6730191112
0.665217936 5.497069359 -0.4807256758
0.6648918986 5.478341579 -0.287011534
0.6705044508 5.508509636 -0.09616096318
0.6596904993 5.507801533 0.09612605721
0.658436954 5.481132507 0.2871161997
0.6625701785 5.507422924 0.4815972447
0.6582900286 5.455786228 0.6696067452
0.6581994891 5.439072132 0.8610669374
0.6613073349 5.45676899 1.060197592
0.6590924263 5.422644615 1.251174331
0.6590859294 5.406833649 1.447885752
0.5719581246 4.644829273 -1.24238348
0.652784884 5.28598547 -1.219681263
0.67126441 5.427858353 -1.054854989
0.6779831648 5.466499805 -0.8657599688
0.6807309985 5.473036289 -0.672044158
0.682926178 5.482851028 -0.4796798229
0.68450737 5.479950428 -0.2872208655
0.6874905825 5.488277912 -0.0958468169
0.6784216166 5.501495838 0.09605624527
0.6780546904 5.482764721 0.2873255312
0.681299746 5.501121521 0.4812486172
0.6778184772 5.457395077 0.6700942516
0.6757178903 5.424979687 0.8591897488
0.6813217998 5.462219715 1.061724186
0.6782603264 5.422244549 1.251624346
0.6774758101 5.400666714 1.446850657
0.5803999305 4.581475258 -1.225819111
0.6537943482 5.146417141 -1.18773818
0.6897131205 5.421587467 -1.054091811
0.6955596805 5.452342987 -0.8638827205
0.7003366351 5.474564552 -0.6725316644
0.7015531659 5.476480961 -0.4793311954
0.7046484947 5.485451698 -0.2876395583
0.7066454887 5.485844612 -0.0958468169
0.6981235147 5.503062248 0.09612605721
0.6979466081 5.486308098 0.2876395583
0.6989862323 5.486852169 0.4802027345
0.6976203322 5.460903168 0.6708254814
0.6949003339 5.424547195 0.8595025539
0.6998862028 5.455913067 1.060960889
0.6984253526 5.429507732 1.253873825
0.6953338385 5.390604973 1.444779992
0.5943918824 4.564095497 -1.221677899
0.7048099041 5.397239685 -1.246675372
0.7091416717 5.423039913 -1.054854989
0.7138187289 5.444005489 -0.8629441261
0.7199584246 5.47602272 -0.6730191112
0.7211869955 5.477949619 -0.4796798229
0.7224839926 5.473058701 -0.2871161997
0.7292029858 5.509115696 -0.09630057961
0.714744091 5.480762482 0.09577701241
0.7176100016 5.487800121 0.2878488898
0.7181360722 5.484378338 0.4802027345
0.7148680091 5.444656849 0.6691192389
0.7143483758 5.426005363 0.8601283431
0.7173858881 5.441759109 1.058671236
0.7163535953 5.419309139 1.252074242
0.7136375308 5.384315491 1.443744779
0.6118581891 4.57348156 -1.224783778
0.7207944989 5.373500824 -1.241726518
0.7275460958 5.416640282 -1.054091811
0.7314954996 5.431693077 -0.8613798022
0.7385391593 5.469542027 -0.6725316644
0.7405673862 5.4773736 -0.4798541367
0.7429270148 5.480398655 -0.2876395583
0.7466572523 5.500723362 -0.0961958617
0.7338725924 5.478233814 0.09577701241
0.7352721095 5.481431007 0.2876395583
0.7383396029 5.489736557 0.4809000194
0.7338704467 5.442128181 0.6691192389
0.732865274 5.427521706 0.8607540131
0.7363783121 5.439221382 1.058671236
0.735262394 5.41677618 1.252074242
0.7320104837 5.385746956 1.444779992
0.6288714409 4.578973293 -1.226854324
0.7282572389 5.295788765 -1.224180222
0.7464507222 5.414067745 -1.054091811
0.7511259913 5.44097805 -0.8632570505
0.7550413609 5.455264091 -0.6710692048
0.7607792616 5.482648849 -0.480551362
0.7605484724 5.473948479 -0.2874302268
0.7655794024 5.49610281 -0.09616096318
0.7539411783 5.489637852 0.09602134675
0.7527682185 5.466959476 0.287011534
0.7585865259 5.49502039 0.4815972447
0.7519120574 5.439664841 0.6691192389
0.7509917617 5.419060707 0.8598154187
0.7554895878 5.444528103 1.060197592
0.7526854277 5.410447121 1.251174331
0.7518746853 5.390812397 1.446850657
0.6440493464 4.576863289 -1.226854324
0.7617121935 5.399343967 -1.248924851
0.7622024417 5.396010399 -1.051038861
0.7692844868 5.43245554 -0.8623183966
0.7740754485 5.452596188 -0.6710692048
0.7783969641 5.476150513 -0.4802027345
0.7802111506 5.475214958 -0.2876395583
0.7836299539 5.485478401 -0.09602134675
0.7739322186 5.492913723 0.09612605721
0.7726862431 5.470230579 0.2873255312
0.7762453556 5.488529205 0.4812486172
0.7714543343 5.440937996 0.6696067452
0.7682368159 5.404672146 0.8579382896
0.77504462 5.445744991 1.060960889
0.7718435526 5.409716129 1.251624346
0.7701367736 5.38433075 1.445815325
0.6578159332 4.559290886 -1.222713232
0.773856163 5.350364685 -1.238127232
0.7810322642 5.393317223 -1.051038861
0.7879551053 5.427782536 -0.8620054722
0.7942487001 5.457717896 -0.672044158
0.7957854271 5.461570263 -0.4791569114
0.8004745841 5.480363369 -0.2880582511
0.8045101762 5.494581699 -0.09623077512
0.7922450304 5.484240532 0.09602134675
0.7940651178 5.48331356 0.2881629169
0.7931135297 5.470012188 0.4798541367
0.7910119891 5.442141056 0.6700942516
0.787669003 5.405866623 0.8585639596
0.7929143906 5.435235977 1.059434414
0.7910057306 5.40891695 1.252074242
0.7872470617 5.370141029 1.442709446
0.6742931604 4.560789108 -1.223748565
0.7805302739 5.266667843 -1.219231367
0.799855113 5.390557766 -1.051038861
0.8054451942 5.415229321 -0.8604412079
0.8150501847 5.466692924 -0.6735065579
0.8148412704 5.458759785 -0.4791569114
0.818416357 5.46963501 -0.2876395583
0.821906805 5.479874134 -0.09602134675
0.8087473512 5.463638783 0.09570720047
0.8137882948 5.4844594 0.2883722484
0.8122014999 5.46721077 0.4798541367
0.8100052476 5.43934679 0.6700942516
0.8068220615 5.40503788 0.8588768244
0.8107227683 5.424667835 1.057908058
0.810743928 5.411904812 1.253423929
0.807136476 5.375001431 1.444779992
0.6936765313 4.581328869 -1.229960203
0.7796117067 5.136750221 -1.189537883
0.819253087 5.391615868 -1.051802039
0.8234521151 5.406526089 -0.8595025539
0.8329306841 5.455965042 -0.6725316644
0.8347955346 5.461791039 -0.4796798229
0.8369005322 5.462796688 -0.2874302268
0.8410289884 5.476972103 -0.09602134675
0.8281152844 5.462759972 0.09574211389
0.8311237693 5.469738483 0.2877442241
0.832480669 5.472220898 0.480551362
0.8274872303 5.426674366 0.6688755155
0.8265810609 5.408046722 0.8598154187
0.8302462101 5.425686359 1.058671236
0.8293361664 5.407115936 1.252974033
0.8258927464 5.372151375 1.444779992
0.7084817886 4.571242809 -1.227889657
0.7972373366 5.132071972 -1.189087868
0.8368629217 5.380963326 -1.050275683
0.8444479108 5.417281628 -0.861692667
0.8501332998 5.441256523 -0.6710692048
0.854778111 5.464748859 -0.4802027345
0.8559656143 5.459841251 -0.2874302268
0.8604512215 5.475978374 -0.09605624527
0.8477934599 5.463787079 0.09581191838
0.8489853144 5.458909512 0.2873255312
0.8521917462 5.473218918 0.4809000194
0.8461201787 5.421791553 0.6686317921
0.8457579017 5.407081127 0.8601283431
0.8503941894 5.430513859 1.060197592
0.8460890651 5.390711308 1.249824643
0.8464426994 5.380685806 1.447885752
0.7232230306 4.56111002 -1.225819111
0.817289114 5.142729759 -1.192237258
0.8544083238 5.370253086 -1.048749089
0.8655314445 5.427955627 -0.8638827205
0.869120419 5.438255787 -0.6710692048
0.8725907803 5.453861713 -0.4795055091
0.8762825727 5.464708805 -0.2878488898
0.8792449236 5.470966816 -0.09602134675
0.8674838543 5.464745522 0.09588173032
0.8692920804 5.463802338 0.2877442241
0.8712905049 5.470211029 0.4809000194
0.8659808636 5.424685478 0.6693630219
0.8636921644 5.398243904 0.8591897488
0.869967401 5.431388855 1.060960889
0.8658291698 5.393497467 1.251174331
0.8633772731 5.366254807 1.444779992
0.7397594452 4.562371254 -1.226854324
0.8755566478 5.387978554 -1.250274658
0.8725173473 5.363363266 -1.047985911
0.8828828931 5.415153503 -0.8623183966
0.8900178075 5.446944237 -0.6725316644
0.8909811974 5.4468503 -0.4791569114
0.8959977031 5.465559006 -0.2880582511
0.8970389366 5.459971905 -0.09588173032
0.8871962428 5.465631008 0.09595153481
0.8889992833 5.464677811 0.2879535556
0.8884571195 5.455337524 0.4798541367
0.8858694434 5.427506924 0.6700942516
0.8838071823 5.402993202 0.8604412079
0.8876510262 5.420569897 1.059434414
0.8846521378 5.390442371 1.251174331
0.8802215457 5.351771355 1.441674232
0.7544183731 4.552137852 -1.224783778
0.8835044503 5.319527149 -1.234977841
0.8925229907 5.368031025 -1.049512386
0.9017813802 5.412038803 -0.8623183966
0.9090246558 5.443804264 -0.6725316644
0.9093307257 5.439776897 -0.478808254
0.9137494564 5.454518318 -0.2876395583
0.9177491069 5.466666698 -0.09605624527
0.9049592018 5.454610348 0.09581191838
0.9087257385 5.465481281 0.2881629169
0.9074931741 5.452203274 0.4798541367
0.9048109651 5.424381733 0.6700942516
0.9013579488 5.392082691 0.8591897488
0.9046241641 5.40582037 1.057144761
0.9053955674 5.398852825 1.253873825
0.9001794457 5.356286526 1.443744779
0.7683677077 4.538048267 -1.221677899
0.9111944437 5.37020731 -1.247575164
0.9119119048 5.36875391 -1.050275683
0.9226551056 5.42054224 -0.8641956449
0.9280229807 5.440597534 -0.6725316644
0.9296537042 5.444425583 -0.4795055091
0.9307640791 5.439484119 -0.287011534
0.9375005364 5.467372417 -0.09612605721
0.9239952564 5.451417923 0.09581191838
0.9271281958 5.458337784 0.2879535556
0.9278568029 5.456858635 0.480551362
0.9217383265 5.4094491 0.6686317921
0.9218355417 5.398638725 0.8607540131
0.9241489768 5.40650034 1.057908058
0.9235764742 5.391818523 1.252974033
0.9195233583 5.356919765 1.444779992
0.7888131738 4.561989307 -1.22892499
0.9322621822 5.380434513 -1.250724435
0.929641664 5.359735012 -1.049130797
0.9412312508 5.415342331 -0.8638827205
0.9449662566 5.425590992 -0.6710692048
0.9493360519 5.445073128 -0.4798541367
0.9511221647 5.444071293 -0.2874302268
0.9538221955 5.448308468 -0.0958468169
0.942678988 5.446188927 0.09577701241
0.9448118806 5.44719696 0.2875348926
0.9482638836 5.461438179 0.4812486172
0.9406167269 5.406198502 0.6686317921
0.9403343201 5.393442631 0.8604412079
0.9450421929 5.41484499 1.060197592
0.9400405884 5.375123978 1.249824643
0.9395522475 5.361288548 1.446850657
0.8054011464 4.563013077 -1.229960203
0.9513785243 5.379066467 -1.251174331
0.945263505 5.339058876 -1.045696139
0.9608201385 5.415914059 -0.8645085096
0.9615635276 5.414609432 -0.6700942516
0.9676403403 5.437802315 -0.4795055091
0.9715209007 5.448583126 -0.2878488898
0.971180439 5.441178799 -0.09577701241
0.9644662738 5.458618641 0.09605624527
0.9635648727 5.447967529 0.2877442241
0.9659301639 5.450247765 0.480551362
0.9615635276 5.414609432 0.6700942516
0.9554501176 5.374735355 0.8579382896
0.9639366269 5.411513329 1.060197592
0.9582036734 5.373896122 1.250274658
0.955968082 5.350536346 1.444779992
0.8171083927 4.541303635 -1.224783778
0.9674835801 5.366292477 -1.248924851
0.8883460164 4.922437191 -0.9640299082
0.8930088282 4.938398361 -0.7881684899
0.9749162197 5.385997772 -0.6669256687
0.9824689031 5.416920185 -0.4779367149
0.9892254472 5.443366528 -0.2877442241
0.9895781279 5.43989563 -0.09581191838
0.9804345369 5.443582058 0.0958468169
0.9823359251 5.448673248 0.2879535556
0.982580781 5.439172745 0.4798541367
0.9802197814 5.415297985 0.6705816984
0.9743235111 5.37736845 0.8588768244
0.9818780422 5.408287048 1.060197592
0.9774115086 5.378358364 1.252074242
0.9723204374 5.339734554 1.442709446
0.8314658403 4.534769535 -1.223748565
0.9828076363 5.349638462 -1.24577558
0.9046635628 4.919464588 -0.9640299082
0.9149798751 4.951257706 -0.4367991984
1.005817771 5.432200432 -0.2873255312
1.010380983 5.446239948 -0.09598644078
0.9977602959 5.436367512 0.09577701241
1.001706839 5.44717598 0.2880582511
1.000613809 5.435883999 0.4798541367
0.997811079 5.410065651 0.670337975
0.9938074946 5.377820015 0.8595025539
0.9969466925 5.389557838 1.057144761
0.9968912005 5.378746033 1.252974033
0.9916580319 5.340106964 1.443744779
0.8508415818 4.550828934 -1.22892499
0.9838926792 5.252319336 -1.223730445
0.9221932888 4.918206215 -0.9644114971
0.925870955 4.928322315 -0.7875427008
0.9320787191 4.951827049 -0.6135468483
0.9344697595 4.959781647 -0.4378450811
1.022922754 5.418843269 -0.2868021727
1.030501962 5.448574066 -0.09609115869
1.016732097 5.432851315 0.09577701241
1.019243956 5.4357934 0.2876395583
1.021054029 5.440190792 0.480551362
1.014122963 5.392893314 0.6686317921
1.012572408 5.374318123 0.8595025539
1.016482949 5.389903069 1.057908058
1.014935732 5.371403694 1.252074242
1.011731148 5.344204903 1.445815325
0.8674462438 4.551625729 -1.229960203
1.019400239 5.338818073 -1.244875789
0.938619554 4.911099911 -0.9636482
0.9441841841 4.930880547 -0.7884813547
0.9471105933 4.936846733 -0.6120843887
0.954408288 4.97018528 -0.4390652478
1.04258275 5.419163227 -0.287011534
1.046866775 5.43119812 -0.0958468169
1.036435843 5.433197975 0.0958468169
1.035964251 5.420432568 0.287011534
1.041531324 5.444421291 0.4812486172
1.032195687 5.385421276 0.6681442857
1.032072544 5.374630451 0.8601283431
1.036033511 5.390177727 1.058671236
1.031469584 5.35634613 1.249374747
1.029644251 5.336847782 1.444779992
0.8825916648 4.54477787 -1.22892499
1.042867064 5.360095024 -1.250724435
0.9542546272 4.900085449 -0.9621217847
0.9621483088 4.931432247 -0.7891070843
0.9654814005 4.939354897 -0.6128156185
0.970222652 4.959001541 -0.4383679926
1.05457902 5.380210876 -0.2851274312
1.057340503 5.384342194 -0.09507891536
1.052725434 5.41580677 0.09560248256
1.051059723 5.397178173 0.285964787
1.052144885 5.397729397 0.4774137735
1.047182083 5.362302303 0.6657069325
1.043622136 5.334161282 0.8541837931
1.05031383 5.363409042 1.054091811
1.050161958 5.352713108 1.249374747
1.049013615 5.337011814 1.445815325
0.8984516859 4.541669369 -1.22892499
1.060433269 5.350687504 -1.249374747
0.9713546038 4.896724701 -0.9621217847
0.9785827994 4.92416954 -0.7884813547
0.9827160239 4.935954571 -0.6128156185
0.9859660864 4.947769642 -0.4376707375
1.075700641 5.388248444 -0.2857554555
1.076522708 5.382579327 -0.09511382133
1.065796494 5.382675171 0.09507891536
1.067562819 5.38172245 0.2853367925
1.067098856 5.374482155 0.4756706655
1.066282392 5.360560894 0.6659506559
1.060301542 5.320799828 0.8526194096
1.065958381 5.344306946 1.051038861
1.069981813 5.354747772 1.250724435
1.06460464 5.318163395 1.441674232
0.9150615931 4.542292595 -1.229960203
1.079491019 5.348862648 -1.249824643
0.9899953008 4.90100193 -0.9636482
0.9934160113 4.909106255 -0.7866041064
1.001518726 4.940276146 -0.6137905717
1.003628612 4.946250439 -0.4378450811
1.092114329 5.372717381 -0.2851274312
1.096500754 5.384667397 -0.09521853179
1.082999468 5.371080399 0.09493929893
1.086340904 5.377963543 0.2853367925
1.086643696 5.374629498 0.4760192633
1.082228184 5.343187332 0.664244473
1.080440879 5.324809551 0.8538709879
1.083824396 5.336706161 1.050275683
1.091387868 5.364347935 1.253873825
1.083932519 5.318201065 1.442709446
0.9324631095 4.546640873 -1.232030749
1.009468555 4.909054756 -0.9659379125
1.011341929 4.909478188 -0.7872298956
1.018758655 4.936749458 -0.6137905717
1.022499084 4.950521946 -0.4385423064
1.109244704 5.361049175 -0.2847087383
1.115697265 5.382764339 -0.09525343776
1.101742864 5.367267609 0.09493929893
1.105105639 5.374138832 0.2853367925
1.106202841 5.374706745 0.4763679206
1.098867416 5.329656124 0.6630257964
1.099020243 5.321006298 0.8538709879
1.102445245 5.332890034 1.050275683
1.107734084 5.349056244 1.251174331
1.104061007 5.321950912 1.444779992
0.949118793 4.547140121 -1.233065963
1.0852983 5.190505028 -1.214282393
1.024186611 4.893970966 -0.9636482
1.03090632 4.917518616 -0.7891070843
1.034352064 4.925393105 -0.6128156185
1.041413903 4.954721451 -0.4392395616
1.129596353 5.364962101 -0.2851274312
1.133653283 5.37492466 -0.09518363327
1.123332739 5.377090931 0.09518363327
1.122223139 5.362428188 0.2849180698
1.127406955 5.382513046 0.4774137735
1.118688941 5.331616402 0.6637570262
1.117588639 5.317137241 0.8538709879
1.123076081 5.338615417 1.052183747
1.124793172 5.337529182 1.249374747
1.124226332 5.32562542 1.446850657
0.9625766873 4.532461643 -1.229960203
1.103814483 5.18859148 -1.214732409
1.04085362 4.888446331 -0.9632666111
1.049302697 4.919685364 -0.790045619
1.051954627 4.92369318 -0.6130593419
1.056647182 4.937233448 -0.4380193949
1.148318172 5.360986233 -0.2851274312
1.151568294 5.367024422 -0.09511382133
1.142925858 5.377048969 0.09525343776
1.141765356 5.362385273 0.2851274312
1.146187425 5.378545284 0.4774137735
1.138535142 5.333502769 0.664488256
1.135317445 5.30934 0.8532451987
1.142114162 5.336582184 1.052565336
1.143419266 5.333570004 1.249374747
1.141999483 5.317891121 1.445815325
0.97754848 4.521349907 -1.227889657
1.118211269 5.167564392 -1.210683227
1.05876267 4.884598732 -0.9632666111
1.066068888 4.910015583 -0.7891070843
1.06997478 4.923872471 -0.6135468483
1.072604895 4.927674294 -0.4374964535
1.179020643 5.407478333 -0.2878488898
1.179250002 5.403999329 -0.0958468169
1.16253233 5.376936436 0.0953232497
1.161746383 5.364223003 0.2854414582
1.169273615 5.389883995 0.478808254
1.162622571 5.35471487 0.6676568985
1.153842568 5.305345058 0.8532451987
1.16083169 5.328523636 1.051802039
1.16586709 5.342670918 1.252524137
1.158081174 5.302548409 1.442709446
0.9941559434 4.52168417 -1.22892499
1.139657497 5.174850464 -1.213382602
1.076230526 4.882790089 -0.9636482
1.081071138 4.896619797 -0.7875427008
1.09059 4.931546211 -0.6150093079
1.091089725 4.929736614 -0.4380193949
1.19789052 5.403329372 -0.2878488898
1.198538542 5.401803017 -0.09588173032
1.189971328 5.407791615 0.09595153481
1.189913154 5.403046608 0.2877442241
1.19237411 5.405226231 0.480551362
1.186522484 5.369801044 0.6700942516
1.180886745 5.339859962 0.8595025539
1.177725077 5.316772461 1.050275683
1.184930444 5.340471745 1.252974033
1.176582336 5.298474312 1.442709446
1.012463093 4.529497623 -1.232030749
1.1525563 5.1520257 -1.208883643
1.094986558 4.886666775 -0.9651747346
1.098166585 4.896863461 -0.7881684899
1.104326129 4.916282177 -0.6135468483
1.110478997 4.935616016 -0.4388909042
1.212729692 5.385688305 -0.2871161997
1.219148278 5.405388832 -0.09602134675
1.206587911 5.39796114 0.0958468169
1.211385727 5.410553455 0.2883722484
1.211230874 5.401031971 0.480551362
1.203454971 5.361962795 0.6696067452
1.20081532 5.341487885 0.8604412079
1.195782065 5.314752579 1.050657272
1.20177567 5.33271122 1.252074242
1.196773171 5.301871777 1.444779992
1.027479172 4.526114464 -1.232030749
1.192138195 5.242982864 -1.231378675
1.111622214 4.884922504 -0.9655563235
1.117888212 4.904555321 -0.790045619
1.120153904 4.906590939 -0.6128156185
1.129058003 4.941618919 -0.4397625029
1.231520772 5.38142252 -0.2871161997
1.238010645 5.401099682 -0.09602134675
1.227194071 5.401517391 0.09598644078
1.227607131 5.394607544 0.2877442241
1.231790781 5.408640862 0.4815972447
1.220841289 5.351922989 0.6688755155
1.218574643 5.333411694 0.8598154187
1.216516256 5.320115089 1.052565336
1.219514251 5.324684143 1.251174331
1.216135621 5.301428318 1.445815325
1.04153192 4.51497221 -1.229960203
1.220082641 5.280561447 -1.241276622
1.126894474 4.873362064 -0.9640299082
1.137677073 4.912169456 -0.7919228673
1.137275577 4.902650833 -0.6128156185
1.143598557 4.926002502 -0.4387166202
1.251203895 5.380980968 -0.2873255312
1.253677607 5.383113384 -0.09577701241
1.247842073 5.404994011 0.09612605721
1.24462676 5.382506371 0.2873255312
1.248867512 5.396543503 0.4809000194
1.241304755 5.355364799 0.6698504686
1.236292481 5.325277805 0.8591897488
1.235075831 5.315836906 1.052565336
1.238978267 5.324190617 1.252074242
1.234635115 5.297150612 1.445815325
1.061695099 4.530117512 -1.235136509
1.24875164 5.319905281 -1.251624346
1.143451095 4.867486954 -0.9636482
1.150291562 4.888939857 -0.7887941599
1.15711081 4.910245419 -0.6142780781
1.159413576 4.916162968 -0.4381936789
1.273653865 5.392130852 -0.2881629169
1.277065754 5.398163795 -0.09612605721
1.265784383 5.396712303 0.09605624527
1.26569283 5.387850761 0.2878488898
1.265869737 5.384394169 0.4802027345
1.262722254 5.36259222 0.6713129282
1.255779266 5.324774265 0.8598154187
1.2540766 5.313404083 1.052946925
1.257554412 5.319833755 1.252074242
1.252229333 5.289048672 1.444779992
1.076606035 4.522625446 -1.234101295
1.267767429 5.317409039 -1.252074242
1.161345124 4.867285728 -0.9644114971
1.165514827 4.877209663 -0.7875427008
1.176093221 4.913897991 -0.6152530313
1.17424798 4.902398109 -0.4373221397
1.289669156 5.376000404 -0.2875348926
1.296367049 5.395617485 -0.09616096318
1.28137219 5.37864399 0.09581191838
1.285418272 5.387285233 0.2880582511
1.285584092 5.38381815 0.480551362
1.279123783 5.348498821 0.6700942516
1.276660681 5.329963684 0.8613798022
1.270326734 5.29944849 1.051038861
1.277937531 5.322990894 1.253873825
1.26977706 5.280889988 1.443744779
1.093411207 4.526542187 -1.236171842
1.284017801 5.307493687 -1.250724435
1.178402305 4.867224693 -0.9651747346
1.181680918 4.873318195 -0.7875427008
1.188635468 4.894538879 -0.6133031249
1.192849994 4.908157349 -0.4381936789
1.305601597 5.363931179 -0.2871161997
1.318042755 5.406831264 -0.09644020349
1.299202919 5.374364853 0.09581191838
1.301864982 5.377169609 0.2877442241
1.30530858 5.387270451 0.4812486172
1.294513941 5.334582329 0.6688755155
1.294327259 5.325701237 0.8613798022
1.288358808 5.297113895 1.05142045
1.295119882 5.316830158 1.253423929
1.290030718 5.287910461 1.446850657
1.109206319 4.522697449 -1.236171842
1.30021143 5.293517113 -1.248475075
1.194448829 4.859267712 -0.9644114971
1.201044798 4.878754616 -0.7891070843
1.204289079 4.884577274 -0.6125718951
1.212838054 4.915570259 -0.4392395616
1.324318647 5.359340668 -0.2871161997
1.329701304 5.37308073 -0.09591662884
1.321292996 5.383390903 0.09605624527
1.317291141 5.359015942 0.287011534
1.326010704 5.390419483 0.4819458425
1.313600779 5.331958294 0.6691192389
1.311962008 5.317315102 0.8607540131
1.308252096 5.29830265 1.052565336
1.312266707 5.306602001 1.252074242
1.309411287 5.287124634 1.447885752
1.123118877 4.51129961 -1.234101295
1.320568442 5.296509743 -1.250274658
1.208550811 4.843639851 -0.9621217847
1.218547702 4.876448154 -0.7894199491
1.220849276 4.878418446 -0.6123281717
1.228054404 4.903575897 -0.4385423064
1.346904039 5.370183468 -0.2879535556
1.352347374 5.383921623 -0.0961958617
1.342006564 5.386508465 0.0961958617
1.337922454 5.362136841 0.2874302268
1.343852282 5.381892204 0.4815972447
1.334614277 5.336969376 0.670337975
1.329556704 5.308870792 0.8601283431
1.327694654 5.297512531 1.053328514
1.331732512 5.305769444 1.252974033
1.327857733 5.282522202 1.447885752
1.134128332 4.488621712 -1.22892499
1.340959668 5.299424648 -1.252074242
1.227379918 4.847003937 -0.9636482
1.233618975 4.864506721 -0.7881684899
1.240312815 4.883747101 -0.6135468483
1.242217898 4.887673378 -0.4374964535
1.365640163 5.365449429 -0.2879535556
1.366686225 5.361729145 -0.09588173032
1.359331727 5.375975132 0.09609115869
1.357613564 5.361305237 0.2876395583
1.358713865 5.361718178 0.4802027345
1.355675936 5.341898918 0.6715566516
1.348565459 5.306111813 0.8604412079
1.34520936 5.289040565 1.052565336
1.351208329 5.304864407 1.253873825
1.343423009 5.266623974 1.444779992
1.155548096 4.507091045 -1.235136509
1.243804336 4.840788364 -0.9632666111
1.248131633 4.850605011 -0.7866041064
1.260323644 4.89092207 -0.6150093079
1.262257814 4.894883156 -0.4385423064
1.383360863 5.356782436 -0.2877442241
1.386396408 5.360796928 -0.09595153481
1.376099944 5.363449097 0.09595153481
1.380794525 5.373943329 0.2885816097
1.378412724 5.360802174 0.480551362
1.373325706 5.333289146 0.6710692048
1.3675735 5.303284645 0.8607540131
1.362683654 5.280510426 1.051802039
1.370691776 5.303889751 1.254773617
1.364701748 5.273123741 1.447885752
1.173218012 4.510508537 -1.237207055
1.308662176 5.024033546 -1.188637972
1.262674093 4.844016552 -0.9647930861
1.267050505 4.853863716 -0.7878555655
1.273373246 4.871128082 -0.6130593419
1.28034389 4.894301891 -0.4388909042
1.400534153 5.346125126 -0.2874302268
1.405607104 5.357860088 -0.09598644078
1.39380765 5.354743004 0.09588173032
1.39752841 5.361360073 0.2881629169
1.399129987 5.363668919 0.4812486172
1.388922691 5.316939354 0.6696067452
1.388075829 5.306123257 0.8620054722
1.382598281 5.281419754 1.052946925
1.390184641 5.302843094 1.255673409
1.383101463 5.268327713 1.447885752
1.190927982 4.513857365 -1.23927772
1.38542819 5.243641853 -1.242176294
1.277067304 4.830089092 -0.9628850222
1.28398478 4.849411488 -0.7878555655
1.287826419 4.857059002 -0.6118406653
1.29980886 4.89535284 -0.4394138455
1.419188499 5.341203213 -0.2874302268
1.423788071 5.350987434 -0.09595153481
1.413512945 5.353711128 0.09595153481
1.410620213 5.33520937 0.287011534
1.417845607 5.358752251 0.4812486172
1.407475233 5.312057972 0.6696067452
1.405574918 5.297427177 0.8613798022
1.4025383 5.282253742 1.054091811
1.404679298 5.282892227 1.252074242
1.404466867 5.274668217 1.450991631
1.206463695 4.505730152 -1.238242388
1.41280365 5.272655487 -1.250274658
1.291708112 4.813999653 -0.9605953097
1.302776814 4.848488331 -0.7884813547
1.306833744 4.860202312 -0.6128156185
1.313264251 4.877318382 -0.4381936789
1.441874027 5.347536087 -0.2880582511
1.446626902 5.361430168 -0.09623077512
1.43426013 5.356472015 0.09609115869
1.431300402 5.337970257 0.2874302268
1.440575719 5.365065098 0.4822944999
1.426008105 5.307113171 0.6696067452
1.421492815 5.282950401 0.8598154187
1.425463557 5.290347099 1.056763172
1.426574826 5.287113667 1.254323721
1.419847727 5.258543491 1.447885752
1.21762979 4.484711647 -1.23358357
1.434163332 5.274964333 -1.252074242
1.311597943 4.820827007 -0.9628850222
1.318653584 4.840099812 -0.7878555655
1.326204896 4.861125946 -0.6135468483
1.323981047 4.849641323 -0.4361019135
1.461586475 5.346323013 -0.2882675827
1.46058023 5.338989735 -0.09591662884
1.454406023 5.353108883 0.09612605721
1.454641938 5.350286484 0.2883722484
1.456153035 5.348469734 0.4812486172
1.446495652 5.305681229 0.6700942516
1.442523718 5.287485123 0.8613798022
1.440301418 5.272082329 1.054091811
1.445017934 5.282103062 1.254323721
1.437176108 5.249828815 1.446850657
1.23635006 4.491610527 -1.236689448
1.450096607 5.26454258 -1.250724435
1.328414559 4.816220284 -0.9628850222
1.332070112 4.826179028 -0.7862912416
1.342316747 4.856701374 -0.6135468483
1.345154285 4.860351562 -0.4374964535
1.476638436 5.331823826 -0.2877442241
1.485087514 5.355054855 -0.09630057961
1.468964338 5.336688519 0.09591662884
1.472249031 5.341324806 0.2881629169
1.472694874 5.335671902 0.480551362
1.46408093 5.30085516 0.6700942516
1.462026119 5.286225319 0.8620054722
1.456727982 5.263492584 1.053328514
1.467211604 5.294183731 1.258372784
1.4585886 5.255949497 1.449956298
1.254352331 4.498650551 -1.239795327
1.467417717 5.255693913 -1.249824643
1.345436215 4.815569878 -0.9636482
1.349974275 4.825304031 -0.7869169712
1.357120991 4.844339848 -0.6125718951
1.363954663 4.865455627 -0.4383679926
1.493623137 5.320868015 -0.2874302268
1.504461169 5.355875492 -0.09640529752
1.486510396 5.327675343 0.0958468169
1.489954948 5.336412907 0.2881629169
1.493598342 5.342272282 0.4815972447
1.481503844 5.291889668 0.6696067452
1.481678486 5.288956642 0.8632570505
1.476681709 5.264046192 1.0544734
1.48252213 5.277772903 1.255673409
1.476011395 5.251083851 1.449956298
1.271099806 4.497962475 -1.24083066
1.482715964 5.243298531 -1.24802506
1.359029531 4.799509525 -0.9613586068
1.36704421 4.824602604 -0.7875427008
1.369928122 4.828353882 -0.6111094952
1.381471157 4.862582684 -0.4385423064
1.513991714 5.325490475 -0.2879535556
1.519311309 5.337129116 -0.09616096318
1.507433653 5.334262371 0.09605624527
1.506394506 5.323493481 0.2877442241
1.514411092 5.344692707 0.4822944999
1.500126362 5.29076767 0.6700942516
1.499053717 5.279951572 0.8626312613
1.494665146 5.261009693 1.054854989
1.498948216 5.269079208 1.254773617
1.496450543 5.253331184 1.452026963
1.284944773 4.490008354 -1.239795327
1.502082109 5.241838455 -1.248924851
1.37439549 4.79308939 -0.9609768987
1.382785559 4.816003799 -0.7869169712
1.387872219 4.827358246 -0.6115969419
1.401996732 4.873292446 -0.4399367869
1.531467557 5.316334724 -0.2877442241
1.537933469 5.331792831 -0.09616096318
1.529346824 5.340503216 0.09626568109
1.527171135 5.325881958 0.2881629169
1.532125354 5.339641571 0.4822944999
1.52077949 5.293129921 0.6710692048
1.516381502 5.270890236 0.8620054722
1.515194297 5.263306141 1.056381464
1.518949866 5.269432545 1.256123304
1.51370883 5.244362354 1.450991631
1.294152975 4.46323061 -1.23358357
1.525805473 5.255277157 -1.253423929
1.39002192 4.78449297 -0.9602137208
1.398486018 4.807353973 -0.7862912416
1.405821204 4.826296806 -0.6120843887
1.44854939 4.969746113 -0.4491752982
1.55448842 5.326295376 -0.2885816097
1.559341669 5.335988998 -0.09633549303
1.546863556 5.331291199 0.0961958617
1.547980428 5.328190327 0.2885816097
1.548529029 5.326609135 0.4815972447
1.540355206 5.291601181 0.6715566516
1.536983609 5.273150444 0.8632570505
1.532457113 5.254216194 1.055618286
1.538974762 5.269710064 1.257473111
1.530920386 5.235338688 1.449956298
1.311903954 4.466100216 -1.235654235
1.541939855 5.242441654 -1.251624346
1.407824159 4.783377647 -0.9609768987
1.411906719 4.791074753 -0.784414053
1.424346209 4.82707119 -0.6128156185
1.531898737 5.188227654 -0.4695697427
1.573072791 5.320836544 -0.2885816097
1.576822042 5.32667923 -0.09626568109
1.560953975 5.310511112 0.09591662884
1.566571355 5.322754383 0.2885816097
1.568240047 5.324992657 0.4819458425
1.55769527 5.282383919 0.6710692048
1.554820538 5.265859127 0.8629441261
1.547452092 5.237537861 1.053328514
1.56067574 5.275517941 1.260172367
1.551379442 5.237372875 1.452026963
1.331894159 4.476305962 -1.239795327
1.558559656 5.231424809 -1.250274658
1.426757574 4.785960197 -0.9625034332
1.427491307 4.782331467 -0.7837882638
1.438912511 4.814462662 -0.6118406653
1.567697883 5.242022514 -0.4749733806
1.589916468 5.30957365 -0.2882675827
1.597704411 5.328803539 -0.09640529752
1.5829041 5.316529274 0.09612605721
1.584572554 5.315339088 0.288476944
1.589095235 5.327123642 0.4826431274
1.574990034 5.273109913 0.6705816984
1.576023698 5.269862175 0.8645085096
1.567977667 5.239626884 1.054854989
1.575726748 5.258837223 1.257473111
1.570760846 5.235626221 1.453062177
1.349739909 4.479028702 -1.241865873
1.576812744 5.225952148 -1.250274658
1.440616846 4.771553516 -0.9605953097
1.445320368 4.78110075 -0.784414053
1.452260137 4.798010349 -0.6103782654
1.596380949 5.270842552 -0.4781110287
1.607282877 5.300168514 -0.2880582511
1.619199753 5.332761765 -0.09657981992
1.607804418 5.33203125 0.09651000798
1.606001973 5.319335938 0.2890002728
1.607682228 5.32154417 0.4826431274
1.595684886 5.27518034 0.6715566516
1.594408393 5.264328957 0.8645085096
1.590242743 5.247274399 1.05752635
1.594072819 5.253305435 1.257473111
1.591274858 5.237504959 1.455132723
1.361982226 4.46320343 -1.238759995
1.453818798 4.75523138 -0.9583055973
1.463156343 4.779805183 -0.7850397825
1.467837334 4.789115429 -0.609890759
1.618273854 5.276667118 -0.4791569114
1.628120661 5.30216217 -0.288476944
1.637218118 5.325164795 -0.09654491395
1.627573848 5.330212116 0.09657981992
1.623975158 5.311788082 0.288895607
1.626246929 5.315899849 0.4826431274
1.614671826 5.271476746 0.6718004346
1.610456586 5.251177311 0.8632570505
1.610278845 5.247321606 1.058671236
1.61239934 5.247709274 1.257473111
1.608412623 5.228224754 1.454097509
1.376412153 4.454731464 -1.237724781
1.614985943 5.220401287 -1.251624346
1.472149491 4.755753994 -0.9594504237
1.478663564 4.770894051 -0.784414053
1.488074541 4.795338154 -0.6113532186
1.640229225 5.282402039 -0.4802027345
1.650175333 5.307890415 -0.2891049683
1.656389832 5.321327686 -0.09657981992
1.644989848 5.320676804 0.09651000798
1.646639943 5.319442749 0.2896283269
1.642436385 5.302577496 0.4819458425
1.638351083 5.282872677 0.6739940047
1.629949689 5.249296188 0.8638827205
1.626251936 5.234170437 1.057144761
1.634760857 5.255074024 1.260622382
1.625502825 5.21889019 1.453062177
1.390801311 4.446211815 -1.236689448
1.639021993 5.233329296 -1.256123304
1.489916682 4.754333019 -0.9602137208
1.490576148 4.75062561 -0.7819111347
1.504805565 4.790114403 -0.6113532186
1.658657193 5.276644707 -0.4802027345
1.667495251 5.298287392 -0.288895607
1.678559422 5.326957226 -0.09678925574
1.662956595 5.312993526 0.09647510946
1.666394234 5.317473888 0.2898376882
1.663321733 5.304416656 0.4826431274
1.654404879 5.269545555 0.6730191112
1.649446845 5.247344494 0.8645085096
1.643335819 5.22471571 1.056381464
1.653678894 5.251194954 1.261072278
1.643711448 5.213183403 1.453062177
1.408646822 4.448696136 -1.238759995
1.656103253 5.223860264 -1.255223513
1.506504655 4.749102592 -0.9602137208
1.507151127 4.745393276 -0.7819111347
1.518505931 4.775374889 -0.610134542
1.680087924 5.280315876 -0.4810743034
1.686582208 5.294337749 -0.2890002728
1.698360443 5.324875355 -0.09685906023
1.6808846 5.305251122 0.09644020349
1.685550928 5.313528061 0.2899423242
1.684234858 5.306175232 0.4833403528
1.669183016 5.252387047 0.6715566516
1.670150518 5.249083519 0.8657599688
1.663947344 5.226430416 1.057908058
1.67200017 5.245389938 1.261072278
1.66424489 5.214776993 1.455132723
1.424166083 4.443751812 -1.238759995
1.668375254 5.199491501 -1.250724435
1.520671248 4.736338615 -0.9586872458
1.521894097 4.734461308 -0.7809724808
1.530910015 4.756817341 -0.608428359
1.70278585 5.287693501 -0.4822944999
1.70444119 5.28651762 -0.288895607
1.71693635 5.31891489 -0.09685906023
1.705500841 5.318392754 0.09678925574
1.702255487 5.301907539 0.2896283269
1.706404567 5.311645031 0.4843862355
1.689329386 5.252198219 0.6722878814
1.688464522 5.243221283 0.8657599688
1.683383942 5.224327564 1.058671236
1.686711311 5.228393555 1.258372784
1.683626533 5.212612152 1.456168056
1.438478351 4.435078621 -1.237724781
1.690724134 5.206611633 -1.253873825
1.534162641 4.721664906 -0.9567791224
1.541463256 4.73851347 -0.7825368047
1.547506452 4.75144434 -0.608428359
1.721229434 5.281718731 -0.4822944999
1.727841616 5.295724869 -0.2897329926
1.73114717 5.299582481 -0.09661472589
1.72528863 5.3162117 0.09685906023
1.720136523 5.294033527 0.2895236611
1.722469926 5.298077106 0.4836890101
1.711340547 5.257594109 0.6737502813
1.704304814 5.229784012 0.8645085096
1.704045892 5.225885391 1.060197592
1.707367063 5.229884624 1.260172367
1.703013539 5.210375786 1.457203388
1.44491148 4.402498245 -1.229960203
1.633455992 4.971109867 -1.198085904
1.541433811 4.688306332 -0.9510548115
1.55490756 4.723721981 -0.7809724808
1.564081669 4.746013641 -0.608428359
1.738409042 5.271893501 -0.4819458425
1.748820066 5.297248363 -0.2901516855
1.749637008 5.293507099 -0.09661472589
1.742588758 5.306356907 0.09678925574
1.741720915 5.297484398 0.2900469899
1.739709258 5.288246632 0.4833403528
1.732784033 5.261017323 0.6749690175
1.723788142 5.227554321 0.8651341796
1.722276211 5.219905853 1.060197592
1.726836324 5.227593422 1.261072278
