# .PCD v0.7 - Point Cloud Data file format
VERSION 0.7
FIELDS x y z
SIZE 4 4 4
TYPE F F F
COUNT 1 1 1
WIDTH 1251
HEIGHT 1
VIEWPOINT 0 0 0 1 0 0 0
POINTS 1251
DATA ascii
5.068631172 -0.8928242326 -0.4465606511
2.8382864 -0.5009772778 -0.1488445997
5.621888161 -0.9943259358 -0.09895334393
4.564198971 -0.7998641133 0.240641892
5.595181942 -0.9815478325 0.4932760894
5.580508709 -0.980981648 0.6905682683
5.559099674 -0.9792187214 0.8873479366
5.56206131 -0.9807415009 1.089582324
5.550024033 -0.9806166291 1.291215658
5.542258263 -0.9812396765 1.496543884
2.733917713 -0.4874772131 -0.7325099707
2.803776026 -0.5014483333 -0.5453948975
2.92539525 -0.5242534876 -0.4640361667
3.077912331 -0.5526947379 -0.3788264692
2.84241724 -0.5119436979 -0.1491586268
2.832804203 -0.5056196451 0.04952813312
4.600700378 -0.8228237629 0.2427353263
5.576032162 -0.9982636571 0.4918816388
5.577050686 -1.000455379 0.6905682683
5.577033997 -1.002461791 0.8907894492
5.548942566 -0.9984123111 1.087674141
5.550403118 -1.00067544 1.29211545
5.533096313 -0.9995495081 1.494990945
2.732199192 -0.4970173836 -0.7325099707
2.832910538 -0.5168704391 -0.5515007973
2.915774822 -0.5330408812 -0.4627847075
2.849694014 -0.5245591998 -0.04987718165
2.775936365 -0.5054742098 0.04855079576
4.572257519 -0.8342179656 0.2413745821
5.368676662 -0.98049438 0.4737532139
5.444648743 -0.9963334203 0.6744815111
5.56961441 -1.02121067 0.8901637793
5.53963089 -1.016712427 1.086529255
5.558376312 -1.022158742 1.294814944
5.523874283 -1.017807364 1.493438005
2.736145735 -0.5076086521 -0.7340628505
2.82621479 -0.5253386497 -0.6537043452
2.90057373 -0.5396843553 -0.5652390718
2.921664 -0.5446636677 -0.4640361667
3.046660423 -0.5690662861 -0.3754141331
3.061380625 -0.5723688006 -0.2687629163
2.75449419 -0.5115098357 0.04820175096
4.56539011 -0.849442184 0.2411652356
5.3652215 -0.9992285967 0.4737532139
5.331858158 -0.9949408174 0.6608321667
5.567957878 -1.041009188 0.8904765844
5.536047935 -1.036043167 1.086529255
5.543282032 -1.039399862 1.29211545
5.533577442 -1.039579868 1.497061491
2.738153934 -0.5178745389 -0.7350981832
2.824363708 -0.5352007747 -0.6537043452
2.962324858 -0.5618792772 -0.5778324604
2.927507401 -0.5563340187 -0.4652876258
3.126557827 -0.5952917337 -0.3856511712
2.934990883 -0.5604103804 -0.1543922126
4.735406399 -0.9058970213 -0.0834556073
2.735008955 -0.5177741051 0.04788760841
4.527076721 -0.8586737514 0.2392811477
5.351913929 -1.016092539 0.4728816748
5.34590435 -1.016885042 0.6630257964
5.564290047 -1.060438633 0.8904765844
5.543968678 -1.057568669 1.088819027
5.539620399 -1.058743238 1.29211545
5.539402485 -1.060706019 1.499649644
2.724947929 -0.5252354741 -0.7319923043
2.820564747 -0.5446869135 -0.6532544494
2.950707674 -0.5703533888 -0.5759243369
2.929426432 -0.5673007369 -0.465913415
4.880162716 -0.9477235675 -0.4312212169
4.665482044 -0.9094132185 -0.08226884902
2.774418116 -0.5352731347 0.04862061143
4.539739609 -0.8775032759 0.2401185185
5.340509892 -1.033254147 0.4721844196
5.34621954 -1.036295056 0.6635132432
5.533406734 -1.074583054 0.8860964775
5.5440979 -1.077663541 1.089582324
5.532064915 -1.077328682 1.291215658
5.522393227 -1.077446103 1.496026278
2.734471798 -0.5369776487 -0.7350981832
2.826294899 -0.5560339093 -0.6550540924
2.829270363 -0.5571322441 -0.5522640347
2.923552275 -0.5767582059 -0.4652876258
5.037094593 -0.9964579344 -0.4455147684
2.931007147 -0.580886662 -0.1543922126
4.728966713 -0.9389340281 -0.0834556073
2.788230181 -0.548039794 0.04889984801
4.544487 -0.894888103 0.2405371964
5.334915638 -1.051504374 0.4720101058
5.346464634 -1.055719614 0.6640007496
5.548999786 -1.097725034 0.8892251253
5.532599449 -1.095484138 1.088055849
5.532094002 -1.097391009 1.29211545
5.514809132 -1.09596312 1.494990945
2.726897478 -0.5453828573 -0.7335452437
2.835800886 -0.5681931973 -0.6577534676
2.836933136 -0.5689350963 -0.5541720986
2.915711164 -0.5857924223 -0.4643490613
3.071501017 -0.6182076335 -0.379557699
5.060929298 -1.019543171 -0.4479551315
4.584537983 -0.9269033074 -0.08094246686
2.821594238 -0.5648344755 0.04952813312
4.557002068 -0.9138877988 0.2413745821
5.327306271 -1.069336176 0.4716615081
5.334962368 -1.072810531 0.6630257964
5.554816723 -1.119038582 0.8907894492
5.521042824 -1.1132375 1.086529255
5.539690495 -1.119009972 1.294814944
5.512843132 -1.115589857 1.495508552
2.732549191 -0.5564400554 -0.7356157899
3.06483984 -0.6252200007 -0.7121916413
2.831082582 -0.5780488849 -0.5534089208
2.925260544 -0.5983417034 -0.4662262499
3.053766727 -0.6257374883 -0.3776077926
5.053436279 -1.036402464 -0.4476065338
4.579223633 -0.9349833131 0.2427353263
5.333301067 -1.089920044 0.4725330472
5.317572117 -1.088639498 0.6613196731
5.564422607 -1.141199946 0.8929796219
5.524816513 -1.13408196 1.088055849
5.524297714 -1.135985255 1.29211545
5.52026844 -1.13716507 1.498614311
2.730590343 -0.56597507 -0.7356157899
3.081718922 -0.6398763061 -0.7166906595
2.840580702 -0.5903244615 -0.5556986332
2.92702198 -0.6093543768 -0.4668520093
3.051563978 -0.6363933086 -0.3776077926
5.057589054 -1.055664301 -0.4483037591
4.575932026 -0.9509620667 0.2427353263
5.337266445 -1.110153079 0.4732302725
5.323456287 -1.109219193 0.6625383496
5.546868801 -1.157791018 0.8907894492
5.528511047 -1.154966235 1.089582324
5.520298958 -1.155261636 1.29211545
5.516265392 -1.156427622 1.498614311
2.721036911 -0.5739083886 -0.7335452437
3.077559948 -0.6502267122 -0.7162407637
2.844264984 -0.6014547944 -0.5568434596
2.940336943 -0.6228427291 -0.4693549275
3.047382116 -0.6466293335 -0.3773640692
4.611665726 -0.9751933813 0.2448287606
5.325562 -1.127126575 0.4725330472
5.321494102 -1.128206491 0.6627821326
5.536997318 -1.175915122 0.8898509145
5.528286457 -1.175073624 1.090345502
5.525763035 -1.176553249 1.294365048
5.514083862 -1.176078916 1.499131918
2.720905781 -0.5838083625 -0.7340628505
3.073366404 -0.6605560184 -0.7157908678
2.847906113 -0.6126180887 -0.557988286
2.936213732 -0.6326865554 -0.4690420926
3.050927639 -0.6585192084 -0.3780952394
5.532671452 -1.19923842 -0.09811563045
4.600423336 -0.9896050692 0.2444100827
5.307960987 -1.142774105 0.4713128805
5.321404457 -1.147612095 0.6632695198
5.540581703 -1.196904063 0.8911023736
5.520313263 -1.193534017 1.089582324
5.527335644 -1.19707191 1.295714617
5.500505447 -1.193271518 1.496543884
2.720739126 -0.5937144756 -0.7345805168
3.057715178 -0.6683670282 -0.7126415372
2.872601271 -0.6284295321 -0.5633309484
2.937846661 -0.6437776685 -0.4696678221
3.052488327 -0.6700162292 -0.3785827458
4.976201534 -1.093178391 -0.4420285523
5.612422466 -1.237052083 -0.09961653501
4.565722942 -0.9988281727 0.2427353263
5.313670635 -1.163426042 0.4721844196
5.319304943 -1.166605592 0.6635132432
5.54794693 -1.218780041 0.8929796219
5.504608631 -1.21026659 1.087292552
5.525026798 -1.216777921 1.296164632
5.503853321 -1.214129329 1.498614311
2.729965925 -0.6057187915 -0.737686336
3.062972784 -0.6807275414 -0.7144411802
2.874222755 -0.6393054128 -0.5640941858
2.937509537 -0.6544582844 -0.4699806869
3.048193455 -0.6802347898 -0.3783389926
5.604168415 -1.255761266 -0.09954673052
5.317356586 -1.183698893 0.4728816748
5.303575039 -1.182574153 0.6620509028
5.549441814 -1.239430308 0.8939181566
5.50226593 -1.229902148 1.087674141
5.511237621 -1.233927488 1.293915033
5.501466274 -1.233756542 1.499131918
2.716527939 -0.6126942039 -0.7345805168
3.068181276 -0.6931328177 -0.7162407637
2.877718687 -0.6506332755 -0.5652390718
2.944840193 -0.6668896079 -0.4715450406
3.007082224 -0.6820884943 -0.3734642267
4.968448639 -1.127892017 -0.4420285523
5.590001583 -1.273095608 -0.09937220812
5.315135479 -1.202692389 0.4730559886
5.307158947 -1.202834964 0.6630257964
5.529670715 -1.255295515 0.8914152384
5.513255596 -1.252580881 1.090727091
5.516397953 -1.255319953 1.296164632
5.51031065 -1.255957961 1.502755404
2.718138456 -0.6230361462 -0.7356157899
3.065743208 -0.7038385272 -0.7162407637
2.875429869 -0.6606743932 -0.5652390718
2.961745024 -0.6815951467 -0.4746737182
2.965995312 -0.683663547 -0.3685894608
4.925653458 -1.136271238 -0.4385423064
5.579679012 -1.291247964 -0.09926749021
5.305079937 -1.21989882 0.4725330472
5.297124386 -1.220016479 0.6622946262
5.52525568 -1.274590015 0.8914152384
5.510762691 -1.272259831 1.09110868
5.511982441 -1.274568081 1.296164632
5.49460125 -1.272569776 1.499649644
2.715947151 -0.6325203776 -0.7356157899
3.067063332 -0.7154211402 -0.717140615
2.880753756 -0.6724927425 -0.5667654872
2.957423925 -0.6914796233 -0.4743608534
2.979053497 -0.6976336241 -0.3705393672
5.596717358 -1.311667562 -0.4992026985
5.577084064 -1.311174512 -0.09930240363
5.289148331 -1.235689998 0.4714871645
5.302497864 -1.240760803 0.6635132432
5.520772457 -1.293868899 0.8914152384
5.506288052 -1.291488171 1.09110868
5.511293411 -1.29469192 1.297064424
5.490125656 -1.291741729 1.499649644
2.708082676 -0.6406626701 -0.7340628505
3.058858633 -0.7247748971 -0.7157908678
2.882209063 -0.6834502816 -0.5675287247
2.937695265 -0.6976907849 -0.4715450406
2.993980646 -0.7121624947 -0.3727330267
5.594042301 -1.331657171 -0.4993770421
5.584143162 -1.333420634 -0.09951182455
4.644876957 -1.099714398 0.08261789382
5.29061842 -1.255525112 0.4720101058
5.298134804 -1.259262562 0.6635132432
5.525831223 -1.315419555 0.8929796219
5.497926712 -1.30979085 1.090345502
5.510531902 -1.314826727 1.297964215
5.489340782 -1.31179595 1.500684857
2.71334362 -0.6519169807 -0.7361334562
3.054415226 -0.7349919081 -0.7153409719
2.889349461 -0.695805192 -0.5694368482
2.960206032 -0.7139619589 -0.4756123424
2.96446228 -0.7160836458 -0.3693206608
5.595170021 -1.352580428 -0.4998999536
5.583341599 -1.353847504 -0.09958163649
5.293951035 -1.275852323 0.4727073312
5.280198574 -1.27448833 0.6618071198
5.528885841 -1.336556911 0.894231081
5.502861977 -1.331282377 1.092253566
5.505908966 -1.334054112 1.297964215
5.495992661 -1.333682656 1.503790736
2.70354414 -0.6595528722 -0.7340628505
3.059403658 -0.7474994659 -0.717140615
2.877367258 -0.7035550475 -0.5675287247
2.959614515 -0.7247604728 -0.4759251773
2.969656706 -0.728318572 -0.370295614
5.598154068 -1.374002576 -0.5005972385
5.588290215 -1.375718713 -0.09975615889
5.552068233 -1.355501652 0.09905806184
5.265555382 -1.287499189 0.2818826139
5.299141884 -1.296691775 0.4735789299
5.285358429 -1.295274496 0.6630257964
5.520349503 -1.354906321 0.8936052918
5.503901482 -1.351887822 1.093398452
5.493649483 -1.351403236 1.296164632
5.495055676 -1.353783488 1.504826069
2.706851006 -0.670379281 -0.7356157899
3.047318459 -0.7558285594 -0.7148910761
2.880610466 -0.7150135636 -0.5686736107
2.968568802 -0.7379463911 -0.4778024256
2.965169907 -0.7382005453 -0.3700518906
5.593323708 -1.393535376 -0.5005972385
5.56987381 -1.39182353 -0.09951182455
5.572535515 -1.381127596 0.09951182455
5.29010582 -1.313088775 0.2834526896
5.281048298 -1.311819196 0.4723587334
5.284657478 -1.314674377 0.6635132432
5.515586376 -1.374167681 0.8936052918
5.510578632 -1.373941541 1.095688224
5.494570255 -1.371987581 1.297514319
5.479051113 -1.370144486 1.50172019
3.048441172 -0.7674125433 -0.7157908678
2.889519691 -0.7279420495 -0.5709633231
2.962144136 -0.7473376989 -0.4771766961
3.010690451 -0.7607036233 -0.3761453629
5.580699444 -1.411097646 -0.4998999536
5.583961964 -1.413996696 -0.2996768057
5.568858147 -1.412240744 -0.09958163649
5.559923649 -1.398619652 0.09937220812
5.302920818 -1.335937977 0.2843947411
5.276436806 -1.330245495 0.4723587334
5.291584015 -1.336028934 0.6649757028
5.516501427 -1.394865036 0.8945438862
5.501942158 -1.392205477 1.094924927
5.501081944 -1.394031048 1.300213814
5.481725216 -1.391162395 1.503790736
3.047631741 -0.7785311937 -0.7162407637
2.894569397 -0.7399690151 -0.5724897981
2.961431026 -0.7581628561 -0.477489531
3.042628527 -0.7800822258 -0.3805326223
5.589248657 -1.434035301 -0.5011201501
5.578992367 -1.433479786 -0.2996768057
5.579387665 -1.435657501 -0.09986086935
5.558882713 -1.419008017 0.09944202006
5.300160408 -1.354935288 0.2844994068
5.271761417 -1.348655462 0.4723587334
5.269581318 -1.35005784 0.6627821326
5.513512135 -1.414603591 0.894856751
5.481836319 -1.407496333 1.091871977
5.488632679 -1.411283731 1.298414111
5.476835728 -1.410288692 1.503790736
2.705293179 -0.7001401186 -0.7371687293
3.046782017 -0.7896535993 -0.7166906595
2.8938694 -0.7505612969 -0.572871387
2.962589979 -0.7694886923 -0.4781152606
3.030281305 -0.7881996632 -0.3793139458
5.588065624 -1.45454061 -0.5014687777
5.564291477 -1.450426459 -0.299153477
5.574342251 -1.455124617 -0.09986086935
5.553895473 -1.438403606 0.09944202006
5.283798695 -1.370419383 0.2838713527
5.274735451 -1.369051218 0.4730559886
5.262915611 -1.367944598 0.6625383496
5.510452747 -1.43433845 0.8951696754
5.484489441 -1.428602457 1.093398452
5.494987011 -1.433385253 1.301113486
5.479355812 -1.431350946 1.505861282
2.70656991 -0.7105603218 -0.7382039428
3.040237904 -0.7992930412 -0.7157908678
2.891231775 -0.7606582046 -0.572871387
2.963706732 -0.7808319926 -0.47874102
5.004504204 -1.320378423 -0.6303648353
5.477003098 -1.446063995 -0.4918816388
5.485819817 -1.450440407 -0.2951759398
5.546031952 -1.46843195 -0.09944202006
5.556577206 -1.459813952 0.09958163649
5.273187637 -1.387330294 0.2835573256
5.266070843 -1.386440754 0.4727073312
5.260028362 -1.386813164 0.6627821326
5.497772694 -1.451547623 0.8939181566
5.498450756 -1.452753305 1.09721458
5.482414722 -1.450563908 1.299313903
5.476193905 -1.450963497 1.506379008
2.696605921 -0.7180153131 -0.7361334562
3.044960737 -0.8119089007 -0.7175904512
2.880971432 -0.7687212825 -0.5713449717
2.976230145 -0.7952518463 -0.4812439382
5.034382343 -1.347075462 -0.6347521544
5.466148376 -1.463627577 -0.4913586974
5.476865768 -1.468546391 -0.2949666083
5.444307804 -1.461853623 -0.09769678116
5.549515724 -1.478686452 0.09954673052
5.272172928 -1.406758666 0.2837666869
5.265048981 -1.405842304 0.4730559886
5.262825966 -1.407216907 0.6637570262
5.496488094 -1.471751451 0.8945438862
5.495242119 -1.472445726 1.097596169
5.486728668 -1.472217321 1.301563382
5.465498924 -1.468566298 1.504826069
2.694083214 -0.7274237871 -0.7361334562
3.049633026 -0.8245674372 -0.7193900943
2.895326376 -0.7833878994 -0.5747795105
2.96390295 -0.8030531406 -0.4796796143
4.995164394 -1.355283856 -0.6303648353
5.564836025 -1.51088953 -0.5007715225
5.475560188 -1.488703012 -0.2951759398
5.512491703 -1.500810623 -0.09902315587
5.438144207 -1.469360709 0.09762696922
5.274941921 -1.427240014 0.2841853797
5.252417564 -1.422129393 0.4723587334
5.259797573 -1.426098585 0.6640007496
5.508475304 -1.49558723 0.8973597288
5.490068913 -1.491618752 1.097596169
5.498479366 -1.495964885 1.305612564
5.473386288 -1.491190195 1.508449554
2.695253849 -0.7378436327 -0.7371687293
3.035459757 -0.8321163654 -0.7166906595
2.896360874 -0.7945284247 -0.575542748
2.959177017 -0.8128709197 -0.4793667495
5.036580563 -1.384468555 -0.6362145543
4.981323242 -1.371149659 -0.4483037591
5.55505085 -1.531158924 -0.2997815013
5.567243576 -1.535565495 -0.1001052111
5.488912582 -1.50365603 0.0986392051
5.383825779 -1.475878358 0.290361017
5.270476341 -1.4467839 0.474450469
5.252873421 -1.443923712 0.6637570262
5.50538969 -1.514369607 0.8976725936
5.477257729 -1.508688211 1.096069813
5.493488312 -1.514190316 1.305612564
5.470273495 -1.50984633 1.508967161
2.689069271 -0.7457449436 -0.7361334562
3.040194273 -0.8442634344 -0.718490243
2.914517403 -0.8099107742 -0.5797405243
2.983108044 -0.830093205 -0.4837469161
4.708776951 -1.311171293 -0.595022738
4.802103519 -1.338964701 -0.4324414134
5.553789616 -1.550646067 -0.2999908328
5.565972805 -1.5550946 -0.1001750156
5.526287079 -1.533613563 0.09940710664
5.529007435 -1.53540802 0.2985254526
5.440329552 -1.512827873 0.4903128147
5.494748116 -1.530026913 0.6951993108
5.507948875 -1.53473866 0.8989240527
5.485461712 -1.530536413 1.098741055
5.480928898 -1.530303001 1.303812981
5.478260517 -1.53161931 1.512590528
2.70704031 -0.7604048848 -0.7418274879
3.03925395 -0.8548681736 -0.7189401984
2.904256344 -0.8174436092 -0.5782140493
3.216100931 -0.9064283967 -0.5225427151
4.681245804 -1.321129799 -0.5920978189
4.69793272 -1.326724529 -0.4233771861
4.676077843 -1.322315216 -0.2524697781
5.548122406 -1.559506893 0.09989578277
5.517847061 -1.553075194 0.2982114255
5.517747402 -1.554086566 0.4978081882
5.506839275 -1.55308938 0.6973930001
5.491152287 -1.550734639 0.897046864
5.487913132 -1.550853968 1.100267529
5.47742939 -1.549956203 1.304262877
5.47288084 -1.550732732 1.512590528
2.691363096 -0.7661470771 -0.7382039428
3.041873693 -0.8670745492 -0.720289886
2.910825014 -0.8302689791 -0.5801221728
3.237609863 -0.9247016311 -0.5266100168
4.678514481 -1.338008404 -0.5923416018
4.683695316 -1.34037447 -0.4225056767
4.675273418 -1.339730144 -0.2526791394
4.661188126 -1.337454796 -0.08394428343
5.516232967 -1.573422313 0.2984207869
5.521868706 -1.576071858 0.4986797869
5.512836456 -1.575575352 0.6988554597
5.495201111 -1.57261014 0.8986111879
5.490015984 -1.572162986 1.101794124
5.475732327 -1.570140958 1.305162668
5.473004341 -1.57142663 1.514143467
2.686816216 -0.7750017047 -0.737686336
3.053806305 -0.8820132017 -0.7238891125
2.900364876 -0.8382441401 -0.5785956979
3.217284679 -0.9310551882 -0.5237941742
4.963626862 -1.438310027 -0.6293898821
4.70195055 -1.363373518 -0.4245973825
4.680158138 -1.358825922 -0.253202498
4.662251472 -1.355391622 -0.08404899389
4.653317451 -1.343111157 0.08383956552
5.522219658 -1.595995069 0.2990487814
5.508677006 -1.593122959 0.4979825318
5.505396366 -1.594256878 0.6986116767
5.487781525 -1.591232419 0.8982983232
5.476952553 -1.589128852 1.100267529
5.47957468 -1.591963291 1.307412148
5.454501152 -1.586743712 1.510520101
2.68965745 -0.7860013247 -0.7392392755
3.039486885 -0.8893840909 -0.7211896777
2.904957771 -0.8505699635 -0.5801221728
3.202641487 -0.9389454126 -0.5219169855
5.366186142 -1.575284362 -0.6815499663
5.576508522 -1.638083577 -0.5047807097
5.106508732 -1.501958728 -0.2767536938
5.547554493 -1.633786201 -0.1002448276
4.642843246 -1.357662201 0.08373485506
5.520448208 -1.616384029 0.2992581427
5.506906986 -1.613462687 0.4983311594
5.49217844 -1.611229539 0.6976367235
5.49546051 -1.614275813 0.9004884362
5.471372128 -1.608237147 1.100267529
5.4795928 -1.612731814 1.308761835
5.456341267 -1.607958436 1.512590528
2.692454576 -0.7970302105 -0.7407921553
3.023285151 -0.8961119056 -0.7180404067
2.913264036 -0.8640545011 -0.5824118257
3.195557117 -0.9489943385 -0.5212911963
5.314988136 -1.580427408 -0.6757002473
5.574286461 -1.659648538 -0.5051293373
5.512770176 -1.642380595 -0.2992581427
5.543733597 -1.653712153 -0.1002797335
5.529642105 -1.637954712 0.09996558726
5.510942936 -1.634508491 0.2990487814
5.508881092 -1.63494277 0.4990283549
5.490326881 -1.631521702 0.6981242299
5.493578434 -1.634575367 0.9011141062
5.469488621 -1.628446698 1.101030827
5.472062111 -1.631292582 1.308311939
5.458099842 -1.629204869 1.514661074
2.702467918 -0.8107791543 -0.7444156408
3.027604342 -0.908900857 -0.7198399901
2.889395952 -0.8685097098 -0.5782140493
3.195840597 -0.9618389606 -0.5219169855
5.427286625 -1.634461045 -0.6908119917
5.583720207 -1.68369782 -0.506523788
5.525833607 -1.668347478 -0.3003048599
5.527721882 -1.658395886 0.1000353992
5.493727207 -1.650287628 0.2984207869
5.510483742 -1.657418609 0.4997256696
5.496002674 -1.65410924 0.6995865703
5.4802742 -1.651461959 0.8998626471
5.474760532 -1.651884913 1.103320479
5.467912197 -1.651901126 1.308761835
5.459776402 -1.650483489 1.516731739
2.681137085 -0.8145917058 -0.7392392755
3.041032314 -0.9250959754 -0.7238891125
2.891981125 -0.8803053498 -0.5793588758
3.188684464 -0.9718366861 -0.5212911963
5.447841167 -1.662453413 -0.6942243576
5.566375732 -1.699687123 -0.5054779649
5.540986061 -1.694049239 -0.3014562428
5.451740265 -1.667804837 -0.0988137275
5.521606445 -1.678645015 0.1000353992
5.476468563 -1.665966749 0.2977927327
5.498947144 -1.674902201 0.4992026985
5.48990345 -1.674241662 0.6995865703
5.472586632 -1.670004725 0.8995497823
5.472715855 -1.67213285 1.104083657
5.467702866 -1.672688007 1.310111523
5.450287342 -1.668400645 1.515696406
2.676430702 -0.8233776093 -0.7387216091
3.043535471 -0.9368951917 -0.7252388
2.902024269 -0.8944427371 -0.5820302367
3.187332153 -0.9829876423 -0.5216041207
5.432814598 -1.677581549 -0.693005681
5.535663128 -1.71463263 -0.1004542559
5.516009331 -1.696946025 0.1000353992
5.508794785 -1.696831703 0.299886167
5.489259243 -1.69291234 0.4988540709
5.491909027 -1.694779277 0.700561583
5.476160526 -1.692013264 0.9011141062
5.463389874 -1.689112067 1.103320479
5.463987827 -1.6913867 1.310561538
5.446275711 -1.687987447 1.516214013
2.677374601 -0.8333966732 -0.7397568822
3.02536273 -0.9428747892 -0.7216396332
2.88779664 -0.9005544782 -0.5797405243
3.144283533 -0.9817438126 -0.5150338411
5.556578636 -1.738131523 -0.5056522489
5.536951065 -1.734113932 -0.3018749356
5.535671234 -1.734773993 -0.1005589664
5.508857727 -1.716872931 0.3002001941
5.495026588 -1.714667082 0.4998999536
5.474590778 -1.710387707 0.6990991235
5.481832027 -1.713699818 0.9029913545
5.453713417 -1.70699954 1.102557302
5.461769581 -1.711614609 1.311461329
5.442491531 -1.70661664 1.516731739
2.676291943 -0.8433180451 -0.7402745485
3.012926579 -0.9499720931 -0.7193900943
2.893996477 -0.9135844111 -0.5816486478
3.144778013 -0.9933552146 -0.5156595707
3.36012578 -1.062668085 -0.4275742173
5.521957874 -1.751668215 -0.10041935
5.477629662 -1.726039052 0.09954673052
5.483784199 -1.730082989 0.299153477
5.492807388 -1.735037804 0.500248611
5.472673893 -1.729728937 0.6995865703
5.477700233 -1.73342073 0.9033042789
5.459252357 -1.728631139 1.104846954
5.456063747 -1.729717135 1.311461329
5.44386673 -1.727941871 1.518802285
2.695417643 -0.8596992493 -0.746486187
3.016849995 -0.9633798003 -0.7211896777
2.879569054 -0.9200953245 -0.5793588758
3.165574789 -1.012699366 -0.5197268724
3.341084242 -1.070132375 -0.425624311
5.509367466 -1.75826323 0.1002448276
5.483114243 -1.751994014 0.299467504
5.490512848 -1.755414486 0.5005972385
5.473860264 -1.75219655 0.700561583
5.478834629 -1.755897403 0.904555738
5.454749107 -1.74922812 1.105228543
5.447831631 -1.749107361 1.311011434
5.448531628 -1.751430273 1.521908164
2.677541971 -0.8648225069 -0.7423450947
3.024594784 -0.9775004387 -0.7238891125
2.891120672 -0.9354785085 -0.5824118257
3.165600538 -1.025512576 -0.5203526616
3.33543992 -1.081176281 -0.4253805578
5.196642876 -1.686486363 -0.4742761552
5.157269478 -1.6756984 -0.2819872797
5.201203823 -1.690977216 -0.09476476908
5.48214674 -1.774912715 0.5004229546
5.439383507 -1.762116194 0.6969054937
5.455760956 -1.769526482 0.9017398953
5.46323967 -1.77406013 1.108281612
5.448797226 -1.771472931 1.312811017
5.442385197 -1.770438671 1.521908164
2.672670841 -0.8735634685 -0.7418274879
3.03025198 -0.991609931 -0.7261386514
2.899032354 -0.9492302537 -0.5847015977
3.141353369 -1.02978766 -0.5169110894
3.34277153 -1.097108245 -0.4268430173
5.482235432 -1.800346971 -0.5011201501
5.491012096 -1.805352807 -0.3007235527
5.366229057 -1.76536417 -0.09790620208
5.145026684 -1.682647824 0.09378743172
5.121478558 -1.675935984 0.2802078426
5.229177475 -1.715221524 0.6705816984
5.458935261 -1.791640043 0.9033042789
5.451418877 -1.791281104 1.107136726
5.444431782 -1.791091084 1.313260913
5.432501793 -1.788217068 1.520872831
2.665936708 -0.8816742301 -0.7407921553
3.015846729 -0.9979798198 -0.7234392166
2.880792379 -0.9544045329 -0.5816486478
3.121045828 -1.034605026 -0.5140952468
3.335346937 -1.106936574 -0.4263555408
5.553438663 -1.84523046 -0.5082669258
5.522900581 -1.836153865 -0.302816987
5.515616417 -1.835870624 -0.1007683948
5.317883492 -1.758721709 0.0970684886
5.136453152 -1.700708866 0.2813592255
5.121643543 -1.697789311 0.468349576
5.14432621 -1.706304908 0.6603446603
5.132071972 -1.704228997 0.8498036861
5.426226616 -1.807169437 1.520872831
2.67582345 -0.8947987556 -0.7444156408
3.010496616 -1.007882357 -0.7229892612
2.903673649 -0.9726827145 -0.5869912505
3.117415428 -1.045493007 -0.5140952468
3.33334446 -1.119204283 -0.4265992641
5.516457558 -1.855421305 -0.302816987
5.526555061 -1.859891534 -0.101082541
5.497555256 -1.839456081 0.1004891619
5.238739491 -1.753874421 0.2873255312
5.471135616 -1.833802342 0.5011201501
5.283249855 -1.772878885 0.6791125536
5.424211979 -1.823341489 1.104083657
5.201244354 -1.750412226 1.257023096
5.436681747 -1.830701828 1.52553153
2.676343441 -0.905371666 -0.7454509139
3.008983612 -1.018484712 -0.7234392166
2.918854713 -0.9891135097 -0.5908074975
3.098965168 -1.050750613 -0.5115923285
3.344652653 -1.135356665 -0.4285491705
5.506794453 -1.871448755 -0.5051293373
5.508382797 -1.87306118 -0.3027123213
5.508671284 -1.875304699 -0.1008731127
5.508473873 -1.863443971 0.1008033082
5.472833157 -1.85351634 0.3006188869
5.476023197 -1.8567276 0.5021660328
5.45404768 -1.850338221 0.702023983
5.464512348 -1.856015801 0.9073715806
5.446018696 -1.850794554 1.109807968
4.885471344 -1.662198544 1.181439519
5.43940115 -1.852782607 1.528119683
2.662358999 -0.9104909301 -0.7423450947
3.020159721 -1.034031749 -0.7270384431
2.904414892 -0.9949699044 -0.5885177255
3.09154129 -1.060280085 -0.5109665394
3.333159447 -1.144446135 -0.4275742173
5.534143448 -1.902317762 -0.5082669258
5.533918858 -1.903320551 -0.3044917285
5.502091885 -1.89452219 -0.1008731127
5.485224724 -1.879081845 0.3016656041
5.473605156 -1.876168609 0.5025146604
5.471964836 -1.877741098 0.7051925659
5.454263687 -1.873795271 0.9067457914
5.458090782 -1.876175284 1.113624215
4.920177937 -1.69319272 1.191337466
5.425594807 -1.869241476 1.526049137
2.669957638 -0.9240338206 -0.7454509139
3.00548315 -1.040741801 -0.7243390083
2.897038698 -1.00432229 -0.5877545476
3.057775736 -1.061241031 -0.5059606433
5.534996986 -1.924240947 -0.5089641809
5.496725082 -1.913086534 -0.302816987
5.508665085 -1.918319941 -0.101117447
5.484293938 -1.900178909 0.3019796014
5.459162235 -1.893606186 0.5018174052
5.472878456 -1.89943409 0.7061675787
5.45888567 -1.896713138 0.9086230397
5.430780888 -1.889072776 1.109426379
5.040923595 -1.755435109 1.222380638
5.419036865 -1.888168931 1.526049137
2.66671586 -0.9333481193 -0.7454509139
3.001648188 -1.051750541 -0.7243390083
2.971328497 -1.041708827 -0.603782475
3.042869091 -1.067983031 -0.5040834546
3.133854389 -1.101145625 -0.4027128816
5.537644386 -1.946853757 -0.5098357201
5.49566555 -1.93425107 -0.3031309843
3.000841618 -1.050879717 0.05479875952
5.477627277 -1.919311285 0.3019796014
5.461919785 -1.915948272 0.5026890039
5.456515312 -1.916191816 0.7049488425
5.455958366 -1.917065859 0.9092487097
5.427857876 -1.909320951 1.110189557
5.435469627 -1.914131045 1.320459366
5.421523094 -1.910283327 1.528637409
2.66708374 -0.9439401031 -0.746486187
2.976100683 -1.053892493 -0.7189401984
2.930665731 -1.038954616 -0.5961501002
3.031863928 -1.075426102 -0.5028319359
3.141409636 -1.115517497 -0.4041753113
5.517673969 -1.961500525 -0.5086155534
5.508038998 -1.959158182 -0.3041777015
5.474415779 -1.949351907 -0.1007334962
2.993569851 -1.0594908 0.05472895131
5.469011784 -1.937752962 0.3018749356
5.468342781 -1.939664483 0.5039091706
5.442647934 -1.931620002 0.703973949
5.449233532 -1.936099052 0.9092487097
5.434444904 -1.931913137 1.112860918
5.441943645 -1.936718822 1.323608637
5.411182404 -1.927899599 1.527602077
2.678491354 -0.9579840302 -0.7506272793
2.950387716 -1.056391597 -0.7135413885
2.960472345 -1.060585499 -0.6030192375
3.028091192 -1.086002707 -0.5028319359
3.055290461 -1.096961379 -0.3934507966
5.518639088 -1.982481241 -0.5093128085
5.499563217 -1.979964495 -0.1013268754
2.997384787 -1.072628856 0.05486857146
3.038581133 -1.088567972 0.1669528484
5.465631485 -1.959131956 0.5042577386
5.452688217 -1.956640601 0.7061675787
5.436864853 -1.953105211 0.9083101153
5.425820827 -1.950206995 1.112479329
5.42414856 -1.95174408 1.320909262
5.418960571 -1.952014208 1.531743288
2.653330326 -0.9594447017 -0.7444156408
2.957676172 -1.070663929 -0.7162407637
2.975211382 -1.07759881 -0.6068354249
3.014997005 -1.093199492 -0.501267612
2.986133814 -1.083913565 -0.3849199414
3.004128456 -1.091038704 -0.275909692
5.451277733 -1.984102845 -0.1005589664
3.00302434 -1.086486816 0.05504309386
2.967159271 -1.074682474 0.1631846577
5.428788662 -1.967337728 0.5014687777
5.455155373 -1.979046941 0.7073862553
5.444868088 -1.977465987 0.9108130932
5.426361084 -1.971816778 1.114005804
5.422796249 -1.972664714 1.322258949
5.40485239 -1.968273878 1.529672623
2.653593779 -0.9700272679 -0.7454509139
2.942940712 -1.076963425 -0.7135413885
2.960370302 -1.083927393 -0.6045457125
3.001888752 -1.100317836 -0.4997031987
3.010286093 -1.104587913 -0.3885760307
2.993579388 -1.094902039 0.05493837968
2.959639072 -1.083659649 0.1629753113
5.448079586 -1.99587059 0.5039091706
5.455668449 -2.0008111 0.7083612084
5.432369232 -1.994418025 0.9098744988
5.415759563 -1.989392638 1.113242626
5.425022602 -1.994944572 1.324508429
5.403388023 -1.989130259 1.531225562
2.653815508 -0.9806232452 -0.746486187
2.935508013 -1.085877299 -0.7126415372
3.006280899 -1.112653613 -0.6148493886
3.001734495 -1.112162471 -0.5003290176
3.058525324 -1.13441813 -0.3954007328
2.976609945 -1.100490808 0.05469404906
5.448553085 -2.017643213 0.5046063662
5.448651314 -2.019842625 0.7083612084
5.434634209 -2.016804457 0.9114388824
5.401420116 -2.005551577 1.111716151
5.430812359 -2.01862216 1.3276577
5.401843071 -2.010000706 1.532778502
2.653995991 -0.9912326932 -0.7475214601
2.935350657 -1.097482562 -0.7135413885
2.971119165 -1.111446977 -0.6083618999
2.981184721 -1.116398692 -0.4975131452
3.034100294 -1.137422442 -0.3927195966
2.966868162 -1.115172505 -0.05462423339
2.985862732 -1.115774393 0.05493837968
5.452672482 -2.040840387 0.5056522489
5.434132099 -2.036063671 0.7073862553
5.447906494 -2.04339385 0.9148803949
5.405415058 -2.028532505 1.114005804
5.409139156 -2.032084227 1.324058533
5.398410797 -2.030204535 1.533813834
2.661188841 -1.005048633 -0.7506272793
2.929678679 -1.107033253 -0.713091433
2.970698118 -1.123718381 -0.6091251373
2.997394085 -1.135012746 -0.5009547472
3.017117262 -1.143083572 -0.3910134137
2.96046114 -1.12280035 -0.2732950151
2.980179548 -1.131468773 -0.1648593992
2.977912426 -1.131202817 -0.05490347371
2.985690832 -1.127603054 0.05500818789
5.452609539 -2.063632727 0.506349504
5.434417248 -2.057831764 0.7083612084
5.422269344 -2.055396318 0.9117516875
5.401615143 -2.049723625 1.114769101
5.405297756 -2.053280115 1.324958324
5.400320053 -2.052467823 1.536401868
2.637810707 -1.006754398 -0.7449332476
2.91467905 -1.113590479 -0.7103919983
2.926413059 -1.118659019 -0.6007295251
2.991568804 -1.144762754 -0.5006418824
5.043088913 -1.930812716 -0.6579072475
2.937919617 -1.125996947 -0.2715519071
2.976211786 -1.141864657 -0.1648593992
2.973945618 -1.141590834 -0.05490347371
5.469880104 -2.088744164 0.1015014052
5.451753139 -2.082912207 0.3036543727
5.407682896 -2.071484566 0.9105002284
5.401759624 -2.071378231 1.116295457
5.409376144 -2.075381756 1.3276577
5.391319275 -2.070613146 1.53588438
2.634457588 -1.015496254 -0.7449332476
2.925514936 -1.128862262 -0.7139912248
2.924518824 -1.129064202 -0.6011111736
3.002496719 -1.160373569 -0.5031448007
5.05147028 -1.953252912 -0.6598572135
2.963898182 -1.1472404 -0.2743408978
2.9016397 -1.124306679 -0.1608818769
2.968279362 -1.150723696 -0.05486857146
5.472252369 -2.110469341 0.1016759202
5.433635712 -2.096665382 0.3030263186
4.886445522 -1.887482166 0.4545789659
4.920013905 -1.902422547 0.6425517201
5.426576138 -2.099383831 0.9148803949
5.394861221 -2.08927989 1.116295457
5.409732342 -2.096124649 1.329457402
5.382622242 -2.087781429 1.535366774
2.64727807 -1.030534029 -0.7495920658
2.925387144 -1.139972448 -0.7148910761
2.920758486 -1.138756037 -0.6011111736
3.01151371 -1.175351262 -0.5053349137
5.024282455 -1.962927818 -0.657176137
2.934098244 -1.146907806 -0.2719005346
2.968573332 -1.161578298 -0.1648593992
3.023826838 -1.184415936 -0.05598552525
5.452179909 -2.123523951 0.1014315933
5.448613644 -2.124325752 0.304282397
4.893152714 -1.908744216 0.4557991624
4.908130646 -1.916561365 0.64182055
5.422894478 -2.11975193 0.9155060649
5.384246349 -2.105728149 1.115532279
5.411455631 -2.11854744 1.331706882
5.38429451 -2.11008215 1.537954807
2.643664598 -1.039768457 -0.7495920658
2.961281538 -1.165882945 -0.7247889042
3.0404706 -1.198899388 -0.5109665394
4.651801586 -1.836145878 -0.6089158058
2.926370859 -1.155679107 -0.2715519071
2.886489868 -1.141094208 -0.1604631841
5.488955498 -2.172122955 -0.1023391187
5.457760334 -2.147668362 0.1016759202
5.450456619 -2.14699173 0.3048057556
4.912410736 -1.936040521 0.4582394958
4.916183949 -1.939510345 0.6437704563
5.409950733 -2.136491776 0.9145675302
5.382340431 -2.126673698 1.116677046
5.402215958 -2.136707544 1.331256986
5.384080887 -2.131708384 1.540025353
2.638223648 -1.048276901 -0.7490743995
2.978923082 -1.184855223 -0.7301877141
2.896320581 -1.152585864 -0.5976766348
3.074805021 -1.224856853 -0.517536819
2.886282444 -1.150926113 -0.3763890862
2.907514572 -1.159980536 -0.2701574266
2.960391521 -1.18227458 -0.1648593992
5.457662582 -2.169661283 0.1018155366
5.42993927 -2.160835266 0.3040730357
4.927835464 -1.962020278 0.4603312612
4.93888855 -1.96841836 0.647670269
5.420807362 -2.162682772 0.9176962376
5.405881405 -2.157821894 1.123164654
5.389295101 -2.153382301 1.329907298
5.389163494 -2.155511618 1.543648958
2.630963087 -1.056040406 -0.7480391264
2.971152544 -1.193793297 -0.7292879224
2.899565697 -1.165617943 -0.5992030501
4.034441948 -1.623471379 -0.6821058989
2.900660753 -1.168411016 -0.3788264692
2.92562294 -1.179059625 -0.2722491622
3.026630878 -1.220995188 -0.1688369364
3.176283598 -1.282657027 -0.05909205228
5.43348217 -2.184245825 0.3047010899
4.932047844 -1.983670473 0.4613771439
4.939352512 -1.988611937 0.6486452222
5.400399208 -2.176422834 0.9155060649
5.394675255 -2.175210238 1.122401357
5.385359764 -2.173640251 1.33080709
5.370859146 -2.169968128 1.540543079
2.609357595 -1.057958961 -0.742862761
2.966967344 -1.204157352 -0.7292879224
3.333861351 -1.353740692 -0.691173017
4.043390274 -1.643494964 -0.6846088171
5.044193268 -2.052337646 -0.6635132432
2.87720108 -1.171236038 -0.2680656612
2.911374569 -1.186332107 -0.1625566334
3.134754896 -1.278631568 -0.05839395523
4.597397804 -1.864940643 0.0858989507
5.436927795 -2.207707644 0.3053291142
4.925093174 -2.000874281 0.4613771439
4.954447269 -2.014814854 0.6515701413
5.392769337 -2.195260525 0.9155060649
5.397958279 -2.198471308 1.124691129
5.397589684 -2.200518131 1.335756063
5.365040302 -2.189432383 1.541060686
2.61995101 -1.072917938 -0.7470038533
2.959139824 -1.213028312 -0.7283881307
3.418119907 -1.401873112 -0.7098722458
4.008390427 -1.645595551 -0.679602921
5.042506218 -2.072196245 -0.664244473
2.90994978 -1.196424961 -0.2715519071
2.970012188 -1.222331643 -0.1661154628
4.594560623 -1.882493258 0.08596875519
5.432883739 -2.228187799 0.3055384457
4.943884373 -2.028642893 0.4638174772
4.963910103 -2.038884878 0.6537637115
5.397862911 -2.219329834 0.9176962376
5.388435841 -2.216553211 1.12430954
5.395280838 -2.221571445 1.337105632
5.366296291 -2.211827755 1.543648958
2.62671113 -1.086945295 -0.7501096129
2.947472095 -1.220883012 -0.7265884876
3.40933156 -1.412888646 -0.7091090083
4.020578861 -1.667845011 -0.6827316284
5.027544498 -2.087619066 -0.6632695198
2.93498373 -1.219312429 -0.2743408978
2.862239122 -1.190263033 -0.1602538377
3.081441402 -1.282049417 -0.05755623803
5.437531471 -2.251187325 0.1020249724
4.945618153 -2.050564528 0.4646890163
4.949069977 -2.054020882 0.6527887583
5.401028633 -2.242703199 0.9195733666
5.371211529 -2.232520342 1.122401357
5.383503914 -2.239834309 1.336205959
5.367459774 -2.234257936 1.546237111
2.622900963 -1.096107602 -0.7501096129
2.941609859 -1.22989881 -0.7261386514
3.41162324 -1.427812576 -0.7106355429
4.025958061 -1.685746193 -0.6846088171
5.007778645 -2.098908186 -0.6615633965
2.891425133 -1.213662028 -0.1621379405
3.065886259 -1.288150311 -0.05734681338
5.439261913 -2.273061991 0.1021994948
4.881014824 -2.041772604 0.2750789225
4.975185871 -2.083206177 0.4681752324
4.966033459 -2.080392599 0.6559574008
5.405919552 -2.266890049 0.9217635393
5.385503292 -2.259434223 1.126980901
5.367063522 -2.253901482 1.333956361
5.370313644 -2.257472038 1.549342871
2.622811794 -1.10630095 -0.7511449456
2.953456163 -1.246981263 -0.7301877141
3.385167122 -1.429950595 -0.7060560584
4.012772083 -1.696712136 -0.683357358
2.934982538 -1.244012952 -0.1648593992
3.061597824 -1.298310041 -0.05734681338
5.440505505 -2.295922041 0.1023740172
4.857657433 -2.050955772 0.2741368711
4.968250275 -2.09969306 0.4681752324
4.993477821 -2.112409592 0.6605884433
5.383819103 -2.278644562 0.9192605615
5.381198883 -2.279750824 1.127744079
5.371721268 -2.277947664 1.337105632
5.357462883 -2.273004532 1.547790051
2.601160288 -1.107879519 -0.7459685206
2.967232227 -1.264407873 -0.7346867323
3.387378454 -1.444839358 -0.707582593
4.012574196 -1.712335587 -0.6842960119
4.730500698 -2.020657539 -0.6264650226
3.086459398 -1.321583152 -0.05790529028
5.425503254 -2.310816288 0.1022344008
4.850468159 -2.067899704 0.2741368711
4.957226276 -2.115458727 0.4678266346
4.984619141 -2.128176928 0.6603446603
5.383098125 -2.300529003 0.9205120206
5.380829811 -2.300670385 1.129270554
5.378470898 -2.301882744 1.340704918
5.351271629 -2.292452097 1.548307657
2.611670971 -1.122602463 -0.7501096129
2.944899797 -1.267055631 -0.7301877141
3.396994829 -1.462274313 -0.7106355429
3.999315262 -1.723204732 -0.6830444336
4.716127396 -2.034013271 -0.6254900694
2.948449612 -1.273464799 -0.1661154628
3.085498571 -1.333935857 -0.05797509849
5.424752235 -2.332900763 0.1023740172
4.854227543 -2.089556217 0.2747649252
4.973972321 -2.142130852 0.470092684
4.978983879 -2.146349669 0.6605884433
5.378662586 -2.320870876 0.9211377501
5.361951351 -2.31477046 1.126980901
5.379346848 -2.32450819 1.342954397
5.355648518 -2.316486359 1.551931024
2.607736588 -1.13171196 -0.7501096129
2.944033623 -1.278880477 -0.7310875058
3.395470858 -1.4756881 -0.7113987803
3.998709917 -1.739518523 -0.6839830875
4.708998203 -2.0504632 -0.6254900694
3.047834158 -1.330299377 -0.05734681338
5.423913002 -2.355008125 0.1025136411
4.821259975 -2.095342875 0.2732995152
4.973773479 -2.162658215 0.4707899392
4.973280907 -2.164508343 0.6608321667
5.386827469 -2.34673214 0.9239535928
5.371836185 -2.341316938 1.130797029
5.367628098 -2.341712952 1.342054605
5.358152866 -2.339805841 1.555036902
2.603770018 -1.140807867 -0.7501096129
2.939551592 -1.289149284 -0.7310875058
3.38670373 -1.485953927 -0.7106355429
4.007082939 -1.75982058 -0.6864860654
4.968948841 -2.184319973 -0.6613196731
5.075922489 -2.232401848 -0.4814229608
2.778625488 -1.223203301 -0.1569043398
3.065131187 -1.350605845 -0.05776567012
5.421153545 -2.376335144 0.1026183516
4.791968822 -2.102529764 0.2720434368
4.980788231 -2.18641305 0.4721844196
4.963878155 -2.181056976 0.6605884433
5.385836124 -2.368702412 0.9252050519
5.369021416 -2.362426281 1.131941915
5.355854511 -2.358864069 1.341154814
5.357022762 -2.361611843 1.557107449
2.596238613 -1.148326755 -0.7490743995
2.94216156 -1.302557945 -0.7328871489
3.381495953 -1.497766733 -0.7106355429
3.993692636 -1.770594716 -0.6852346063
4.955850601 -2.199235916 -0.6605884433
5.06445694 -2.248489618 -0.4810743034
2.78346467 -1.236950517 -0.1574276984
3.053089619 -1.358046174 -0.05762604997
5.420140743 -2.398480892 0.1027579755
4.810166359 -2.130567789 0.2735088468
4.962197304 -2.198943138 0.4711385667
4.974380016 -2.206419706 0.6630257964
5.375729084 -2.386686563 0.9248922467
5.367919445 -2.384340763 1.13346839
5.351149082 -2.379128695 1.342054605
5.346982002 -2.379511595 1.556589842
2.592214346 -1.15738225 -0.7490743995
2.935817719 -1.312024951 -0.732437253
3.372662783 -1.507958651 -0.7098722458
4.007320881 -1.793400764 -0.6886761189
4.886548042 -2.188929796 -0.6523013115
5.077997684 -2.276818275 -0.4831660688
5.4153862 -2.419017315 0.1028277799
4.886572361 -2.184845924 0.2783237398
4.983590603 -2.229267836 0.4739275575
5.031872272 -2.252973557 0.6718004346
5.376378536 -2.409476042 0.926456511
5.363146782 -2.404670238 1.134231567
5.35703516 -2.404176474 1.345653772
5.343929768 -2.400536299 1.558142781
2.591477156 -1.168463588 -0.7501096129
2.945430994 -1.328675389 -0.7360364199
3.381427765 -1.526773095 -0.7129251957
3.984519958 -1.800754428 -0.6858602762
4.860789299 -2.197795153 -0.6498638988
5.26061058 -2.380785465 -0.5014687777
5.432543278 -2.460881948 -0.3103533685
5.395971775 -2.432973862 0.1026183516
4.860711575 -2.193673849 0.2772770226
4.97538662 -2.247518539 0.4739275575
5.034831047 -2.275429487 0.6732628345
5.371534824 -2.429857016 0.9270823002
5.357873917 -2.425930738 1.134994745
5.358837128 -2.428621292 1.348353267
5.339036942 -2.420771122 1.559178114
2.590899467 -1.179102898 -0.7511449456
2.919260263 -1.3297683 -0.73063761
3.393942356 -1.546708584 -0.7167413831
3.981804371 -1.816291571 -0.6864860654
4.852701187 -2.215595961 -0.6498638988
5.429870605 -2.480259418 -0.51855129
5.4275527 -2.481491089 -0.3105627
5.406369686 -2.472946882 -0.1030721143
5.403398037 -2.46019268 0.1029324979
4.802132607 -2.187445641 0.2743462324
4.978387356 -2.269831419 0.4749733806
5.069799423 -2.31364727 0.6791125536
5.379192352 -2.455975771 0.9298980832
5.349373341 -2.444618464 1.134994745
5.350327492 -2.447312355 1.348353267
5.334067345 -2.4410007 1.560213327
2.593790054 -1.191365004 -0.7532154918
2.920146704 -1.341882706 -0.7319873571
3.370686531 -1.55034256 -0.7129251957
3.982937574 -1.832788825 -0.6877375245
4.852540016 -2.234997988 -0.6508389115
5.45736742 -2.515880823 -0.5220375061
5.424735546 -2.501985312 -0.3108767271
5.412229538 -2.498508692 -0.1033513546
5.404295921 -2.482270718 0.1031070277
4.816243172 -2.21420598 0.2756022811
4.981294155 -2.292192698 0.4760192633
5.36341095 -2.471431255 0.9286466241
5.355500698 -2.468919754 1.138047814
5.340412617 -2.464224577 1.347903371
5.344806671 -2.468515396 1.565907359
2.586319208 -1.19833529 -0.7521802187
2.922516346 -1.355347157 -0.7337869406
3.361964941 -1.559859037 -0.7121619582
3.983681917 -1.850008845 -0.6889889836
4.833908081 -2.246902704 -0.649376452
5.436348438 -2.528083324 -0.5208173394
5.425022125 -2.525119781 -0.3114000857
5.457853794 -2.542719841 -0.1043985039
5.410111904 -2.507848024 0.1033862606
4.928060532 -2.286484241 0.2825106084
5.004387379 -2.322959185 0.4789825678
5.356542587 -2.49097085 0.9289595485
5.361090183 -2.494223833 1.141100645
5.345911026 -2.489432096 1.351502538
5.330904484 -2.484708786 1.56435442
2.562870264 -1.198355079 -0.746486187
2.937182665 -1.374626875 -0.7387358546
3.36361146 -1.574914932 -0.7136884332
3.977200031 -1.863903046 -0.6889889836
4.8260355 -2.263762236 -0.649376452
5.432901382 -2.549583912 -0.5213403106
5.428829193 -2.549985409 -0.3121328056
5.403703213 -2.540485859 -0.103525877
5.090076447 -2.3832829 0.2923497856
4.987226963 -2.336188078 0.4781110287
5.353178978 -2.51217103 0.9298980832
5.3452425 -2.509585142 1.139574289
5.34424305 -2.511392832 1.353302121
5.325694561 -2.504946232 1.565389633
2.58313179 -1.218835115 -0.7537331581
2.893599749 -1.366562724 -0.7288380265
3.358093262 -1.586646438 -0.7136884332
3.952811956 -1.869329691 -0.6858602762
4.836046219 -2.289087534 -0.6518138647
5.422168255 -2.567679882 -0.521165967
5.412675858 -2.565498114 -0.311714083
4.514941692 -2.141920805 -0.08652723581
4.524470329 -2.13580966 0.08663194627
5.287591934 -2.498304129 0.304282397
5.007862568 -2.367205858 0.4809000194
5.355089188 -2.535914421 0.9317752719
5.331127167 -2.52570653 1.138429403
5.349530697 -2.53671217 1.356901407
5.323899746 -2.526834965 1.567460299
2.573628664 -1.225353122 -0.7521802187
2.899367332 -1.381685138 -0.7315374017
3.370256424 -1.606807828 -0.7175046802
3.971221924 -1.895026565 -0.6902404428
4.82086134 -2.302531958 -0.6508389115
5.431149006 -2.59518075 -0.5229091048
5.409092903 -2.586961508 -0.31202811
4.538100243 -2.172345877 -0.08712061495
4.524208546 -2.155029535 0.08677157015
5.356361389 -2.553705931 0.3087832928
5.001367092 -2.385529995 0.4810743034
5.387351036 -2.571943283 0.7278603315
5.358681202 -2.560553312 0.933965385
5.334677696 -2.550227404 1.141100645
5.335370064 -2.552846909 1.35555172
5.327243328 -2.551244259 1.571083784
2.586749077 -1.242694736 -0.7573565841
2.903307915 -1.396019697 -0.7337869406
3.354012012 -1.613455892 -0.7152149081
3.957463503 -1.905449152 -0.6889889836
4.812794685 -2.319345951 -0.6508389115
5.441799164 -2.623641491 -0.5248265266
5.405426025 -2.608431339 -0.3123421371
4.505660057 -2.17521143 -0.08663194627
4.513054371 -2.16907692 0.08670176566
5.382063866 -2.587898731 0.3107720613
5.001986027 -2.40729332 0.4819458425
5.33899498 -2.571780443 0.7224980593
5.351940155 -2.579167128 0.9342783093
5.336352348 -2.573950768 1.143390417
5.328181267 -2.572302341 1.356001616
5.332670689 -2.575617552 1.575224757
2.568488359 -1.244975686 -0.7532154918
2.909183264 -1.410741568 -0.7364863753
3.344826937 -1.623439312 -0.7144517303
3.965338945 -1.925465107 -0.6914919615
4.780081272 -2.323144913 -0.6474265456
5.430816174 -2.641749382 -0.5246521831
5.409317493 -2.632459641 -0.3130748272
4.505230427 -2.194428444 -0.08677157015
4.518432617 -2.190136194 0.08694609255
5.369402885 -2.604926348 0.3105627
4.993552685 -2.424738646 0.4819458425
5.357221127 -2.602482319 0.7261541486
5.337574959 -2.595241785 0.9333396554
5.345442772 -2.600220442 1.147206545
5.324878693 -2.592516422 1.357351303
5.314963818 -2.589984894 1.572636724
2.557403326 -1.250092745 -0.7511449456
2.904241085 -1.420888066 -0.7364863753
3.346478462 -1.63797462 -0.7159781456
3.958593845 -1.939294934 -0.6914919615
4.786201954 -2.346808195 -0.649376452
5.393405437 -2.645704508 -0.5218632221
5.409060478 -2.65572691 -0.3135981858
4.497928619 -2.209356308 -0.08677157015
4.503574848 -2.202381134 0.08680647612
5.371500015 -2.627984047 0.3111907542
5.003378391 -2.450047016 0.4836890101
5.36592865 -2.629902601 0.7285915613
5.336034298 -2.616406202 0.9345911145
5.332808495 -2.617133856 1.146443367
5.326291084 -2.616242886 1.360050678
5.311547756 -2.610151768 1.574189425
2.553024054 -1.259012222 -0.7511449456
2.904756308 -1.433097601 -0.7378360629
3.347781897 -1.653122902 -0.7175046802
3.945056915 -1.948911667 -0.6902404428
4.46876812 -2.209573269 -0.6069658995
4.493772984 -2.226819277 -0.08684138209
4.496246815 -2.217303514 0.08680647612
5.313937664 -2.62285018 0.3083645999
5.151990414 -2.545153379 0.4990283549
5.350059509 -2.644163847 0.7276165485
5.344574451 -2.643774986 0.9377198219
5.324100018 -2.634803772 1.146443367
5.328063965 -2.639081001 1.362750173
5.312788963 -2.633825064 1.577295303
2.552294493 -1.269191623 -0.7521802187
2.880545616 -1.433676958 -0.7328871489
3.349311352 -1.667715788 -0.7190310955
3.94530201 -1.966195107 -0.6914919615
4.596032143 -2.292498827 -0.6254900694
4.724383831 -2.359610558 -0.2745555639
4.507436752 -2.253221512 -0.08726023883
4.483108521 -2.230312586 0.08670176566
5.202840328 -2.59063983 0.3023982942
5.343258858 -2.661722183 0.51855129
5.34257412 -2.663709164 0.7278603315
5.345918655 -2.667706966 0.9395970702
5.325409889 -2.658633471 1.14873302
5.324048996 -2.660276175 1.36409986
5.310473919 -2.655810356 1.579365849
2.561662674 -1.285022616 -0.7563213706
2.882489681 -1.447220683 -0.7346867323
3.339960814 -1.677634597 -0.718267858
3.949003458 -1.985278249 -0.6933691502
4.751142502 -2.390614748 -0.6479139924
5.426383495 -2.73156023 -0.5277898312
5.392128468 -2.716676474 -0.3142262399
4.5031147 -2.270742416 -0.08733004332
4.489593506 -2.253123283 0.08698099852
5.149146557 -2.586373568 0.2997815013
4.851486206 -2.437922001 0.4713128805
5.338338852 -2.687239647 0.9399098754
5.324864388 -2.681622028 1.150641203
5.311249733 -2.677090406 1.363200068
5.3115201 -2.67955184 1.582471728
2.550266504 -1.290467858 -0.7542507648
2.891328335 -1.464317441 -0.7382859588
3.330581665 -1.687508345 -0.7175046802
3.963191032 -2.009771824 -0.6971235871
4.771091461 -2.421559811 -0.6518138647
5.415038586 -2.749583006 -0.5276154876
5.389734745 -2.73910141 -0.3146449029
4.488031864 -2.28282094 -0.08719042689
4.481700897 -2.268780947 0.08698099852
5.145431519 -2.60703969 0.3000955284
4.857163429 -2.462048054 0.4727073312
