# .PCD v0.7 - Point Cloud Data file format
VERSION 0.7
FIELDS x y z
SIZE 4 4 4
TYPE F F F
COUNT 1 1 1
WIDTH 1182
HEIGHT 1
VIEWPOINT 0 0 0 1 0 0 0
POINTS 1182
DATA ascii
-1.023002863 -0.3806547821 -0.2420439124
-1.035597682 -0.3851354718 -0.2065181434
-1.036082268 -0.3849040866 -0.1683750153
-1.040923119 -0.3862887323 -0.1311879456
-1.042666435 -0.3867289722 -0.09357988834
-1.039536476 -0.3851550817 -0.05589592829
-1.044593215 -0.3866140246 -0.01874208823
-1.032604814 -0.3844324946 0.018532658
-1.024089217 -0.3808555007 0.05505855754
-1.047999024 -0.389539063 0.09410282224
-1.012941241 -0.3761060834 0.1275318712
-1.004798293 -0.3726835251 0.1630562544
-1.03231883 -0.3826858103 0.205754891
-1.010807276 -0.3743104041 0.2388945967
-1.019173503 -0.3770037591 0.2795766294
-1.030509353 -0.3797664642 -0.2826824486
-1.0334692 -0.3804475367 -0.2442934215
-1.035093427 -0.3808400929 -0.2061365247
-1.048544168 -0.3853737712 -0.1702522188
-1.045992017 -0.3840214312 -0.1316754371
-1.036528349 -0.3803417087 -0.09288264066
-1.055876613 -0.3870231807 -0.0567333065
-1.038425207 -0.3802151382 -0.01860246994
-1.062087297 -0.3911931217 0.01905623265
-1.029161334 -0.37865749 0.05526790023
-1.047482133 -0.3851909637 0.09392850101
-1.027291536 -0.377358973 0.1292380393
-0.9949662089 -0.3650909662 0.161179021
-1.041021228 -0.3817839026 0.207281366
-1.023086548 -0.3748017848 0.2415940166
-1.016854763 -0.3721162677 0.2785413265
-1.028198719 -0.3748435676 -0.2816471457
-1.040284276 -0.3788382411 -0.2456431389
-1.047485471 -0.3812536299 -0.2084262222
-1.05359602 -0.38306126 -0.1708779633
-1.058521271 -0.3844337165 -0.1331378669
-1.045341015 -0.3794401288 -0.09357988834
-1.064731717 -0.3860583603 -0.0571519956
-1.052907109 -0.3813551366 -0.01884680241
-1.05780983 -0.3854295611 0.0189515166
-1.041737556 -0.3791615367 0.05589592829
-1.048820376 -0.381532222 0.09392850101
-1.036065221 -0.3764828146 0.1302129924
-1.009232521 -0.3663333952 0.1633691192
-1.049729705 -0.3808261156 0.2088078409
-1.039046049 -0.376539588 0.245193243
-1.02178061 -0.3698796332 0.2795766294
-1.042222142 -0.3758396208 -0.2852706313
-1.043433785 -0.3758650422 -0.2460930347
-1.056198716 -0.3802549839 -0.2099526972
-1.049350142 -0.3773756921 -0.1699393541
-1.082275152 -0.3887898624 -0.1360627413
-1.061660528 -0.38117522 -0.09497438371
-1.066072822 -0.3823393583 -0.0571519956
-1.063644528 -0.3810495138 -0.01902132668
-1.053504944 -0.3797006011 0.01884680241
-1.050571442 -0.3782290518 0.0563146174
-1.053895354 -0.3792179823 0.09427713603
-1.041109324 -0.3742068708 0.1307004839
-1.027237654 -0.3688161373 0.1661849469
-1.05105269 -0.3771595061 0.2088078409
-1.051360607 -0.37685588 0.247892648
-1.028521895 -0.3682640493 0.281129539
-1.045347214 -0.3728482425 -0.2857882679
-1.044739366 -0.3722204566 -0.2460930347
-1.068616629 -0.3805173039 -0.2122424096
-1.059966803 -0.3770204186 -0.1715036929
-1.083625793 -0.3850096166 -0.1360627413
-1.064862251 -0.3781337142 -0.09514869004
-1.071165681 -0.3799507916 -0.05736133456
-1.076277614 -0.3813414574 -0.01923075691
-1.06235826 -0.3787069619 0.01898642071
-1.055648446 -0.3758995533 0.05652396381
-1.070229173 -0.3808810711 0.0956716314
-1.033057332 -0.3672458231 0.1294817924
-1.034103155 -0.3672111332 0.1671235412
-1.059763551 -0.3761148751 0.2103343159
-1.060016632 -0.375788182 0.2496922314
-1.048011541 -0.3711202145 0.2863059044
-1.063038707 -0.3749810457 -0.2904470265
-1.053384304 -0.3711617887 -0.247892648
-1.073641896 -0.3780892789 -0.2130056471
-1.076184034 -0.378562063 -0.1740066558
-1.081217408 -0.3799085319 -0.1355752498
-1.083094239 -0.3803556859 -0.09671749175
-1.080024004 -0.3788540959 -0.05778002366
-1.077536225 -0.3777702451 -0.01923075691
-1.074989438 -0.3789853454 0.01919585094
-1.049354196 -0.3697417974 0.05610527471
-1.082828522 -0.3811116815 0.09671749175
-1.045569062 -0.3675881028 0.1309442222
-1.04090631 -0.3657443821 0.1680621505
-1.075889826 -0.3776144683 0.2133872658
-1.053965926 -0.3695068061 0.247892648
-1.063821912 -0.3727534115 0.2904470265
-1.057044983 -0.3687228858 -0.2883764505
-1.069330335 -0.3727987111 -0.2514918447
-1.078663349 -0.3756302893 -0.2137688845
-1.0886271 -0.3788870275 -0.1758838594
-1.082471251 -0.3763209581 -0.1355752498
-1.082533121 -0.375919342 -0.09654318541
-1.088821888 -0.3778899014 -0.05819871277
-1.076959014 -0.373351872 -0.01919585094
-1.087568879 -0.3793703616 0.01940527931
-1.058182597 -0.3687054813 0.05652396381
-1.091678977 -0.3799491823 0.09741473943
-1.059906602 -0.3686840236 0.1326503754
-1.04031074 -0.3614603877 0.1677492857
-1.084554434 -0.3766212463 0.2149137408
-1.062550068 -0.3685641885 0.2496922314
-1.068767309 -0.3703028858 0.2914822996
-1.063740373 -0.3671062291 -0.28992939
-1.083521366 -0.3735096455 -0.2546411455
-1.083615184 -0.3733304143 -0.2145321071
-1.08620739 -0.3737993836 -0.1752581298
-1.102551103 -0.3789931238 -0.1380126327
-1.087542295 -0.3736220598 -0.09689180553
-1.105247378 -0.3792730272 -0.05903609097
-1.091497302 -0.3741287887 -0.01944018528
-1.088886619 -0.3755714595 0.01940527931
-1.070793152 -0.3689129055 0.0571519956
-1.085397601 -0.3737322688 0.09671749175
-1.07432735 -0.3695014119 0.1343565583
-1.043434262 -0.3584688306 0.1680621505
-1.085862637 -0.3728328645 0.2149137408
-1.074890018 -0.3686462939 0.2523916364
-1.066398144 -0.3653177023 0.2904470265
-1.070500493 -0.365262121 -0.2914822996
-1.092196822 -0.3722397983 -0.2564407587
-1.096062422 -0.3733434379 -0.2168218344
-1.091245651 -0.371277988 -0.1758838594
-1.111385226 -0.3776973784 -0.1389875859
-1.096386075 -0.3723865747 -0.09758905321
-1.100890279 -0.3734876215 -0.05872207135
-1.111735582 -0.3767342865 -0.01978923194
-1.090190887 -0.3717684746 0.01940527931
-1.090980291 -0.37161237 0.05819871277
-1.098011971 -0.3737939298 0.09776335955
-1.077489972 -0.3663877845 0.1346002966
-1.055901766 -0.3586360812 0.1699393541
-1.083439231 -0.3677780032 0.2141504884
-1.087243557 -0.3686465025 0.2550910413
-1.078645349 -0.3653111756 0.2935528457
-1.080921412 -0.3646106422 -0.2940704823
-1.091642857 -0.3678027987 -0.2559908628
-1.108522415 -0.3732745349 -0.219111532
-1.09627986 -0.3687258065 -0.1765096188
-1.112696886 -0.3738155961 -0.1389875859
-1.109012008 -0.372361958 -0.09863491356
-1.104080796 -0.370277822 -0.05882674083
-1.124420881 -0.3766623735 -0.01999866217
-1.102851391 -0.3717935681 0.01961470768
-1.099842072 -0.3703515828 0.05861740187
-1.11063993 -0.3737717867 0.09880922735
-1.078762293 -0.3626246452 0.1346002966
-1.066510439 -0.3580916226 0.1715036929
-1.095883846 -0.367741257 0.2164402008
-1.092219234 -0.3660874367 0.2559908628
-1.08724153 -0.363997221 0.2956233919
-1.096848965 -0.3657237887 -0.2982115746
-1.104013443 -0.3676845431 -0.2586902678
-1.117269754 -0.3718828857 -0.2206380069
-1.105058074 -0.367389828 -0.1777610928
-1.121530771 -0.3724316955 -0.139962554
-1.121650934 -0.3722539842 -0.09968078882
-1.118637443 -0.3708204329 -0.05955944955
-1.125728726 -0.3727353811 -0.01999866217
-1.115525246 -0.371734798 0.01982413605
-1.093548059 -0.363987118 0.05819871277
-1.130843282 -0.3761816025 0.1005523503
-1.085673094 -0.3607346416 0.1353315115
-1.095876336 -0.363699913 0.176196754
-1.108341336 -0.3676223457 0.2187299132
-1.089790702 -0.3610468507 0.2550910413
-1.101344109 -0.3644479215 0.2992468774
-1.103623271 -0.363706857 -0.299764514
-1.121949553 -0.3693122864 -0.2627393901
-1.118561029 -0.3679805696 -0.2206380069
-1.128853679 -0.370930016 -0.1815155149
-1.124710202 -0.3691332638 -0.1402062774
-1.126729608 -0.3695785403 -0.1000294089
-1.129415035 -0.3700225055 -0.06008280814
-1.127022982 -0.3688035607 -0.01999866217
-1.132010579 -0.3728433847 0.02010337636
-1.109989762 -0.3651608229 0.05903609097
-1.132149577 -0.3722316027 0.1005523503
-1.105785728 -0.3631362617 0.1377688944
-1.07273829 -0.3518688679 0.1721294522
-1.124542475 -0.3686437905 0.2217828631
-1.09845233 -0.3596664369 0.2568906546
-1.100773335 -0.3600007594 0.2987292409
-1.095701575 -0.3568612039 -0.2971763015
-1.126938224 -0.366599381 -0.2636392117
-1.127306938 -0.3665021062 -0.2221644819
-1.133899331 -0.3682075143 -0.1821412593
-1.148650885 -0.3725545704 -0.1431311518
-1.120431542 -0.3631857932 -0.09933216125
-1.142100573 -0.3697692752 -0.0607108362
-1.137816906 -0.3679433465 -0.02017318644
-1.129502296 -0.3676515222 0.02003356628
-1.124553323 -0.3656068742 0.05976878852
-1.125862479 -0.365814954 0.0998551026
-1.124039769 -0.3647892773 0.139962554
-1.081476569 -0.3505586088 0.1733809263
-1.122087121 -0.3635057807 0.2210196257
-1.114533901 -0.3606293499 0.260489881
-1.09834671 -0.35496822 0.297693938
-1.109813452 -0.3571769595 -0.300799787
-1.141197562 -0.3668382168 -0.2667885125
-1.139794469 -0.3661674261 -0.2244541794
-1.127653956 -0.361833334 -0.1808897704
-1.15561533 -0.3703601956 -0.1438623667
-1.133077145 -0.362918973 -0.100378029
-1.147189021 -0.3669974506 -0.06092018262
-1.152427912 -0.3682300746 -0.02041751891
-1.138393402 -0.3661557138 0.02017318644
-1.139133573 -0.3659551144 0.06050149724
-1.138514638 -0.3655370772 0.1009009704
-1.12719667 -0.3614692986 0.1402062774
-1.093981147 -0.3503966928 0.1752581298
-1.123349071 -0.3595869839 0.2210196257
-1.130635381 -0.3614842892 0.2640891075
-1.106940269 -0.3534827232 0.299764514
-1.129463673 -0.3591549695 -0.3059761822
-1.136899114 -0.3610827327 -0.2654387951
-1.148550749 -0.3645623624 -0.2259806544
-1.140208244 -0.3614763021 -0.1827669889
-1.155008674 -0.3657248318 -0.1436186284
-1.145734429 -0.3625681996 -0.1014239043
-1.133227825 -0.3581754267 -0.06008280814
-1.16324091 -0.3672150373 -0.02059204318
-1.143476009 -0.3633912802 0.02024299465
-1.146115065 -0.3637892604 0.06081551686
-1.147379994 -0.3639706671 0.1015982181
-1.120882034 -0.3551341295 0.1392313242
-1.12156415 -0.354919523 0.1796382964
-1.135828733 -0.359215498 0.2233093232
-1.128173828 -0.3563614488 0.263189286
-1.121063828 -0.3536852896 0.3033879697
-1.138082504 -0.3575263917 -0.3080467284
-1.136293411 -0.356528312 -0.2649888992
-1.153562784 -0.3617257178 -0.2267438769
-1.152773619 -0.3610363603 -0.1846441925
-1.158172727 -0.3622837663 -0.1438623667
-1.162206173 -0.3633224666 -0.1028183922
-1.149723172 -0.3589796424 -0.06092018262
-1.166424751 -0.3637476265 -0.02062694728
-1.154276967 -0.3623925149 0.02041751891
-1.135943294 -0.3562007248 0.06018747762
-1.167655706 -0.3659213781 0.1033413261
-1.133481741 -0.3547771275 0.1406937689
-1.126567006 -0.3521811366 0.1802640259
-1.155815005 -0.3611031175 0.2271255255
-1.131271243 -0.353001684 0.2636392117
-1.140735269 -0.3555179536 0.3085643649
-1.148548841 -0.3564142883 -0.3106349111
-1.159867644 -0.3594826162 -0.2703877389
-1.158569217 -0.3588588834 -0.2275071293
-1.161575437 -0.3593454361 -0.1858956665
-1.170810223 -0.3617545962 -0.1453247964
-1.163467288 -0.3592633605 -0.1028183922
-1.170054793 -0.3608501852 -0.06196689978
-1.167687297 -0.3596740663 -0.02062694728
-1.174634457 -0.3642843664 0.02076656744
-1.15053463 -0.3563702106 0.06092018262
-1.168926001 -0.3618429601 0.1033413261
-1.144195676 -0.3537503481 0.1419124603
-1.131564379 -0.349412173 0.1808897704
-1.160820365 -0.3582244217 0.227888748
-1.141808033 -0.3519205451 0.2658887208
-1.145661831 -0.3526705205 0.3095996082
-1.142397881 -0.3501384854 -0.3085643649
-1.17229569 -0.3588544428 -0.2730871439
-1.17107892 -0.3582584262 -0.2297968417
-1.174157619 -0.3587521315 -0.1877728999
-1.18339467 -0.361348629 -0.1467872262
-1.164714217 -0.3552001417 -0.1028183922
-1.180860281 -0.3596734107 -0.06249026582
-1.176525712 -0.3581291437 -0.02076656744
-1.175899029 -0.3601815999 0.02076656744
-1.161259055 -0.3554759622 0.0614435412
-1.17018199 -0.3577603996 0.1033413261
-1.170104742 -0.357290566 0.145081073
-1.142163634 -0.3485405743 0.1824541241
-1.177087545 -0.3587487936 0.230941698
-1.154153824 -0.3515390158 0.2685881257
-1.141280532 -0.3471827209 0.3080467284
-1.154646158 -0.3497080505 -0.3116701841
-1.175344467 -0.3555291295 -0.2735370398
-1.183536172 -0.357781589 -0.2320865393
-1.167776585 -0.3525726795 -0.1865214258
-1.19979012 -0.3620096743 -0.1487371475
-1.173516273 -0.3536352813 -0.1035156399
-1.187784076 -0.3574823439 -0.06280428171
-1.194941401 -0.3594093621 -0.02108070999
-1.171345115 -0.3545422256 0.02066185325
-1.183460236 -0.3579840362 0.0625949353
-1.190434456 -0.3596399128 0.1050844416
-1.15988028 -0.3499677777 0.1436186284
-1.137639284 -0.3430401683 0.1815155149
-1.174510837 -0.3537114263 0.2301784456
-1.166509509 -0.3510794342 0.2712875307
-1.149825692 -0.3456208408 0.3101172447
-1.168754816 -0.3497540653 -0.3152936697
-1.18025136 -0.3527456522 -0.2744368613
-1.19600296 -0.3572260141 -0.2343762666
-1.184082866 -0.3532155454 -0.189024359
-1.204851508 -0.3589526713 -0.1492246091
-1.193778038 -0.3554271162 -0.1052587479
-1.188963056 -0.3535414934 -0.06280428171
-1.201939583 -0.3569438756 -0.02118542604
-1.184009433 -0.3540942371 0.02087128162
-1.182788968 -0.3532792032 0.06249026582
-1.195438743 -0.3568302989 0.1054330692
-1.151522756 -0.3432839513 0.1423999369
-1.142616272 -0.3401945829 0.1821412593
-1.18696785 -0.3531739712 0.2324681729
-1.171463966 -0.3481158614 0.2721873522
-1.167693377 -0.3465515673 0.3147760034
-1.179231882 -0.3484093845 -0.3178818524
-1.183344603 -0.3491751552 -0.2748867571
-1.201008797 -0.3541595638 -0.2351394892
-1.198572993 -0.352986604 -0.1912144572
-1.206097007 -0.3547450304 -0.1492246091
-1.206480622 -0.3546290994 -0.1063046232
-1.201688051 -0.3527647555 -0.0634323135
-1.205097198 -0.3533083797 -0.02122033015
-1.192909718 -0.3522239029 0.02101090178
-1.18018353 -0.348018527 0.0622809194
-1.20814383 -0.3560344279 0.106478937
-1.177470207 -0.3465484083 0.1455685347
-1.174119949 -0.3451170921 0.1871471554
-1.203262568 -0.3534550965 0.235521093
-1.172672033 -0.3440245688 0.2721873522
-1.180019379 -0.3457328081 0.3178818524
-1.186004519 -0.3459136486 -0.3194347322
-1.193911076 -0.3477672637 -0.2771362662
-1.198467612 -0.348867923 -0.2343762666
-1.211178899 -0.3521092534 -0.1930916607
-1.214953542 -0.3527467251 -0.1501995772
-1.215426564 -0.3524241149 -0.1070018709
-1.216340542 -0.3524590135 -0.06416501105
-1.210164905 -0.3502116799 -0.02129014023
-1.209490299 -0.3525342643 0.02129014023
-1.206320524 -0.3511538804 0.06364165246
-1.220857859 -0.3551541567 0.1075247973
-1.193922997 -0.3468667269 0.147518456
-1.156346202 -0.3355120122 0.1840184629
-1.223344922 -0.3547201157 0.2393372804
-1.190712214 -0.3448074758 0.2762364745
-1.17565167 -0.3400014937 0.316328913
-1.183551431 -0.3404958844 -0.3183994889
-1.211973548 -0.3484439552 -0.2811853886
-1.211060405 -0.3477235138 -0.2366659641
-1.220056772 -0.3498456478 -0.1943431348
-1.225718856 -0.3512377441 -0.1514182687
-1.216649294 -0.3481793106 -0.1070018709
-1.223385215 -0.3496450782 -0.06447903067
-1.21907115 -0.348181963 -0.02142975852
-1.218400478 -0.3505215943 0.02142975852
-1.213297963 -0.3485951722 0.06395567209
-1.214490771 -0.3484793305 0.1068275571
-1.210391879 -0.3470743001 0.1494683474
-1.16700542 -0.3341929615 0.1855828017
-1.213311434 -0.3469949961 0.237047568
-1.201337099 -0.3431168795 0.2784859836
-1.187977314 -0.3390769064 0.3194347322
-1.194024801 -0.3390008509 -0.3209876716
-1.215117335 -0.3445307612 -0.2816352844
-1.234933496 -0.3499168456 -0.241245389
-1.217469096 -0.3445090055 -0.1937174052
-1.246100783 -0.3521412015 -0.1538556516
-1.225526929 -0.3460962176 -0.1076991186
-1.232287407 -0.3475410342 -0.0648977235
-1.229902744 -0.346636802 -0.02160428464
-1.213905811 -0.3444161415 0.02132504433
-1.224114895 -0.3470818996 0.06447903067
-1.227202058 -0.347494483 0.1078734323
-1.205925345 -0.3410154581 0.1487371475
-1.183372498 -0.3344145417 0.1880857646
-1.210736275 -0.3416914344 0.2362843454
-1.210030198 -0.3410358727 0.2802855968
-1.200310588 -0.3380706906 0.3225405812
-1.219383836 -0.3416056037 -0.3277169764
-1.210623503 -0.3389232755 -0.2802855968
-1.247491956 -0.3487756848 -0.2435350865
-1.226215005 -0.3425959945 -0.1949688792
-1.251085877 -0.3490740359 -0.1543431282
-1.24975884 -0.3482339382 -0.1097908542
-1.241129518 -0.3455957472 -0.06531640887
-1.244591236 -0.3460919261 -0.02184861712
-1.22466898 -0.3430862427 0.0214995686
-1.229165792 -0.3438833058 0.06468837708
-1.247596622 -0.34856987 0.1096165404
-1.21469748 -0.3391498625 0.1497121006
-1.203560472 -0.3355872631 0.1912144572
-1.226992369 -0.3418902755 0.2393372804
-1.226173639 -0.3412006497 0.2838847935
-1.220096588 -0.3390508294 0.3277169764
-1.237267494 -0.342194736 -0.3323757052
-1.224948049 -0.3383272886 -0.2834348977
-1.24864161 -0.3446368873 -0.2435350865
-1.248351097 -0.3440877795 -0.1984104365
-1.252296805 -0.3447047472 -0.1543431282
-1.262493491 -0.3470377922 -0.1108367145
-1.242328286 -0.3412612677 -0.06531640887
-1.249648809 -0.3428030908 -0.02191842534
-1.237423778 -0.3420051932 0.02170899697
-1.23035872 -0.3395906091 0.06468837708
-1.256428242 -0.3465497494 0.1103137881
-1.221615314 -0.336489141 0.1504433006
-1.208533764 -0.3324320912 0.1918401867
-1.239536643 -0.3407273591 0.2416269928
-1.216081858 -0.3338235319 0.2811853886
-1.230588198 -0.3373434842 0.3303051591
-1.240377188 -0.3381657302 -0.3328933418
-1.243043423 -0.3386595547 -0.28748402
-1.248002052 -0.3395426273 -0.2431534678
-1.259135485 -0.3420993686 -0.1999747753
-1.264986753 -0.343452394 -0.155805558
-1.254082441 -0.3400215507 -0.1099651605
-1.257065535 -0.3403596878 -0.06604910642
-1.254698396 -0.3394834399 -0.02198823541
-1.250185609 -0.3408398032 0.02191842534
-1.23731792 -0.3368677199 0.06500238925
-1.269225478 -0.345078975 0.1113596559
-1.240023375 -0.3369067013 0.1526369601
-1.203967571 -0.3266596794 0.1909015924
-1.252146602 -0.3392624259 0.2439167053
-1.239870429 -0.3354714513 0.2865842283
-1.228028417 -0.3320376873 0.3292698562
-1.235953331 -0.332329005 -0.3313404322
-1.263097048 -0.3391548395 -0.2919830382
-1.256764412 -0.3372193575 -0.2446799427
-1.269862175 -0.3402586579 -0.201539129
-1.277742624 -0.341892302 -0.1572679877
-1.247562528 -0.3335835338 -0.1092679128
-1.27754271 -0.3411217928 -0.06709583104
-1.261672139 -0.3366482556 -0.02209295146
-1.261082649 -0.338849932 0.02209295146
-1.251988888 -0.3361721933 0.06573509425
-1.262724757 -0.3385824263 0.1106624082
-1.252755046 -0.3354405463 0.1540994048
-1.229907751 -0.3290928602 0.1949688792
-1.260910153 -0.3369167149 0.2454431802
-1.25609684 -0.3351605833 0.2901834249
-1.236646533 -0.3297398984 0.3313404322
-1.257646561 -0.3334589601 -0.3370344639
-1.260447383 -0.333966136 -0.2910832465
-1.269321442 -0.3358433247 -0.2469696552
-1.261434793 -0.3335210681 -0.1999747753
-1.286546707 -0.3396802247 -0.1582429409
-1.266058326 -0.3337981105 -0.1108367145
-1.278666735 -0.3368836939 -0.06709583104
-1.282178283 -0.3373303115 -0.02244199812
-1.26993084 -0.3367160857 0.02223256789
-1.27246201 -0.3369119167 0.06678181887
-1.27545619 -0.3372282982 0.1117082834
-1.255779862 -0.3317914307 0.1543431282
-1.244418979 -0.3283251822 0.1971589625
-1.262020469 -0.3327334821 0.2454431802
-1.268508554 -0.3339702785 0.2928828597
-1.249000311 -0.3283683658 0.3344462812
-1.277434945 -0.3341757059 -0.3422108293
-1.261605382 -0.3295643032 -0.2910832465
-1.289424181 -0.3365909159 -0.2507858276
-1.275971889 -0.3326036334 -0.2021648735
-1.303093314 -0.3391876519 -0.1601928622
-1.292225361 -0.3361179233 -0.1131027713
-1.283701181 -0.3334220946 -0.06730517745
-1.306516528 -0.3391049802 -0.02286085486
-1.282706618 -0.3353159726 0.02244199812
-1.273572326 -0.3326903582 0.06678181887
-1.295846105 -0.3380260766 0.1134513989
-1.262693286 -0.3289070427 0.1550743431
-1.262706041 -0.3286750615 0.1999747753
-1.270774722 -0.330301702 0.2469696552
-1.264007807 -0.3280718625 0.2915331423
-1.261302114 -0.3271346986 0.3375521004
-1.27859354 -0.3297148645 -0.3422108293
-1.277788162 -0.3292690516 -0.2946824729
-1.307703137 -0.3364913464 -0.2542203963
-1.290459752 -0.3318139315 -0.2043549418
-1.304210901 -0.3348647952 -0.1601928622
-1.303040624 -0.3340792358 -0.1139743254
-1.300277829 -0.333129406 -0.0681425482
-1.307692289 -0.3345422745 -0.02286085486
-1.295429587 -0.334056437 0.02265142649
-1.270857453 -0.3272465765 0.066572465
-1.308596015 -0.3364772499 0.1144972667
-1.269544959 -0.3261999488 0.155805558
-1.261932254 -0.3237744272 0.1996619105
-1.290880561 -0.330961585 0.2507858276
-1.265088797 -0.3238784075 0.2915331423
-1.273666382 -0.3256004155 0.3406579196
-1.290913343 -0.3283301592 -0.3453166485
-1.297817588 -0.3296035826 -0.2991814911
-1.299354672 -0.3295115232 -0.2523123026
-1.312673569 -0.3326450288 -0.207796514
-1.309220791 -0.331283778 -0.1606803238
-1.309993863 -0.3309932053 -0.1144972667
-1.313109636 -0.3312926292 -0.06877057999
-1.310791254 -0.3304647207 -0.0228957627
-1.308216214 -0.3324878812 0.02286085486
-1.291350961 -0.327721715 0.06761918962
-1.317429543 -0.3340952694 0.1151945144
-1.280297518 -0.3242031634 0.1570242494
-1.263054729 -0.3193674386 0.1996619105
-1.311120033 -0.3310340643 0.254602015
-1.281327844 -0.3232741952 0.2951323688
-1.278541923 -0.3220966756 0.3416931927
-1.292108178 -0.3235962093 -0.3453166485
-1.317921996 -0.3295725286 -0.3036805093
-1.311982155 -0.3276006281 -0.254602015
-1.323467016 -0.3302229941 -0.2093608528
-1.325835824 -0.330322504 -0.1626302451
-1.307331443 -0.3252273202 -0.1141486466
-1.329821944 -0.3303294778 -0.0696079582
-1.325579286 -0.3290300071 -0.02314009517
-1.317185521 -0.3296326399 0.02300047502
-1.30804491 -0.3268596828 0.06845656037
-1.314778924 -0.328298986 0.1148458794
-1.298812509 -0.3238302767 0.159217909
-1.273801088 -0.3171223104 0.2012262642
-1.312324643 -0.3262263238 0.254602015
-1.297634244 -0.3223340511 0.2987315953
-1.283463717 -0.3183384836 0.3427284658
-1.310166717 -0.3230205178 -0.3499754071
-1.324797869 -0.3261373639 -0.3050302267
-1.328369141 -0.3267706633 -0.2576549649
-1.320831656 -0.3244275749 -0.2087351084
-1.346317291 -0.3301889002 -0.165067628
-1.320069432 -0.323507309 -0.1151945144
-1.330966949 -0.3256855011 -0.0696079582
-1.344201922 -0.3286754787 -0.02345423773
-1.318384886 -0.3248023689 0.02300047502
-1.328571439 -0.3270663321 0.06950328499
-1.331452012 -0.3272822797 0.1162403747
-1.305774212 -0.320487529 0.1599491239
-1.296004057 -0.3178493977 0.2046678066
-1.317269206 -0.3225776851 0.2553652525
-1.31016469 -0.3203529418 0.3014310002
-1.30333364 -0.3184418976 0.3479048312
-1.316918135 -0.3198128939 -0.3515283167
-1.320190787 -0.3203636706 -0.3036805093
-1.352398276 -0.3276794851 -0.26223436
-1.329579949 -0.3219047487 -0.2099865824
-1.353193283 -0.3271217942 -0.1657988429
-1.348305345 -0.3254424334 -0.1176348701
-1.332039595 -0.3212700188 -0.0696079582
-1.357005715 -0.3267906904 -0.0236636661
-1.331114054 -0.3232603669 0.02320990525
-1.329705 -0.3224267364 0.06950328499
-1.351950645 -0.3273209035 0.1179834902
-1.304900408 -0.3156888187 0.1597053856
-1.316307306 -0.3179618418 0.207796514
-1.329782248 -0.320971489 0.2576549649
-1.318797946 -0.317832768 0.3032306135
-1.315706849 -0.3166019619 0.3510106802
-1.344274521 -0.3217394054 -0.3587752581
-1.340254664 -0.3202827573 -0.3081795275
-1.353477478 -0.3231929243 -0.26223436
-1.349910617 -0.3218432069 -0.2131152749
-1.354326963 -0.3223962486 -0.1657988429
-1.364883661 -0.324657917 -0.1190293655
-1.342868924 -0.3189258575 -0.07013131678
-1.363975406 -0.3234356642 -0.02376838215
-1.347793102 -0.3223328888 0.02348914184
-1.326937079 -0.3168554306 0.06929393858
-1.366594553 -0.3260727227 0.1192036718
-1.315649748 -0.3134321272 0.160924077
-1.319330812 -0.3138225079 0.2081093788
-1.353815079 -0.3217754662 0.26223436
-1.323691368 -0.3141275346 0.3041304052
-1.331842303 -0.3155705333 0.3551517725
-1.347269654 -0.3174884617 -0.3592928946
-1.352746129 -0.3182803392 -0.3108789325
-1.354597211 -0.318466723 -0.26223436
-1.366410732 -0.3207404613 -0.2156182379
-1.367040396 -0.3203848302 -0.1672612727
-1.36600852 -0.3198915422 -0.1190293655
-1.361477256 -0.3183291554 -0.07107336819
-1.370938182 -0.3200362623 -0.02387309633
-1.368374705 -0.3222095072 0.02383819036
-1.355254412 -0.3186212182 0.07075934857
-1.387120366 -0.3258571029 0.1209467873
-1.334129572 -0.3129170835 0.1631177366
-1.320418239 -0.3092152178 0.2081093788
-1.362576723 -0.318836689 0.2637608349
-1.328575134 -0.3103917539 0.3050302267
-1.336698413 -0.3117975891 0.3561870754
-1.352133512 -0.3136563897 -0.3603281379
-1.372833848 -0.3179537058 -0.3153779805
-1.374827862 -0.3181623816 -0.2660505772
-1.371371269 -0.31685853 -0.2162439674
-1.387493372 -0.3200731277 -0.1696986556
-1.369058251 -0.3155688047 -0.1192036718
-1.382043839 -0.3180540204 -0.07212008536
-1.377893686 -0.3165925145 -0.02397781052
-1.377283335 -0.3192371428 0.02397781052
-1.364141822 -0.3156894147 0.07117803395
-1.3804847 -0.3192176521 0.1202495396
-1.354555845 -0.3127239347 0.1655551195
-1.333038926 -0.3072663248 0.2099865824
-1.375160336 -0.3167225718 0.2660505772
-1.35623908 -0.311865896 0.3113288581
-1.337778687 -0.3071297109 0.3561870754
-1.355103612 -0.3093646169 -0.3608458042
-1.385335445 -0.3157576919 -0.3180773854
-1.39507246 -0.3177209496 -0.2698667347
-1.372468948 -0.312069267 -0.2162439674
-1.402153015 -0.3183040619 -0.1714048386
-1.385695934 -0.3143138289 -0.1205981672
-1.390937448 -0.3149923384 -0.07253877074
-1.396544456 -0.315749675 -0.02429195307
-1.374490023 -0.3135384321 0.02390800044
-1.384709358 -0.3153608143 0.07222475111
-1.393246889 -0.3170494139 0.1212954074
-1.3556391 -0.30799371 0.1655551195
-1.347588539 -0.305670023 0.2121766806
-1.37242806 -0.3110525012 0.2652873099
-1.372524738 -0.3105707765 0.3149280548
-1.353917599 -0.3058636487 0.3603281379
-1.378685474 -0.3101947606 -0.3670574427
-1.384419203 -0.3109771609 -0.3176274896
-1.403726101 -0.3150566816 -0.2713932097
-1.400428653 -0.3138028383 -0.2206241339
-1.414769292 -0.3164976835 -0.1728672683
-1.398342848 -0.3125666678 -0.121644035
-1.391920209 -0.3106209636 -0.07253877074
-1.417047977 -0.3157092631 -0.0246410016
-1.387174249 -0.3118499815 0.02411742881
-1.393488407 -0.3127588928 0.07264344394
-1.413677216 -0.3170306385 0.1230385303
-1.364348531 -0.3054684401 0.1665300727
-1.373603582 -0.3070367575 0.2162439674
-1.38872695 -0.3101627827 0.2683402598
-1.377297878 -0.3071054816 0.3158278763
-1.366186023 -0.3041272759 0.3634339869
-1.396735787 -0.3091375828 -0.3717162013
-1.391204715 -0.3074040711 -0.3189771771
-1.416319847 -0.3126939535 -0.2736829221
-1.416948199 -0.3123143911 -0.223127082
-1.41392684 -0.3111306429 -0.17262353
-1.418884397 -0.3119623065 -0.123387143
-1.400799274 -0.3074731231 -0.07295746356
-1.418141365 -0.3107608855 -0.0246410016
-1.411684632 -0.3121877611 0.02453628741
-1.39847219 -0.3087535799 0.07285278291
-1.434231281 -0.3163859546 0.1247816384
-1.369283795 -0.3015576303 0.1670175493
-1.380454779 -0.3035129905 0.2171825767
-1.410893798 -0.3099469543 0.2725380659
-1.382168293 -0.3031311929 0.316727668
-1.389884949 -0.3043147922 0.3696456254
-1.397806406 -0.3042598069 -0.3717162013
-1.413216591 -0.307097882 -0.3239260912
-1.421239853 -0.3085812628 -0.2744461596
-1.433473945 -0.3107140362 -0.2256300449
-1.428585649 -0.3091323972 -0.174329713
-1.423859477 -0.3078492582 -0.1237357706
-1.425291419 -0.3076384962 -0.07421351969
-1.423127294 -0.306651175 -0.02471081167
-1.436213851 -0.3123577833 0.02495514415
-1.41125226 -0.3064127564 0.07348082215
-1.437274098 -0.3118003309 0.1249559522
-1.387789249 -0.300557673 0.1692111939
-1.373782873 -0.2970222831 0.2159311026
-1.421562195 -0.3070928752 0.2744461596
-1.398457766 -0.3015908599 0.3203268945
-1.402270079 -0.3019012213 0.3727515042
-1.406416178 -0.3009961545 -0.3737867475
-1.433337331 -0.3062342107 -0.3284251094
-1.433828235 -0.3060777783 -0.276735872
-1.442277908 -0.3073548675 -0.226881519
-1.443247318 -0.3070352077 -0.176035881
-1.428823352 -0.3037056327 -0.1240843982
-1.445894241 -0.3068071008 -0.07526023686
-1.439839244 -0.3049971163 -0.02499005012
-1.437295437 -0.3073425293 0.02495514415
-1.431845665 -0.3056545556 0.07452753931
-1.442250729 -0.3076125681 0.1253045648
-1.408245444 -0.2998458445 0.1716485769
-1.394133449 -0.2963320911 0.2190597802
-1.439909101 -0.3057997227 0.2778806984
-1.41094017 -0.2991324663 0.3230262995
-1.403315544 -0.2970041633 0.3727515042
-1.415020108 -0.2976757586 -0.3758573234
-1.434397578 -0.3012293577 -0.3284251094
-1.454102039 -0.3051024377 -0.2805520594
-1.441408634 -0.3019138575 -0.2265686542
-1.469570279 -0.3072767556 -0.1792044789
-1.449430227 -0.3025379777 -0.1258275062
-1.446956515 -0.3017577231 -0.07526023686
-1.454599142 -0.3028221726 -0.0252343826
-1.438359499 -0.302323848 0.02495514415
-1.444631934 -0.3031153977 0.07515556365
-1.453065872 -0.3046199083 0.1261761338
-1.417055607 -0.296554774 0.17262353
-1.406761169 -0.2938879132 0.2209370136
-1.440967798 -0.3007716238 0.2778806984
-1.431053281 -0.2981809378 0.3275252879
-1.419474721 -0.2952510715 0.3768925667
-1.438804746 -0.2971765995 -0.3820689917
-1.439257264 -0.2970081866 -0.3293249011
-1.474439263 -0.3037318885 -0.284368217
-1.450244904 -0.298220247 -0.2278201133
-1.4667449 -0.3013464212 -0.1787169874
-1.46999526 -0.301479131 -0.1275706291
-1.455879331 -0.2980549932 -0.07567892969
-1.471320391 -0.3009482622 -0.02551362291
-1.458989859 -0.301345706 0.02530419454
-1.457417965 -0.3004906774 0.07578360289
-1.477590322 -0.304112196 0.1282678694
-1.420026541 -0.2920063138 0.1728672683
-1.425193667 -0.2925504148 0.2237528265
-1.453600407 -0.2978527546 0.2801704407
-1.447410345 -0.2960576117 0.3311245143
-1.437531233 -0.2937758863 0.3815513253
-1.454979539 -0.2952256501 -0.3862100542
-1.459435701 -0.2955995202 -0.3338239193
-1.483187556 -0.3001408279 -0.2858946919
-1.474512458 -0.2978495955 -0.2315745503
-1.483407021 -0.2991074324 -0.1806669086
-1.482757568 -0.2987071872 -0.1286164969
-1.468659401 -0.2953336835 -0.07630696148
-1.486137509 -0.2983087003 -0.02575795539
-1.46596396 -0.2971881032 0.02540890686
-1.462424636 -0.2959392071 0.07599294186
-1.490360141 -0.3013215363 0.1293137372
-1.434708238 -0.2895486057 0.1745734513
-1.437875032 -0.2896654606 0.2256300449
-1.4700284 -0.2958759069 0.2832233608
-1.444613814 -0.290236026 0.3302247226
-1.453751445 -0.2915436327 0.3856924176
-1.463579535 -0.291655153 -0.3882806301
-1.47192657 -0.292784363 -0.3365233541
-1.488077402 -0.2957270145 -0.2866579294
-1.500732183 -0.2976974547 -0.235641852
-1.488336682 -0.2946986854 -0.1811544001
-1.491609216 -0.2950761318 -0.1293137372
-1.493194342 -0.2948481441 -0.07756302506
-1.489131927 -0.2935059667 -0.02579286136
-1.488565564 -0.2963645458 0.02579286136
-1.479120374 -0.2939469814 0.07683032006
-1.505082488 -0.2988337874 0.1305339187
-1.459076881 -0.289169699 0.1774982959
-1.442753077 -0.2854112387 0.2262557745
-1.486460328 -0.293787986 0.2862763107
-1.464737058 -0.2889633477 0.3347237408
-1.469923854 -0.2894535959 0.3898335397
-1.47217226 -0.2880285978 -0.3903511763
-1.495890856 -0.2921266258 -0.341922164
-1.494881392 -0.2916590273 -0.2878027856
-1.507579088 -0.2935898304 -0.2365804464
-1.520534158 -0.2955619395 -0.1850542128
-1.500453472 -0.2913869023 -0.1300109774
-1.502057552 -0.2911543846 -0.07798171043
-1.509780169 -0.2921041846 -0.02614190988
-1.49547863 -0.2923170924 0.02589757368
-1.499740362 -0.292607069 0.07787703723
-1.502205253 -0.2928154469 0.1301852912
-1.483460069 -0.2886244953 0.1804231703
-1.455375671 -0.282632798 0.228132993
-1.495185971 -0.2900935113 0.2878027856
-1.488695025 -0.288294673 0.3401225507
-1.467131734 -0.2835875452 0.3887982368
-1.482654691 -0.2847095132 -0.3929393589
-1.504557014 -0.2883708477 -0.3437217772
-1.51902914 -0.2908694446 -0.2923822105
-1.514415383 -0.2894384265 -0.2375190556
-1.541055918 -0.2939721346 -0.1874915957
-1.517118692 -0.2891318202 -0.1314054728
-1.522685409 -0.2896416187 -0.0790284276
-1.522578239 -0.2890705764 -0.02635133825
-1.504345536 -0.2886021435 0.02603719383
-1.524292111 -0.2918772101 0.07913310081
-1.524744272 -0.2916879356 0.1321027279
-1.488358259 -0.2841887176 0.1809106469
-1.477698207 -0.281619072 0.2315745503
-1.50004673 -0.2856066227 0.2885660231
-1.508837104 -0.2867349386 0.3446215987
-1.483296752 -0.2813445628 0.3929393589
-1.4988271 -0.2823934257 -0.3970804811
-1.501724243 -0.2823968828 -0.3428219855
-1.539330244 -0.2891901135 -0.2961983979
-1.52318275 -0.2856065333 -0.2387705296
-1.55377996 -0.2907823324 -0.1889540404
-1.537703395 -0.2874955535 -0.1331485957
-1.527613997 -0.2850577533 -0.07923777401
-1.535323381 -0.2862187326 -0.02656076662
-1.51910007 -0.2859388888 0.02628152817
-1.525251508 -0.2868211567 0.07913310081
-1.535544038 -0.2882017791 0.1329742819
-1.497145891 -0.2804536223 0.1818856001
-1.494157314 -0.2796242237 0.2340774983
-1.516473651 -0.2832524478 0.291618973
-1.517491698 -0.2828944921 0.3464211822
-1.503213644 -0.279961288 0.3981157243
-1.528298974 -0.2824259996 -0.4048450291
-1.525648594 -0.2816608846 -0.3482207954
-1.555776238 -0.2866614759 -0.2992513478
-1.553262591 -0.2859179974 -0.2434635609
-1.558640599 -0.2863455415 -0.1894415021
-1.558294892 -0.2857193947 -0.1348917037
-1.538373709 -0.2817896605 -0.0797611326
-1.54811573 -0.2830153108 -0.02677019686
-1.541670322 -0.2848969996 0.02666548081
-1.526243448 -0.2814949155 0.07913310081
-1.560054421 -0.2871682346 0.1350660175
-1.509781718 -0.2776414752 0.1833480448
-1.506781697 -0.2765464783 0.2359547168
-1.53671515 -0.2817626894 0.2954351306
-1.522255301 -0.2785626352 0.3473210037
-1.51938498 -0.2774893343 0.4022568464
-1.536830544 -0.2787353992 -0.4069156051
-1.545798421 -0.2798046172 -0.3527198434
-1.560582042 -0.282199353 -0.3000145555
-1.565914869 -0.2825992703 -0.2453407794
-1.571352482 -0.2830142975 -0.1909039319
-1.570999265 -0.2826672196 -0.1359375864
-1.560971975 -0.2803009748 -0.08091252297
-1.560855389 -0.2799984813 -0.02697962523
-1.560364366 -0.2827224731 0.02697962523
-1.546821952 -0.2799898982 0.08017982543
-1.572762012 -0.2841184139 0.1361118853
-1.534184813 -0.2765965164 0.1862729043
-1.511578679 -0.2722485065 0.2365804464
-1.5570122 -0.2798704207 0.2992513478
-1.534727216 -0.2753113806 0.3500204086
-1.531706214 -0.2744935453 0.4053626657
-1.545402288 -0.2747216225 -0.4089861512
-1.562067509 -0.2774028778 -0.3563190401
-1.56929028 -0.2781205773 -0.3015410304
-1.578514218 -0.2794711888 -0.2472179979
-1.595740199 -0.2819465697 -0.1938288063
-1.571976304 -0.2771820128 -0.1359375864
-1.587463617 -0.2796272039 -0.08227325976
-1.573640347 -0.2766256034 -0.02718905173
-1.57507503 -0.2799964249 0.0272239577
-1.571388364 -0.2787753046 0.08143588156
-1.573744178 -0.2786266804 0.1361118853
-1.558550596 -0.2756561637 0.1891977638
-1.545590043 -0.2728075683 0.2418992221
-1.571465731 -0.2770920098 0.3019226491
-1.550985694 -0.2729226649 0.3536196351
-1.536460638 -0.2698138356 0.4063979685
-1.555820465 -0.2712543309 -0.4115743339
-1.582225084 -0.2752892971 -0.3608180583
-1.589546442 -0.2762769163 -0.3053572178
-1.587265372 -0.2753097713 -0.2484694868
-1.612362742 -0.2790831625 -0.1957787126
-1.586677432 -0.274066925 -0.1371577531
-1.598270893 -0.2757822275 -0.08279661834
-1.602185965 -0.2758819163 -0.02767772041
-1.572102785 -0.2738104165 0.02715414762
-1.592029572 -0.2767085135 0.08248259872
-1.590363741 -0.2761330307 0.1375063807
-1.557547569 -0.2698751986 0.1889540404
-1.540693521 -0.266400665 0.2409606129
-1.578227162 -0.2726073265 0.3030675054
-1.571133137 -0.2708168626 0.3581186533
-1.54500854 -0.265758872 0.4084685147
-1.587273717 -0.2707478106 -0.4198565483
-1.583176494 -0.2697642148 -0.3608180583
-1.62151587 -0.2757150233 -0.3114630878
-1.599949002 -0.2714729607 -0.2503466606
-1.627027273 -0.2757757306 -0.1974848807
-1.607269168 -0.2718493342 -0.1389008611
-1.603209734 -0.2705871761 -0.08300595731
-1.618914127 -0.2729471624 -0.02795695886
-1.596703529 -0.2723563015 0.02757300623
-1.60479939 -0.2731604278 0.08311063796
-1.614936113 -0.2743058503 0.1395981163
-1.580008388 -0.268089503 0.1916351467
-1.561090589 -0.2643190622 0.2440893203
-1.598574042 -0.2700912952 0.3068836927
-1.587488174 -0.2676487863 0.3617178798
-1.572597265 -0.2648555636 0.415715456
-1.595831037 -0.2664782107 -0.4219270945
-1.603376985 -0.2671630383 -0.3653171062
-1.626341701 -0.2706974447 -0.3122263551
-1.618425012 -0.268799603 -0.2531625032
-1.63194406 -0.2704592645 -0.1979723722
-1.627864838 -0.2694917321 -0.1406439841
-1.621879578 -0.2679188848 -0.08394800872
-1.627749085 -0.2685966492 -0.02809657902
-1.621360421 -0.270449996 0.02799186297
-1.6136235 -0.2688703835 0.08352932334
-1.635537744 -0.2719347477 0.1413412243
-1.575105309 -0.2613219321 0.1909039319
-1.593184471 -0.2640357316 0.2490952164
-1.615002632 -0.2670724392 0.3099366426
-1.592258215 -0.2627402544 0.3626176715
-1.60019803 -0.2637635469 0.4229623973
-1.615817189 -0.2640209496 -0.4271034598
-1.623486996 -0.2649836838 -0.3698161244
-1.635027528 -0.2662810683 -0.31375283
-1.642704487 -0.2672374547 -0.2569169402
-1.648507357 -0.2675904632 -0.1999222636
-1.644529581 -0.2663556635 -0.1420384794
-1.642475367 -0.2657288313 -0.08499473333
-1.644469857 -0.2654625177 -0.02837581746
-1.641983628 -0.2682964802 0.02834091149
-1.626379609 -0.2651644349 0.08415735513
-1.648276329 -0.2681438923 0.142387107
-1.615151048 -0.2624657154 0.1957787126
-1.590196609 -0.257840842 0.2484694868
-1.635259271 -0.2648542225 0.31375283
-1.60851109 -0.2599458098 0.366216898
-1.612552166 -0.2600213587 0.4260682166
-1.620499134 -0.2592716217 -0.4281387627
-1.647494435 -0.2630014122 -0.3752149343
-1.659166813 -0.2645674348 -0.3183322251
-1.655332327 -0.2633639276 -0.2587941289
-1.665115833 -0.264324218 -0.2018721849
-1.649339437 -0.2615251243 -0.142387107
-1.665092826 -0.2634268999 -0.08614612371
-1.661188364 -0.2622148693 -0.02865505405
-1.650808692 -0.263825953 0.02848052979
-1.650963306 -0.2632593215 0.08541341126
-1.657026887 -0.2639300823 0.1430843472
-1.629780769 -0.2590066493 0.1974848807
-1.614498854 -0.2560006976 0.2522238791
-1.647808433 -0.2609871924 0.3160425127
-1.628657103 -0.2573715746 0.3707159162
-1.613449931 -0.2543908656 0.4260682166
-1.648115158 -0.2577934265 -0.435385704
-1.661880732 -0.2593523264 -0.378364265
-1.679478526 -0.2617984116 -0.3221484125
-1.664049268 -0.2587979734 -0.2600456178
-1.689567804 -0.2621631324 -0.2047970444
-1.673868895 -0.2594276369 -0.1444788426
-1.681792617 -0.2600550354 -0.08698349446
-1.681856751 -0.2594634891 -0.02900410257
-1.65962255 -0.2592966259 0.02862014994
-1.671606541 -0.2605713308 0.08646013588
-1.677624822 -0.2612095773 0.1448274702
-1.648329139 -0.2560585141 0.1996785253
-1.638807535 -0.2539936006 0.2559783161
-1.656469941 -0.2564350069 0.3175689876
-1.660360098 -0.2564438283 0.3779143691
-1.631511927 -0.2514055967 0.4307269454
-1.679559827 -0.2567088902 -0.4436678886
-1.666628718 -0.2541371584 -0.3792640567
-1.703672528 -0.2594815791 -0.3267278373
-1.690330982 -0.2568455338 -0.2641129196
-1.702248454 -0.2580489516 -0.2062594742
-1.694463611 -0.2565658987 -0.1462219507
-1.690589666 -0.2553757131 -0.08740218729
-1.712412596 -0.2580613494 -0.02952767536
-1.676331758 -0.2559161186 0.02889938839
-1.684352875 -0.2565390468 0.08708816767
-1.702162981 -0.2589477301 0.1469191909
-1.659025908 -0.2517929077 0.2008972168
-1.659215331 -0.2512288094 0.2591069937
-1.676766753 -0.2535874248 0.321385175
-1.659318089 -0.2503557503 0.3774644434
-1.655303717 -0.2491591424 0.4369386137
-1.686177731 -0.2517001629 -0.4452208281
-1.682925582 -0.2506142259 -0.3828632832
-1.716219306 -0.2552660406 -0.32901752
-1.708802938 -0.2535533309 -0.2669287026
-1.716884732 -0.2541396618 -0.2079656422
-1.719000459 -0.2541466951 -0.1483136863
-1.703325987 -0.2512213588 -0.08803021908
-1.735065341 -0.25528422 -0.02991162799
-1.704904675 -0.2541918159 0.02938805707
-1.697091222 -0.2524209619 0.08771619946
-1.718822718 -0.2553462386 0.1483136863
-1.677567482 -0.2486193925 0.2030908763
-1.673761129 -0.2474582493 0.2612971067
-1.697063565 -0.250600785 0.3252013624
-1.671749592 -0.246266529 0.3801638782
-1.679099202 -0.2467499971 0.4431502521
-1.713809252 -0.2497126907 -0.4524677396
-1.71850276 -0.2497835904 -0.3909615278
-1.728757143 -0.2509664297 -0.3313072622
-1.742912292 -0.2523997724 -0.2722474933
-1.7374084 -0.2509836257 -0.2104030401
-1.735652924 -0.2504208088 -0.1497081816
-1.735822678 -0.2498268336 -0.08970496058
-1.745842934 -0.2506465912 -0.03008615226
-1.729527712 -0.2516942918 0.02980691381
-1.713774204 -0.248791337 0.08855357766
-1.743364811 -0.2527759671 0.1504054368
-1.69807148 -0.2456040233 0.2055282593
-1.680480123 -0.2424604446 0.2622357011
-1.729019046 -0.2491552234 0.3313072622
-1.691888213 -0.2432021946 0.3846628964
-1.695248604 -0.2430813313 0.4472913742
-1.729971647 -0.2459033281 -0.4566088617
-1.742517471 -0.2470666021 -0.3963603377
-1.745173454 -0.2471320778 -0.3343601823
-1.759430528 -0.2485246062 -0.2747504413
-1.753999352 -0.2471330166 -0.2123529315
-1.748354077 -0.2460264564 -0.1507540494
-1.762396455 -0.2473751754 -0.09106569737
-1.76453054 -0.2470466942 -0.03040029481
-1.746234417 -0.2479040921 0.03008615226
-1.73836267 -0.2461676151 0.08980964124
-1.756072998 -0.2483629286 0.1514513046
-1.724471807 -0.2432796359 0.2086968571
-1.710657716 -0.2407218665 0.2669287026
-1.749319673 -0.2458509952 0.3351234198
-1.719744921 -0.2410824299 0.3909615278
-1.703739643 -0.2382323891 0.4493619204
-1.730819464 -0.2398630828 -0.4566088617
-1.76267314 -0.2436508685 -0.4008593559
-1.781032205 -0.2458713949 -0.3412292898
-1.775942683 -0.2445371151 -0.2772534192
-1.796150684 -0.2466808558 -0.2174714506
-1.772889256 -0.2431709468 -0.1528457999
-1.785016537 -0.2441995591 -0.0922170952
-1.789158344 -0.2441300452 -0.03081915528
-1.755012393 -0.242904067 0.03022577241
-1.768888831 -0.2441949993 0.09137971699
-1.776666403 -0.2449527383 0.1531944126
-1.752842665 -0.2410446852 0.2121092081
-1.742800474 -0.2390439361 0.2719346285
-1.759892702 -0.2410753965 0.3370315135
-1.75919199 -0.2403538823 0.3999595344
-1.733273268 -0.2361964136 0.4571264982
-1.771850109 -0.2392484993 -0.467479229
-1.775100708 -0.2390565872 -0.4035587609
-1.814957142 -0.2441016287 -0.3477168083
-1.788532376 -0.2399121225 -0.2791306078
-1.81274116 -0.2425158173 -0.2194213718
-1.811249256 -0.2419940084 -0.1561577171
-1.791797161 -0.2387585491 -0.09253110737
-1.815769196 -0.2413078398 -0.03127291799
-1.77963078 -0.2399833202 0.03064462915
-1.787545443 -0.2404148877 0.0923217684
-1.805155754 -0.242463097 0.1556347758
-1.757608533 -0.2354517728 0.2125966847
-1.759288311 -0.2350517064 0.2744375765
-1.784075618 -0.2380465418 0.3416109383
-1.76967895 -0.2354969531 0.4022090435
-1.757067919 -0.2331946492 0.4633381665
-1.79374361 -0.2358325869 -0.4731732905
-1.797178507 -0.2356456369 -0.4085076749
-1.831371188 -0.2398043126 -0.3507697582
-1.816781521 -0.2372484803 -0.2835107744
-1.827355981 -0.2379807085 -0.2211275399
-1.831840396 -0.2382396013 -0.1579008251
-1.82232964 -0.2363558859 -0.09410118312
-1.830482483 -0.2367641181 -0.0315172486
-1.81019783 -0.2376745343 0.03116820008
-1.804216504 -0.2362485975 0.09315913916
-1.83760035 -0.2402933687 0.1584237665
-1.787945986 -0.2331660241 0.2162527591
-1.795357823 -0.2334948778 0.280069232
-1.804364681 -0.2343464792 0.3454271257
-1.778220534 -0.2303193808 0.4040086567
-1.788526297 -0.2310194969 0.4716203511
-1.81180191 -0.2317759842 -0.4778320193
-1.817320943 -0.2318373322 -0.4130067229
-1.839987159 -0.2344025522 -0.3522962332
-1.84699285 -0.2346398979 -0.2882038057
-1.841961265 -0.233346954 -0.2228337079
-1.848474026 -0.2338447124 -0.1592953205
-1.848903894 -0.2332430035 -0.0954619199
-1.845186234 -0.2321197391 -0.03176158294
-1.838786602 -0.2349013984 0.03165686876
-1.820880055 -0.2319684178 0.09399650991
-1.842380881 -0.2343802899 0.1587723792
-1.802534103 -0.2286722511 0.2179589272
-1.784403205 -0.2257393152 0.2781920135
-1.846074939 -0.2332134396 0.3534410894
-1.802215099 -0.2270340174 0.4094074965
-1.796988964 -0.2257380635 0.473690927
-1.826019526 -0.22711882 -0.4814554751
-1.847128034 -0.2290900499 -0.4197552502
-1.868071318 -0.2313560694 -0.3576388955
-1.867405534 -0.230612278 -0.2913325131
-1.884138703 -0.2320110649 -0.2279522121
-1.869053841 -0.2298224121 -0.1610384285
-1.887372613 -0.2314062119 -0.09745068848
-1.871789217 -0.2288319618 -0.03221534565
-1.859439731 -0.2309465259 0.03200591728
-1.859338999 -0.2302745879 0.09598527849
-1.866915703 -0.230882585 0.1608641148
-1.834844232 -0.2262656242 0.2218587548
-1.810668349 -0.2226432115 0.2822593153
-1.854672194 -0.2277249992 0.3549675643
-1.830076814 -0.2240571231 0.4157061279
-1.818859577 -0.2220394313 0.4793849289
-1.865159273 -0.225378871 -0.4918082356
-1.878872275 -0.2263705581 -0.4269536734
-1.89225781 -0.2276482433 -0.3622182906
-1.887812376 -0.2264445275 -0.2944611907
-1.90858984 -0.2282615304 -0.2308770865
-1.893584728 -0.2261313051 -0.1631301641
-1.908001542 -0.2271779776 -0.0984974131
-1.902362823 -0.2258331925 -0.0327389203
-1.878102183 -0.2266103029 0.03232005984
-1.893841743 -0.2278387994 0.09776470065
-1.903317332 -0.2286417782 0.1640017331
-1.869129896 -0.2238731235 0.2260023206
-1.854586244 -0.221474126 0.2891424298
-1.871051431 -0.2231096476 0.3580205142
-1.86567986 -0.2218082398 0.4238043725
-1.844563127 -0.2186452299 0.4861142337
-1.885121584 -0.2211173922 -0.4969846606
-1.889328837 -0.220942378 -0.4292031825
-1.906691194 -0.2226354629 -0.3648896217
-1.908212662 -0.2221380025 -0.2975898981
-1.909374952 -0.2215978652 -0.2308770865
-1.920091271 -0.2225019783 -0.1653962135
-1.894894481 -0.2189114094 -0.09776470065
-1.932899117 -0.2229606211 -0.03326249123
-1.904701471 -0.2230770439 0.03277382255
-1.902521849 -0.2224851996 0.09818339348
-1.913998723 -0.223150149 0.1648732871
-1.863984346 -0.2166596204 0.2252710909
-1.869045854 -0.2169173509 0.2913325131
-1.893271327 -0.2190591991 0.3622182906
-1.874186277 -0.2161880881 0.4256039858
-1.866388917 -0.2149585932 0.4918082356
-1.88588202 -0.2145356983 -0.4969846606
-1.878433347 -0.2133567184 -0.4265037775
-1.911358118 -0.2164202183 -0.3656528592
-1.903050065 -0.2151431143 -0.296651274
-1.908126712 -0.2150425464 -0.2306333482
-1.910956621 -0.2146860212 -0.1645246595
-1.907518744 -0.213962689 -0.09839273244
-1.907830596 -0.2133233845 -0.03280872852
-1.909404397 -0.2172115743 0.03284363076
-1.89336431 -0.2147174776 0.09766003489
-1.910806417 -0.2160199732 0.1645246595
-1.872582912 -0.2113677859 0.2262460589
-1.865865707 -0.2099500299 0.2907067835
-1.892036557 -0.2125604451 0.3618366718
-1.87489295 -0.2099718004 0.4256039858
-1.876727462 -0.2095139921 0.4943964481
-1.880822539 -0.2076446414 -0.4954317212
-1.890788913 -0.2080769688 -0.4292031825
-1.890598774 -0.2077221125 -0.3614550531
-1.907716751 -0.2089289874 -0.2972770333
-1.904918909 -0.2079501748 -0.2301458716
-1.911658049 -0.2083478123 -0.1645246595
-1.906268477 -0.2070871592 -0.09828805923
-1.914491653 -0.2076424062 -0.0329134427
-1.926052094 -0.2122982889 0.03312287107
-1.909948111 -0.2101853937 0.0984974131
-1.911512136 -0.2096827179 0.1645246595
-1.873309374 -0.2048299164 0.2262460589
-1.858696699 -0.2029043436 0.2894552946
-1.898622274 -0.2065917552 0.362981528
-1.875614405 -0.2034258544 0.4256039858
-1.865888119 -0.2020415068 0.4912905693
-1.870010257 -0.1998467743 -0.492325902
-1.899219513 -0.2026326358 -0.4310027957
-1.901073575 -0.2021598369 -0.3633631468
-1.900541782 -0.201767385 -0.2960255444
-1.921390533 -0.2033030391 -0.232095778
-1.906429648 -0.2010467052 -0.1640017331
-1.924821258 -0.2026470453 -0.09923011065
-1.90724957 -0.2001235634 -0.03277382255
-1.914815426 -0.2046350688 0.0329134427
-1.914642215 -0.2039401829 0.09870675206
-1.900345087 -0.2017465085 0.1634787917
-1.879900336 -0.1992442608 0.2269772589
-1.861358047 -0.1966220587 0.2897681594
-1.893439531 -0.1996768117 0.3618366718
-1.884031057 -0.1980196983 0.427403599
-1.864660621 -0.1953262389 0.4907729626
-1.862976432 -0.192848742 -0.4902553558
-1.896038413 -0.1956018955 -0.430103004
-1.897827625 -0.1954521984 -0.3625999391
-1.897304296 -0.1947286129 -0.295399785
-1.926038146 -0.1969983578 -0.2325832546
-1.903155446 -0.1939871311 -0.1636531055
-1.909620881 -0.1943089366 -0.09839273244
-1.909926057 -0.1936669201 -0.03280872852
-1.891648769 -0.1954831481 0.03249458596
-1.919315815 -0.1976652145 0.09891609102
-1.899021506 -0.1952402294 0.1633044779
-1.874660134 -0.1920743883 0.2262460589
-1.856137753 -0.1895215064 0.288829565
-1.882406116 -0.1918721646 0.3595469892
-1.89246583 -0.1922296733 0.4292031825
