# .PCD v0.7 - Point Cloud Data file format
VERSION 0.7
FIELDS x y z
SIZE 4 4 4
TYPE F F F
COUNT 1 1 1
WIDTH 1248
HEIGHT 1
VIEWPOINT 0 0 0 1 0 0 0
POINTS 1248
DATA ascii
8.763374329 0.4332017004 -0.45762676
8.790014267 0.4329808056 -0.1529161781
8.781257629 0.4479132891 0.1527765691
8.784702301 0.4465518296 0.4587781727
8.795482635 0.44402197 0.7667708397
8.648732185 0.4335871935 1.058126211
8.719348907 0.4356018007 1.37604928
8.72337532 0.4327505529 1.689485908
8.287919998 0.4082485139 1.905781865
7.356329441 0.3610695302 1.961900473
5.325979233 0.2530291378 -1.221030951
7.767400265 0.3663038015 -1.503256202
7.747814655 0.3640213013 -1.221804857
8.241708755 0.3843472004 -1.007916093
8.289750099 0.3836838305 -0.7223213911
8.768752098 0.404324621 -0.4578360915
8.775491714 0.4015617371 -0.1526369452
8.788686752 0.4190785885 0.1528812796
8.772241592 0.415225625 0.4580454528
8.789019585 0.412940979 0.7660736442
8.640209198 0.4044422209 1.056907654
8.699110031 0.4041522145 1.372607589
8.7208395 0.4036364555 1.688722491
8.263922691 0.3795978725 1.899933338
5.357979774 0.2358110696 -1.228229403
4.096886158 0.1795905083 -0.7888671756
4.115802765 0.1789823622 -0.6458130479
8.760133743 0.3732860684 -0.4573127627
8.764852524 0.3704223037 -0.1524275243
8.790096283 0.3883954287 0.1528812796
8.765656471 0.3842500448 0.45762676
8.782378197 0.3834473789 0.765376389
8.641568184 0.3742774725 1.056907654
8.682706833 0.3730270863 1.369791865
8.718272209 0.3730265498 1.687959313
8.269090652 0.3509199619 1.90083313
7.426226139 0.3125506043 1.980017781
4.079497814 0.165276885 -0.9326437116
4.085746765 0.1641016155 -0.7865774632
4.106562614 0.1635000557 -0.644248724
4.118438721 0.1632549614 -0.5009396076
4.097498417 0.1609905064 -0.3550471067
8.767429352 0.3414111137 -0.45762676
8.762096405 0.3396677971 -0.1523577124
8.775413513 0.3570613563 0.1526020467
8.768939972 0.3537279963 0.4577314258
8.767798424 0.3506208658 0.7639818788
8.636871338 0.3438712656 1.056176305
8.681981087 0.342636317 1.36947906
8.703886986 0.3404580653 1.684906363
8.283952713 0.3211322427 1.903982401
7.456228256 0.2877453566 1.987782478
4.062548637 0.1496788114 -0.9285945296
7.749228954 0.2841513157 -1.499058366
4.107108116 0.1491673142 -0.644248724
8.259220123 0.2970785797 -1.009622216
8.287340164 0.2966457903 -0.7217984796
8.75060463 0.3101659417 -0.4566847086
8.767278671 0.3076930046 -0.1524275243
8.75867939 0.3242274821 0.1522879153
8.762194633 0.3212950826 0.4573127627
8.753040314 0.319429785 0.7625874281
8.626171112 0.3117849231 1.054713845
8.67923069 0.3106735647 1.368853331
8.693249702 0.3096520901 1.682616711
8.285022736 0.292219609 1.903982401
7.430202961 0.2594691813 1.980535388
7.656475067 0.2553307414 -1.758664012
7.726627827 0.2563166022 -1.49447906
7.685060024 0.2522559762 -1.211167336
8.276078224 0.26876387 -1.011572123
8.747641563 0.2794930339 -0.4564754069
8.75830555 0.276769489 -0.1522530019
8.757759094 0.29358688 0.1522530019
8.755277634 0.2904401422 0.4568940401
8.758084297 0.2890072465 0.7629359961
8.621253967 0.2814754546 1.053982735
8.6763134 0.2802456319 1.368227482
8.698202133 0.2794288397 1.683379889
8.282096863 0.2631716728 1.903082728
7.411754608 0.2329261154 1.975359082
7.64368391 0.2281976193 -1.755514622
7.717662811 0.2290581465 -1.492570877
7.685893536 0.2254301608 -1.211167336
8.26109314 0.2394111007 -1.009622216
8.317090988 0.2395812124 -0.7242388725
8.734587669 0.2485563457 -0.4557426572
8.753178596 0.2475565076 -0.1521482766
8.758729935 0.2630124688 0.1522530019
8.744214058 0.2610532939 0.4562660158
8.759039879 0.2584317625 0.7629359961
8.610279083 0.2510387599 1.052520275
8.665348053 0.251126647 1.366350293
8.691273689 0.2488459796 1.681853294
8.271277428 0.2339274287 1.900383234
7.410555363 0.2082937658 1.974841475
7.656086922 0.2031570524 -1.758214116
7.69486475 0.2014983147 -1.487991452
7.686598778 0.1999394596 -1.211167336
8.271762848 0.212271288 -1.010841012
8.311901093 0.2103981972 -0.723715961
8.739357948 0.2196921855 -0.4559520185
8.735998154 0.216556564 -0.1518341452
8.763552666 0.2340745479 0.1523228139
8.74107933 0.2304211259 0.4560566843
8.751921654 0.2276500314 0.7622387409
8.617016792 0.2226360887 1.053251386
8.650373459 0.2204765826 1.363847375
8.688126564 0.2199215442 1.681090117
8.272007942 0.2064992487 1.900383234
7.409306049 0.1823753268 1.974323869
7.633371353 0.1758939922 -1.752815366
7.697453976 0.1760228723 -1.48837316
7.677375317 0.1728862673 -1.209602952
8.276423454 0.1834858954 -1.01132834
8.30063343 0.1811199784 -0.7226700783
8.738075256 0.1891434044 -0.4558473527
8.724705696 0.1858031303 -0.1516247094
8.748322487 0.2031131387 0.152043581
8.737837791 0.1998140365 0.4558473527
8.732710838 0.1981761009 0.7604956627
8.625680923 0.1927308291 1.054226398
8.645166397 0.190151304 1.36290884
8.680991173 0.1894193888 1.679563761
8.272678375 0.1776210964 1.900383234
7.27276659 0.1536159813 1.937571526
7.637835503 0.1493216306 -1.753715038
7.698047161 0.1478108168 -1.48837316
7.666108131 0.1445207596 -1.207725763
8.269075394 0.1544441879 -1.010353565
8.301215172 0.1521459967 -0.7226700783
8.720736504 0.1567901224 -0.4549052715
8.733297348 0.1554913074 -0.1517643183
8.734983444 0.1722961962 0.1517992467
8.74247551 0.1693912894 0.4560566843
8.725409508 0.1660139412 0.7597984076
8.604468346 0.1622106433 1.051545262
8.669478416 0.1604091227 1.366663218
8.658071518 0.1571749896 1.674984336
8.284963608 0.1475089788 1.903082728
7.414261818 0.1307122856 1.975359082
7.634434223 0.1212663502 -1.752815366
7.702442169 0.1209983304 -1.489136338
7.666565418 0.1177581251 -1.207725763
8.279508591 0.1242862642 -1.011572123
8.299725533 0.1216881648 -0.7224957943
8.701260567 0.12606062 -0.4538585842
8.733809471 0.1234789044 -0.1517643183
8.729557991 0.1401853263 0.1516945213
8.727061272 0.137094155 0.4552193284
8.729921341 0.1356193125 0.7601470947
8.593095779 0.130489558 1.050082803
8.648281097 0.1283082515 1.363221645
8.658567429 0.1269494146 1.674984336
8.289325714 0.1186417416 1.903982401
7.422417641 0.1036463007 1.977429628
7.646502495 0.09476295859 -1.755514622
7.698907852 0.09272108227 -1.48837316
7.670896053 0.08970585465 -1.208351493
8.277907372 0.09535956383 -1.01132834
8.294121742 0.09265095741 -0.7219727635
8.705658913 0.09420906752 -0.4540679157
8.72618866 0.092908144 -0.1516247094
8.727993965 0.1096851677 0.1516596228
8.707515717 0.106388025 0.4541725814
8.726373672 0.1035762653 0.7597984076
8.589529037 0.1004486382 1.049595356
8.640774727 0.09803150594 1.361970067
8.658974648 0.09521523863 1.674984336
8.272167206 0.08807415515 1.899933338
7.415007114 0.07765370607 1.975359082
7.65847826 0.06817314774 -1.758214116
7.689356804 0.06710227579 -1.486464977
7.683002949 0.06436858326 -1.210228682
8.70592308 0.06534128636 -0.4540679157
8.70645237 0.06382570416 -0.1512756646
8.730323792 0.07923809439 0.1516945213
8.711813927 0.07754957676 0.4543819129
8.718699455 0.07456742227 0.759101212
8.56799221 0.0702835694 1.04691422
8.62129879 0.06922025979 1.358841538
8.663168907 0.06652827561 1.675747514
8.276310921 0.06067240238 1.90083313
7.411360264 0.05303452536 1.974323869
1.015172362 0.005847475491 -0.2604240179
7.697397232 0.04030741006 -1.487991452
7.673297882 0.03883835673 -1.208664417
8.137424469 0.03835101798 -0.9940229058
8.157087326 0.03559255227 -0.7099453211
8.698101997 0.03643931448 -0.453649193
8.702623367 0.03341645375 -0.1512058526
8.714541435 0.05019646883 0.1514152884
8.712031364 0.04713687673 0.4543819129
8.694998741 0.04400969297 0.7570094466
8.572149277 0.04189182073 1.047401786
8.633340836 0.03917736933 1.360718727
8.647636414 0.03773300722 1.672694564
8.292056084 0.03328711912 1.904432297
7.394114017 0.02710508928 1.969665051
1.015186191 0.002480729716 -0.2604240179
7.705341816 0.01479464769 -1.489517927
7.679312229 0.01206057612 -1.209602952
8.137508392 0.009943705052 -0.9940229058
8.153175354 0.008536048234 -0.7095966339
8.690188408 0.00606915541 -0.4532305598
8.706685066 0.00455701258 -0.1512756646
8.704665184 0.01975172944 0.1512407511
8.716135025 0.01825243048 0.4545912743
8.699081421 0.01518448815 0.7573580146
8.574227333 0.01197375543 1.04764545
8.619595528 0.01053279545 1.358528614
8.632009506 0.007535003126 1.669641733
8.296019554 0.004342073575 1.905332088
7.382571697 0.002579077845 1.966559172
8.622185707 -0.01354370732 -1.66773355
7.874872208 -0.01374425832 -1.240576982
8.12757206 -0.01702237129 -0.9928043485
8.15514946 -0.01992682926 -0.7097710371
8.682170868 -0.02272991836 -0.4528118372
8.704648972 -0.02582728863 -0.1512407511
8.702682495 -0.009113430046 0.1512058526
8.696172714 -0.01214215532 0.4535445571
8.703065872 -0.01518972963 0.7577066422
8.552383423 -0.01641941816 1.044964314
8.641308784 -0.01960653998 1.361970067
8.631986618 -0.02109196596 1.669641733
8.295988083 -0.02316682786 1.905332088
7.320716381 -0.02299878374 1.949994802
8.606379509 -0.04356117547 -1.664680719
8.123484612 -0.04678842798 -0.9923167825
8.155030251 -0.04839348793 -0.7097710371
8.678034782 -0.05452641845 -0.4526025057
8.6965065 -0.05616036803 -0.1511011273
8.700591087 -0.04100087285 0.1511709541
8.676106453 -0.04239979014 0.4524978399
8.698975563 -0.045548141 0.7573580146
8.554250717 -0.04777644575 1.045208097
8.623409271 -0.04966782033 1.359154344
8.631851196 -0.05272963271 1.669641733
8.284154892 -0.05349748209 1.902632594
1.015156388 -0.008150372654 -0.2604240179
8.117329597 -0.07367256284 -0.9915856123
8.152817726 -0.07684077322 -0.7095966339
8.677806854 -0.08330352604 -0.4526025057
8.682260513 -0.08637724072 -0.1508567929
8.692408562 -0.06978861988 0.1510313302
8.675905228 -0.07268478721 0.4524978399
8.694779396 -0.07587818801 0.7570094466
8.554044724 -0.07614310086 1.045208097
8.607381821 -0.07962264866 1.356651425
8.63162899 -0.08135358989 1.669641733
8.295624733 -0.08108271658 1.905332088
7.399580002 -0.07490783185 1.97121799
1.015123844 -0.01151670888 -0.2604240179
8.578400612 -0.1018152982 -1.659337997
7.925652504 -0.0968349278 -1.248711586
8.119009018 -0.1020318419 -0.9918293357
8.13259697 -0.1036222279 -0.7078536153
8.677463531 -0.1135942191 -0.4526025057
8.673929214 -0.1150620952 -0.1507171839
8.688113213 -0.1000842899 0.1509615183
8.675616264 -0.1014547199 0.4524978399
8.674556732 -0.1044707596 0.7552663088
8.541817665 -0.1058542356 1.043745637
8.603118896 -0.1081156731 1.356025577
8.619514465 -0.1113309786 1.667351961
8.29918766 -0.1100910529 1.906231999
7.38576889 -0.0992635861 1.967594504
1.015077472 -0.01506008208 -0.2604240179
8.587807655 -0.1319096237 -1.661245942
7.945039749 -0.1234236434 -1.251840353
8.122594833 -0.1290179342 -0.9923167825
8.136169434 -0.1320743412 -0.7082021832
8.665056229 -0.1421724856 -0.4519744813
8.677473068 -0.1454060525 -0.1507869959
8.673737526 -0.1286869198 0.1507171839
8.675209045 -0.1317376643 0.4524978399
8.670155525 -0.1346880943 0.7549176812
8.539435387 -0.1341481656 1.043501854
8.606639862 -0.1382089406 1.356651425
8.599467278 -0.1395950466 1.663535714
8.29877758 -0.1376115531 1.906231999
7.371856689 -0.1248152032 1.963971138
1.01502192 -0.01842611656 -0.2604240179
8.583397865 -0.1603137702 -1.660482764
7.924809456 -0.1507804692 -1.248711586
8.110186577 -0.1571395397 -0.9908543229
8.143627167 -0.1606312394 -0.7088994384
8.652525902 -0.1721798927 -0.4513464272
8.68091011 -0.1757761389 -0.1508567929
8.665237427 -0.1588165462 0.1505775601
8.672699928 -0.1619816869 0.4523931742
8.669661522 -0.1634386182 0.7549176812
8.521052361 -0.1636125743 1.041308284
8.604130745 -0.1682122946 1.35633862
8.602853775 -0.1696893871 1.66429913
8.298246384 -0.1665788591 1.906231999
7.355924129 -0.1502314359 1.959829926
0.964731276 -0.02105051093 -0.2469654083
8.574900627 -0.1915969849 -1.658956289
7.924203873 -0.1798253357 -1.248711586
8.099666595 -0.1852215379 -0.9896357059
8.147000313 -0.1891493052 -0.7092480659
8.651836395 -0.2038918436 -0.4513464272
8.668250084 -0.2057923824 -0.1506473869
8.670628548 -0.1891937852 0.1506822854
8.654109955 -0.191855669 0.451451093
8.672987938 -0.1953031272 0.7552663088
8.518445015 -0.1933105588 1.04106462
8.60151577 -0.198199749 1.356025577
8.602174759 -0.2012192607 1.66429913
8.289787292 -0.19680731 1.904432297
7.365011215 -0.1761384457 1.962418199
1.014864087 -0.02568892762 -0.2604240179
8.558478355 -0.2211221457 -1.655903339
8.094964027 -0.2148017287 -0.98914814
8.142307281 -0.2174800932 -0.7088994384
8.651071548 -0.234091118 -0.4513464272
8.657443047 -0.2372877747 -0.1504728645
8.671875954 -0.2210229039 0.1507171839
8.651351929 -0.2235216796 0.4513464272
8.660302162 -0.2252654582 0.7542204261
8.525616646 -0.2247401327 1.042039514
8.582959175 -0.2292498648 1.353209853
8.601419449 -0.2312452495 1.66429913
8.302685738 -0.2261142284 1.907581568
7.383627415 -0.2036640346 1.967594504
0.9645608664 -0.02778503858 -0.2469654083
8.110039711 -0.2435337901 -0.9910981655
8.12954998 -0.245539844 -0.7078536153
8.646209717 -0.2641656101 -0.4511371255
8.646567345 -0.2671975791 -0.1502983272
8.66305542 -0.2510603368 0.1505775601
8.652515411 -0.2537777424 0.451451093
8.647514343 -0.2551416159 0.7531745434
8.528749466 -0.2546172142 1.04252696
8.578158379 -0.2590893507 1.352584124
8.588785172 -0.2609107196 1.662009358
8.305740356 -0.2552143037 1.908481359
7.361630917 -0.2287763804 1.961900473
0.9644579291 -0.03115181252 -0.2469654083
7.629691124 -0.2531029284 -1.202406883
8.109140396 -0.2718416452 -0.9910981655
8.13262558 -0.2740499377 -0.7082021832
8.6372509 -0.2940730453 -0.4507184029
8.649579048 -0.2975156009 -0.1503681391
8.646136284 -0.2807792425 0.1502983272
8.645587921 -0.2837825418 0.4511371255
8.638607025 -0.2850627303 0.7524773479
8.517888069 -0.2840557396 1.041308284
8.571278572 -0.2888315022 1.35164547
8.572124481 -0.2903578281 1.658956289
8.314538002 -0.2845384777 1.910730958
0.9643433094 -0.03451821208 -0.2469654083
7.635534763 -0.2773134708 -1.476924539
7.57743597 -0.2778519392 -1.194272399
8.100206375 -0.2998523712 -0.9901231527
8.141573906 -0.3028067052 -0.709073782
8.620204926 -0.3236214519 -0.449881047
8.650485992 -0.3277821243 -0.1504030377
8.641107559 -0.3108144701 0.1502285302
8.636561394 -0.3136695921 0.4507184029
8.641540527 -0.3153606653 0.7528259158
8.500974655 -0.3132022917 1.039358377
8.576140404 -0.3189693689 1.352584124
8.571059227 -0.3202783763 1.658956289
8.309598923 -0.3134129941 1.909831166
7.425490856 -0.2826628089 1.979500175
0.9642169476 -0.03788419068 -0.2469654083
7.603132725 -0.3027151227 -1.470818639
7.592210293 -0.3049346507 -1.196775317
8.085282326 -0.3261518776 -0.9884169698
8.140467644 -0.3312242329 -0.709073782
8.615031242 -0.3535458148 -0.4496717155
8.637364388 -0.3559723496 -0.1501936167
8.639970779 -0.3409756422 0.1502285302
8.629486084 -0.3420704007 0.4504044056
8.640386581 -0.3455233574 0.7528259158
8.501813889 -0.3429543376 1.03960216
8.567140579 -0.3470872343 1.351332545
8.569888115 -0.3501950204 1.658956289
8.296832085 -0.3404874802 1.907131791
7.517161846 -0.311119616 2.004346609
0.9177636504 -0.03910756111 -0.2345421165
7.57070446 -0.326572597 -1.464712739
7.55958128 -0.3287365437 -1.191769361
8.09010601 -0.3532216549 -0.98914814
8.131361961 -0.3578667939 -0.7083764672
8.61780262 -0.3822894096 -0.449881047
8.620154381 -0.383901149 -0.149914369
8.64278698 -0.3697958887 0.1502983272
8.620323181 -0.3703420162 0.4499857128
8.635212898 -0.3740015924 0.7524773479
8.496663094 -0.3709723353 1.039114714
8.556074142 -0.3750624359 1.349768162
8.572603226 -0.3787852228 1.659719586
8.299550056 -0.3681716025 1.908031464
7.489069939 -0.3348377049 1.997099757
0.9446463585 -0.04339178279 -0.2417890429
7.569518089 -0.352997303 -1.464712739
7.582128048 -0.3549115658 -1.195523858
8.096755028 -0.3818333149 -0.9901231527
8.116132736 -0.38558653 -0.7071563005
8.616415977 -0.412368834 -0.449881047
8.618761063 -0.4139887989 -0.149914369
8.633523941 -0.3980859518 0.1501587033
8.62296772 -0.4006156623 0.4501950443
8.621984482 -0.4020780623 0.7514314651
8.499352455 -0.399332583 1.03960216
8.550766945 -0.4047397077 1.349142551
8.563384056 -0.4083328247 1.658193111
8.30600071 -0.3975128531 1.909831166
7.462770462 -0.3597680926 1.990370631
1.013942361 -0.05029963329 -0.2604240179
7.489742279 -0.3767928779 -1.449448109
7.54131937 -0.3807071745 -1.189266443
8.099267006 -0.4117083251 -0.9906105995
8.110685349 -0.4151273072 -0.7068077326
8.61085701 -0.4437412024 -0.4496717155
8.617185593 -0.4455753565 -0.149914369
8.612034798 -0.4287324548 0.1498096585
8.627426147 -0.4325177372 0.4505090714
8.616473198 -0.433476299 0.7510828376
8.4879179 -0.4299793839 1.038383365
8.553171158 -0.4362782836 1.349768162
8.550065994 -0.439112246 1.655903339
8.316165924 -0.4285549521 1.912530541
7.474906921 -0.3878187537 1.993994117
0.9172953367 -0.04887613654 -0.2345421165
7.50406456 -0.403778553 -1.452500939
7.528038502 -0.4077039659 -1.187389255
8.089775085 -0.4409587383 -0.9896357059
8.111176491 -0.4435451925 -0.7069820166
8.593300819 -0.4729179442 -0.4488343
8.627557755 -0.4763136208 -0.1501238048
8.614398956 -0.4605077207 0.1498794705
8.609909058 -0.4617747664 0.4496717155
8.618804932 -0.4652691185 0.7514314651
8.468446732 -0.4601170123 1.036189795
8.547652245 -0.4659167826 1.349142551
8.540641785 -0.4685248137 1.654376984
8.314538956 -0.4590323567 1.912530541
7.446502686 -0.4124130607 1.986747146
0.963408947 -0.05470632389 -0.2469654083
1.039176226 -0.05919066072 -0.2303464562
7.526645184 -0.4326656163 -1.187389255
8.565876961 -0.495405376 -1.048376679
8.5750103 -0.4989368916 -0.7477709055
8.58371067 -0.5009463429 -0.448415637
8.605880737 -0.5052545071 -0.14977476
8.61282444 -0.4890715778 0.1498794705
8.596281052 -0.4911426008 0.4490436912
8.609170914 -0.4948940873 0.7507341504
8.470836639 -0.4884253442 1.036677241
8.542029381 -0.4955220222 1.348516822
8.542960167 -0.497072041 1.655140162
8.305189133 -0.486146301 1.910730958
7.356306553 -0.433179915 1.962935805
0.9747924209 -0.05859630182 -0.2500712276
7.528577328 -0.4565109909 -1.457843661
7.531004429 -0.4592966437 -1.188327909
8.558151245 -0.5249382854 -1.04764545
8.583251953 -0.5279815197 -0.7486424446
8.589882851 -0.5313993096 -0.4488343
8.600166321 -0.5335422158 -0.1497049481
8.615056992 -0.5193736553 0.1499492675
8.598591805 -0.5198872685 0.4492529929
8.611461639 -0.5236823559 0.7510828376
8.473042488 -0.5182335377 1.037164688
8.526537895 -0.5229991674 1.346326709
8.545091629 -0.5271311998 1.655903339
8.307331085 -0.5153751373 1.91163063
7.503294468 -0.4668084979 2.002793789
0.9398788214 -0.05979094654 -0.2407537699
7.511264324 -0.4817824364 -1.454790711
7.535353661 -0.4846481085 -1.189266443
8.556364059 -0.5533151627 -1.04764545
8.567439079 -0.5570346117 -0.7474222779
8.58807373 -0.5598814487 -0.4488343
8.592265129 -0.5631668568 -0.1496002376
8.605304718 -0.5474315286 0.1498096585
8.594732285 -0.5497712493 0.4491483271
8.593673706 -0.5527155995 0.7496883273
8.463355064 -0.5458173156 1.036189795
8.52466011 -0.5527591109 1.346326709
8.535461426 -0.5549554825 1.654376984
8.31724453 -0.5436831713 1.914330125
7.486197948 -0.4919835329 1.998652816
0.9165449142 -0.06135888398 -0.2345421165
7.533131123 -0.5082740188 -1.459370136
7.529674053 -0.5106811523 -1.188640714
8.562302589 -0.5837191939 -1.048620462
8.557594299 -0.5848987103 -0.7467250824
8.578097343 -0.5893085599 -0.448415637
8.588355064 -0.5915192962 -0.1495653391
8.587379456 -0.5763949156 0.1495304257
8.596846581 -0.578537643 0.4493576586
8.583842278 -0.5806723833 0.7489911318
8.459417343 -0.5752218962 1.035946131
8.516866684 -0.580621779 1.345388055
8.521719933 -0.5839410424 1.652087331
8.305575371 -0.572042942 1.912080765
7.445980549 -0.5141444802 1.988300085
0.9625749588 -0.06781627983 -0.2469654083
7.54697752 -0.5356784463 -1.462423086
7.527938843 -0.5356476307 -1.188640714
8.54843998 -0.6112600565 -1.047158003
8.553513527 -0.6146240234 -0.7465507388
8.562151909 -0.6167468429 -0.4476829469
8.59222126 -0.6219276786 -0.1496700346
8.585420609 -0.6048685312 0.1495304257
8.580828667 -0.607555151 0.4486249685
8.589712143 -0.6111976504 0.7496883273
8.44162178 -0.6021412015 1.033996105
8.508877754 -0.6099239588 1.34444952
8.52365303 -0.6124783754 1.652850509
8.299744606 -0.5993013978 1.911180735
7.471115112 -0.5420898795 1.995546937
0.9546136856 -0.07077251375 -0.2448948622
7.535174847 -0.5626050234 -1.460515022
8.112840652 -0.6085835695 -1.28187561
8.561711311 -0.6497696042 -0.4477876127
8.579914093 -0.6526571512 -0.1494955122
8.583035469 -0.6378296614 0.1495304257
8.570577621 -0.6384079456 0.4482062757
8.587413788 -0.6426764131 0.7496883273
8.443206787 -0.634847939 1.034483671
8.506586075 -0.6411064863 1.34444952
8.521237373 -0.6452022791 1.652850509
8.291553497 -0.6307221055 1.909831166
7.476783276 -0.5700567365 1.997617364
0.9158397913 -0.07111322135 -0.2345421165
7.591883183 -0.5934945941 -1.471963525
8.004432678 -0.6271512508 -1.264980793
7.957009792 -0.6290250421 -0.6946058869
8.559509277 -0.6781576872 -0.4477876127
8.565624237 -0.6816509962 -0.1492860913
8.584860802 -0.6665981412 0.1496002376
8.566305161 -0.6681657434 0.4481016099
8.58114624 -0.6723369956 0.7493396997
8.441056252 -0.6628431082 1.034483671
8.482633591 -0.66908741 1.341007948
8.519051552 -0.6734560728 1.652850509
8.30495739 -0.6594484448 1.913430333
7.445862293 -0.5938482881 1.989853024
1.011876345 -0.08194690943 -0.2604240179
8.482157707 -0.6913989782 -1.645981312
7.998258114 -0.6547657847 -1.264355063
7.997382641 -0.6575045586 -0.9801298976
7.938881397 -0.6554847956 -0.6932114363
8.557090759 -0.7080318332 -0.4477876127
8.561199188 -0.7113807797 -0.1492511779
8.578495026 -0.6962372661 0.1495304257
8.563920975 -0.6980636716 0.4481016099
8.562983513 -0.6994917393 0.7479452491
8.446603775 -0.6929531693 1.035458565
8.486152649 -0.6991798878 1.341946602
8.508822441 -0.7025427222 1.651323915
8.318140984 -0.6897224188 1.9170295
7.34170866 -0.6113391519 1.962418199
0.9384205341 -0.07946117222 -0.2407537699
8.461961746 -0.7209829688 -1.642546773
7.99580431 -0.6840764284 -1.264355063
8.002948761 -0.6860947609 -0.9811047912
7.944485188 -0.6838762164 -0.6939086914
8.550458908 -0.7390464544 -0.4475782812
8.560657501 -0.7414332628 -0.1492860913
8.560070992 -0.7248277664 0.1492511779
8.569392204 -0.7286298871 0.4485203028
8.556391716 -0.7305330038 0.7475966215
8.436222076 -0.7217561603 1.034483671
8.48169136 -0.7286286354 1.341633558
8.494454384 -0.7327121496 1.649034142
8.303908348 -0.7191964388 1.914330125
0.9342886209 -0.0823969543 -0.2397184968
8.480905533 -0.7524248958 -1.646744609
7.977626801 -0.7105807662 -1.261852145
8.004460335 -0.7143790722 -0.9815923572
7.914267063 -0.7091142535 -0.6914682984
8.535891533 -0.7678149939 -0.446950227
8.565981865 -0.772028923 -0.1494257003
8.553373337 -0.7558451295 0.149181366
8.554859161 -0.757481277 0.4478922784
8.561727524 -0.7611014843 0.748293817
8.417701721 -0.7512598634 1.032533646
8.481064796 -0.7584068179 1.341946602
8.495756149 -0.7627100348 1.649797559
8.318946838 -0.7483005524 1.918379307
7.173719406 -0.6478102803 1.918418884
0.9609435797 -0.08796006441 -0.2469654083
3.638001919 -0.3362064064 -0.571976006
7.907168388 -0.732133925 -0.9698927999
7.93171072 -0.73719877 -0.6932114363
8.529320717 -0.7957457304 -0.4467408657
8.563374519 -0.8004304767 -0.1494257003
8.550820351 -0.7842050195 0.149181366
8.54036808 -0.7847496271 0.4472642243
8.559156418 -0.7894889712 0.748293817
8.417141914 -0.7793529034 1.032777429
8.476535797 -0.786344409 1.341633558
8.489269257 -0.790514648 1.649034142
8.3086586 -0.7751590014 1.916579604
7.167685032 -0.6712353826 1.917383552
0.9606466293 -0.09114617854 -0.2469654083
3.638638735 -0.3471565843 -0.7022399306
3.650631666 -0.3495867252 -0.5741660595
8.530611038 -0.8244099021 -0.446950227
8.542615891 -0.8285799623 -0.1491115689
8.556135178 -0.8133131862 0.1493210047
8.531611443 -0.8139871359 0.446950227
8.55252552 -0.81748873 0.7479452491
8.499479294 -0.8154124618 1.04325819
8.450144768 -0.8136563897 1.3378793
8.494418144 -0.8194158077 1.650560737
8.298143387 -0.8034057021 1.91478014
7.163375378 -0.6960642934 1.916865945
1.008369565 -0.09940456599 -0.2599063516
3.604129314 -0.3571988642 -0.6957524419
3.615909338 -0.3596410155 -0.5688472986
8.506310463 -0.8475432992 -1.044476867
8.556806564 -0.8555911779 -0.7486424446
8.531505585 -0.856069386 -0.4471595585
8.537682533 -0.8581941724 -0.1490766704
8.545284271 -0.8423899412 0.149181366
8.538656235 -0.8447461724 0.4474735558
8.537575722 -0.8476487994 0.7468993664
8.492631912 -0.8446834087 1.042770743
8.451184273 -0.8435403109 1.33850503
8.479637146 -0.8493698239 1.648270965
8.328104973 -0.8371277452 1.92242837
7.149369717 -0.7199036479 1.913760185
0.9349856377 -0.09546700865 -0.2402361035
3.606766701 -0.3701783419 -0.6965156198
3.598912001 -0.3706417382 -0.5663443804
8.475502968 -0.8758580685 -1.04106462
8.498277664 -0.8797106743 -0.7437617183
8.528466225 -0.8858445883 -0.4471595585
8.538612366 -0.8884049654 -0.1491464674
8.528214455 -0.8722800016 0.1489370465
8.535655022 -0.8745464683 0.4474735558
8.530601501 -0.8770378232 0.7465507388
8.46380806 -0.8731565475 1.03960216
8.45211792 -0.8734413981 1.33913064
8.468810081 -0.8781542182 1.646744609
8.309625626 -0.864579916 1.918829203
7.150656223 -0.7452557683 1.914795518
0.9615429044 -0.1015712768 -0.2474830449
3.601547956 -0.3823515773 -0.6957524419
3.593734503 -0.3821563423 -0.5657186508
8.497136116 -0.90958184 -0.7439360023
8.505622864 -0.911991775 -0.4461128116
8.535459518 -0.9182047844 -0.1491464674
8.529251099 -0.9009758234 0.1490068436
8.520634651 -0.9030731916 0.4468455613
8.531450272 -0.9072310925 0.7468993664
8.470736504 -0.9022700787 1.040820837
8.449016571 -0.9029394984 1.33913064
8.461946487 -0.9058149457 1.645981312
8.298962593 -0.8912984133 1.9170295
7.155693531 -0.7710395455 1.916865945
0.9496780038 -0.1035034582 -0.2443772256
3.588550568 -0.3930102289 -0.6934626698
3.594341993 -0.3949142396 -0.566031456
8.477236748 -0.9343979955 -1.042039514
8.521633148 -0.942302525 -0.7463763952
8.502387047 -0.9416764379 -0.4461128116
8.53021431 -0.9477726221 -0.1491115689
8.522078514 -0.9303091168 0.1489370465
5.209772587 -0.5705628991 0.2724621296
8.536316872 -0.936386466 0.7475966215
8.483320236 -0.933570087 1.042770743
8.441887856 -0.9319930077 1.33850503
8.466538429 -0.9362102747 1.647507787
8.295800209 -0.9202618003 1.9170295
7.160639286 -0.7968675494 1.918936491
0.9377740622 -0.1056854352 -0.2412714064
3.571479559 -0.4043931961 -0.6904097199
3.58894515 -0.4076396525 -0.5654057264
8.479842186 -0.964656651 -1.042770743
8.494539261 -0.9693322778 -0.7442846894
8.500864029 -0.9730601311 -0.4462175369
8.508974075 -0.9754930735 -0.1487974077
8.526729584 -0.9609469175 0.1490766704
5.231564999 -0.5914372802 0.2737182081
4.215101719 -0.478014648 0.3674232364
8.466202736 -0.9616084099 1.04106462
8.422881126 -0.9596660733 1.336002111
8.459150314 -0.9667896628 1.646744609
8.286563873 -0.9499953985 1.915679932
7.161652565 -0.8222987056 1.919971824
0.9297237396 -0.1080660447 -0.2392008305
3.579652548 -0.4192457795 -0.5641542673
8.484134674 -0.9966567159 -1.043745637
8.479230881 -0.9975811243 -0.7432388067
8.515266418 -1.004834294 -0.4471595585
8.50534153 -1.006673455 -0.1487974077
8.515203476 -0.9912675023 0.1489370465
5.229362011 -0.6106079817 0.2737182081
8.462621689 -0.9926322103 1.04106462
8.423230171 -0.9909926653 1.336627722
8.455723763 -0.9963116646 1.646744609
8.300615311 -0.9809735417 1.919728994
7.147079945 -0.8471774459 1.916865945
0.9293407798 -0.1113107279 -0.2392008305
2.543290377 -0.3059705496 -0.4896787107
3.564439058 -0.4300821126 -0.5619641542
8.480603218 -1.02626574 -1.043745637
8.479652405 -1.027652383 -0.7435874343
8.491880417 -1.032142162 -0.4461128116
8.513685226 -1.037808299 -0.1490068436
8.497793198 -1.019317985 0.1486927122
5.282721043 -0.6355377436 0.2766489983
4.20374918 -0.5064764023 0.3667259514
8.459104538 -1.022166133 1.04106462
8.423642159 -1.020864487 1.337253451
8.440500259 -1.02440238 1.644454956
8.306812286 -1.011119485 1.921978474
7.144079208 -0.8721203208 1.916865945
0.9481198788 -0.1169184223 -0.2443772256
2.557794094 -0.3167768419 -0.4927316606
3.55507493 -0.4415478408 -0.5607126951
8.47303009 -1.055371642 -1.04325819
8.483922005 -1.058232188 -0.7442846894
8.492189407 -1.062273741 -0.4463222027
8.524086952 -1.067774892 -0.1492511779
8.496168137 -1.049219608 0.1487276107
5.240942001 -0.6481497288 0.2745555639
8.439725876 -1.049727559 1.039114714
8.420210838 -1.048792601 1.337253451
8.436872482 -1.053858876 1.644454956
8.303233147 -1.040109515 1.921978474
7.152648926 -0.8972488642 1.919971824
0.9323740005 -0.1182822511 -0.2402361035
2.566410303 -0.3269438446 -0.4946397245
3.553591013 -0.4533344507 -0.5607126951
8.465546608 -1.082959771 -1.042770743
8.476223946 -1.087332964 -0.7439360023
8.480696678 -1.089411378 -0.4459035099
8.50642395 -1.095734596 -0.1490068436
8.492642403 -1.077388287 0.1487276107
8.49674511 -1.083936572 0.7456791997
8.436198235 -1.07770896 1.039114714
8.416498184 -1.078178287 1.337253451
8.441121101 -1.082829952 1.645981312
8.292006493 -1.066643715 1.920178771
7.151389122 -0.9224579334 1.92048943
0.928145349 -0.1208744943 -0.2392008305
2.58088541 -0.3374889791 -0.4976926744
3.55590415 -0.466249615 -0.5613384247
8.453841209 -1.111468315 -1.041795731
8.464671135 -1.114395142 -0.7432388067
8.470901489 -1.118223667 -0.4455895126
8.494618416 -1.124371529 -0.1488672346
8.500727654 -1.108578086 0.1489370465
5.236289024 -0.6847223043 0.2745555639
8.564222336 -1.121419191 0.7519543767
8.438289642 -1.107925415 1.039845824
8.395057678 -1.105230331 1.334437728
8.437289238 -1.112288237 1.645981312
8.295960426 -1.096603274 1.921978474
7.15004015 -0.9476690888 1.921007037
0.9085698128 -0.1215519086 -0.2340244651
2.59720397 -0.3488480747 -0.501127243
3.538593531 -0.4765500128 -0.5588355064
8.464967728 -1.147517443 -0.4454848468
8.464882851 -1.150515199 -0.1484134793
8.486894608 -1.136916637 0.1487625092
8.488138199 -1.140099287 0.4466362
8.418632507 -1.135251522 1.037895918
8.377445221 -1.132675052 1.332247615
8.429465294 -1.141206503 1.645218134
8.303668022 -1.127127528 1.924677968
7.139032364 -0.9715795517 1.918936491
0.9387622476 -0.1289282739 -0.2423066795
2.619308472 -0.3611295819 -0.5057066679
3.525167704 -0.4872763157 -0.5569583178
7.905142307 -1.095522881 -0.9747675657
7.902135849 -1.09651196 -0.6942572594
8.452997208 -1.175957918 -0.4450661242
8.459040642 -1.178303719 -0.1483785659
8.451179504 -1.162176013 0.1482040435
8.472438812 -1.166605949 0.4460081756
8.424450874 -1.165991902 1.039114714
8.399079323 -1.163974404 1.336314917
8.409873962 -1.168462634 1.642165184
8.307402611 -1.157181263 1.926477432
7.135771275 -0.9952481985 1.918936491
0.9076991081 -0.1278918982 -0.2340244651
2.643302917 -0.373844564 -0.5106676817
3.519620895 -0.4984095693 -0.5563325882
7.891640186 -1.120336413 -0.9735489488
7.906150818 -1.125211835 -0.6949545741
8.453005791 -1.204546094 -0.4452754557
8.47269249 -1.21036911 -0.1486927122
8.461138725 -1.192147493 0.1484483778
8.47820282 -1.197570086 0.4465315342
8.49677372 -1.203218579 0.7470736504
8.41464138 -1.193086028 1.038383365
8.416478157 -1.196343541 1.33975637
8.409840584 -1.196897388 1.642928362
8.307379723 -1.185273767 1.927377343
7.145639896 -1.022065282 1.922559977
0.9455111027 -0.1364186853 -0.2443772256
2.665364265 -0.3859844506 -0.5152471066
3.513949633 -0.5101246834 -0.555706799
7.860179901 -1.143874288 -0.9701366425
7.890546322 -1.149699807 -0.6939086914
8.470780373 -1.223676443 0.1486927122
8.464087486 -1.225726008 0.4460081756
8.512454987 -1.234247208 0.7488167882
8.410425186 -1.22245121 1.038383365
8.384884834 -1.221727967 1.335376263
8.405611038 -1.226245999 1.642928362
8.291621208 -1.212572694 1.924677968
7.151586533 -1.048403144 1.925148249
0.9450291395 -0.1397182941 -0.2443772256
2.673710585 -0.3967267275 -0.5171551704
3.519963264 -0.5235500336 -0.5569583178
5.16174221 -0.7668230534 0.4528358579
8.413960457 -1.252971292 1.039358377
8.374708176 -1.250114202 1.334437728
8.409046173 -1.256740212 1.644454956
8.291193008 -1.242085934 1.925577641
7.147882938 -1.073360443 1.925148249
0.9063340425 -0.137231946 -0.2340244651
2.699483395 -0.4101863503 -0.5224978328
3.502491474 -0.533454299 -0.5544553399
5.141987801 -0.7849978209 -0.6335334182
5.144698143 -0.7863305211 -0.4516156912
5.170609951 -0.7939854264 -0.0906111002
5.160262108 -0.7822588682 0.09040167183
8.44453907 -1.284655213 0.7435874343
8.4075737 -1.282034516 1.039114714
8.374198914 -1.279936671 1.335063338
8.400725365 -1.285491586 1.64369154
8.298363686 -1.272792697 1.928277135
7.136454582 -1.097130418 1.923077583
0.936394453 -0.145128876 -0.2423066795
2.732954025 -0.4250375628 -0.5293669701
3.48108983 -0.5426344872 -0.5513266325
7.869344234 -1.229492188 -0.9728176594
7.882010937 -1.232880592 -0.6942572594
4.191931725 -0.65868783 -0.07336812466
8.453550339 -1.311700463 0.1486229002
8.460656166 -1.315827727 0.4465315342
8.440003395 -1.314124227 0.7435874343
8.384550095 -1.31298542 1.641401887
8.301570892 -1.302960396 1.930076838
7.140215874 -1.123235464 1.925148249
0.9320402741 -0.1479542106 -0.2412714064
2.768214941 -0.4409188628 -0.5366176963
4.105193615 -0.6568106413 -0.5053268671
4.112490654 -0.6616593003 -0.07200683653
4.134103775 -0.6592162848 0.36254251
8.383559227 -1.344329357 1.642165184
8.300587654 -1.333996892 1.93097651
7.147494316 -1.151241302 1.928254008
0.9238905907 -0.1499686092 -0.2392008305
2.797662735 -0.4556283057 -0.5427235961
3.463470936 -0.5653030872 -0.549136579
4.07544899 -0.6666499972 -0.5019145608
4.078219414 -0.6678339839 -0.3578360975
4.097601414 -0.6724766493 -0.2154159397
4.072666168 -0.6698445082 -0.07134364545
4.099603653 -0.6661939025 0.07179740816
4.108276844 -0.6690753698 0.2159393132
4.129811287 -0.6733223796 0.3623681962
4.065769672 -0.6643381119 0.5006958246
4.092834473 -0.6702273488 0.650193274
8.38269043 -1.374220371 1.642928362
8.284342766 -1.361067533 1.928277135
7.14343214 -1.176183701 1.928254008
0.950042665 -0.1576192826 -0.2464477718
2.823167801 -0.4699039459 -0.5480661988
3.418610334 -0.5702391863 -0.5422534347
4.077013016 -0.6815264821 -0.5024020076
7.864509106 -1.316067338 -0.6939086914
8.436564445 -1.414824128 -0.4461128116
4.105919361 -0.6893055439 -0.07197192311
4.097253323 -0.6805001497 0.07179740816
4.12573719 -0.6859709024 0.2169860303
8.429465294 -1.404559612 0.7439360023
8.394482613 -1.401742578 1.039845824
8.353563309 -1.396408319 1.334750533
8.377841949 -1.403473258 1.642928362
8.291072845 -1.391912937 1.93097651
7.139492512 -1.199865818 1.928254008
0.926630497 -0.1570605338 -0.2402361035
2.889251947 -0.4912742376 -0.5614228845
3.13433218 -0.5335093737 -0.4968874156
7.836299896 -1.33948338 -0.691816926
8.43362236 -1.446130633 -0.1486577988
8.439489365 -1.433493853 0.4464268684
8.424510002 -1.433975458 0.7439360023
8.401530266 -1.431572676 1.041308284
8.383687973 -1.431544065 1.340382218
8.373142242 -1.431247354 1.642928362
8.290251732 -1.420057297 1.931876302
7.131453037 -1.224126339 1.927218795
0.8880325556 -0.1535494626 -0.2298833728
3.04235673 -0.5276938677 -0.5919523239
3.196675539 -0.5556097627 -0.5072121024
7.833777905 -1.365804195 -0.69199121
8.422803879 -1.471529484 -0.4459035099
8.438371658 -1.477285028 -0.1488323361
8.425428391 -1.458353043 0.1485530883
8.434434891 -1.462944627 0.4464268684
8.419709206 -1.461904168 0.7439360023
8.394526482 -1.460550547 1.04106462
8.352622986 -1.457765937 1.639875531
8.292923927 -1.450330019 1.933676004
7.123330116 -1.248345256 1.926183462
0.887491107 -0.1566483527 -0.2298833728
3.210276604 -0.5695253611 -0.5097150803
3.444355011 -0.612292707 -0.4244056046
7.83877039 -1.394886255 -0.6928628087
8.40188694 -1.498116851 -0.4450661242
8.433164597 -1.50673151 -0.1488323361
8.420286179 -1.487754345 0.1485530883
8.415510178 -1.489940166 0.4456941783
8.42436409 -1.493023992 0.744807601
8.356150627 -1.483943224 1.036920905
8.373490334 -1.490038037 1.340382218
8.355214119 -1.488290191 1.641401887
8.291646957 -1.479953766 1.934575677
7.137946129 -1.276603818 1.931359768
0.9173590541 -0.1652242392 -0.2381655723
3.160313606 -0.5709081888 -0.6159942746
3.177168369 -0.5750983357 -0.5047091842
3.436336994 -0.6232492328 -0.4236744046
7.873060226 -1.429358125 -0.6963490248
8.404465675 -1.528865576 -0.4454848468
8.427853584 -1.536159515 -0.1488323361
8.40913868 -1.516073227 0.1484483778
8.402396202 -1.517886281 0.4452754557
8.419100761 -1.522421479 0.744807601
8.356779099 -1.514164567 1.037652254
8.356575966 -1.517140746 1.33850503
8.353832245 -1.518148661 1.642165184
8.282596588 -1.508189797 1.933676004
7.1448493 -1.303592682 1.934465647
0.9737783074 -0.1788974553 -0.2536947131
3.150578499 -0.5805132389 -0.6144677401
3.167371511 -0.5847507119 -0.503457725
3.432188511 -0.6348794103 -0.4234306812
8.01299572 -1.483674407 -0.7092480659
8.399077415 -1.558193445 -0.4454848468
8.408677101 -1.563010573 -0.1485880017
8.415596008 -1.547587633 0.1486577988
8.397046089 -1.547206879 0.4452754557
8.417654037 -1.552522898 0.7451562285
8.359250069 -1.544768572 1.038627148
8.322093964 -1.540906549 1.333811998
8.352342606 -1.548015118 1.642928362
8.281113625 -1.53780365 1.934575677
7.136456966 -1.327818155 1.933430433
0.9313738346 -0.1744701117 -0.2423066795
3.144673824 -0.5907822847 -0.6137045622
3.157545805 -0.5943416357 -0.5022062063
3.42616272 -0.645522356 -0.4229431748
8.037135124 -1.517179489 -0.7118626833
8.397512436 -1.588244557 -0.4456941783
8.407377243 -1.591629982 -0.1486577988
8.404245377 -1.575848341 0.1485530883
8.405610085 -1.57762301 0.4460081756
8.396518707 -1.578951001 0.7437617183
8.357709885 -1.574673772 1.039114714
8.318879128 -1.568861127 1.334124804
8.346887589 -1.577160954 1.642928362
8.28362751 -1.566705227 1.93637538
7.120625973 -1.349318027 1.930324554
0.938380599 -0.1790056825 -0.2443772256
3.154267311 -0.603420496 -0.6159942746
3.149737358 -0.6036936641 -0.501267612
3.443498373 -0.660620451 -0.4253805578
7.87749052 -1.514114022 -0.698092103
8.386314392 -1.614949703 -0.4453801215
8.390271187 -1.617230296 -0.1484483778
8.389153481 -1.601834059 0.1483785659
8.400332451 -1.6054883 0.4460081756
8.391237259 -1.606786251 0.7437617183
8.34854126 -1.601632118 1.038627148
8.317509651 -1.597183943 1.334750533
8.330044746 -1.60260582 1.640638709
8.286040306 -1.595639944 1.938174844
7.116112232 -1.372923493 1.930324554
0.915024817 -0.1776970625 -0.2381655723
3.158030033 -0.6150029302 -0.617139101
3.149656773 -0.6145135164 -0.5015804768
3.427534103 -0.6699708104 -0.4236744046
6.94951582 -1.359662294 -0.6158171296
8.391646385 -1.631170988 0.1485181749
8.394677162 -1.634801149 0.4460081756
8.389774323 -1.635366321 0.7441104054
8.335391998 -1.627786398 1.037652254
8.3138237 -1.626587152 1.335063338
8.328536987 -1.630975246 1.641401887
8.276596069 -1.623803377 1.937275171
7.124546051 -1.400363088 1.93394804
0.9371404648 -0.1853888184 -0.2443772256
3.162992716 -0.6285844445 -0.5040834546
8.389825821 -1.661230206 0.1485880017
8.381083488 -1.662539601 0.4455895126
8.391830444 -1.666193962 0.744807601
8.327712059 -1.656484962 1.037408471
8.300346375 -1.654053569 1.333811998
8.261183739 -1.64774859 1.629190207
8.259411812 -1.650393367 1.934575677
7.130979538 -1.427499056 1.937053919
0.9478504062 -0.1909480095 -0.2474830449
8.387895584 -1.691296339 0.1486577988
8.377187729 -1.692180514 0.4456941783
8.382058144 -1.694687128 0.744459033
8.327716827 -1.686726332 1.038139701
8.290649414 -1.682231188 1.33318615
8.328491211 -1.691423297 1.64369154
8.268877029 -1.682322025 1.938174844
7.124060154 -1.451996207 1.936536193
0.8979741335 -0.1841643006 -0.2340244651
1.688000202 -0.3471107781 -0.3267278373
1.682311058 -0.346552968 -0.2653643787
1.68811202 -0.3483622968 -0.2065032125
1.697863817 -0.3506836593 -0.1479650736
1.734935999 -0.3589721918 -0.090647012
1.691790104 -0.3506608307 -0.02945786528
8.379982948 -1.720163345 0.1486229002
8.375141144 -1.722216606 0.4459035099
8.368285179 -1.72232914 0.7437617183
8.329554558 -1.717388511 1.039114714
8.286661148 -1.711560607 1.333498955
8.301388741 -1.716113091 1.639493942
8.262954712 -1.711175561 1.938174844
7.113273621 -1.475677729 1.934983253
0.9275833368 -0.1936133057 -0.2423066795
1.690621614 -0.3538051844 -0.3274910748
1.667557716 -0.3495861292 -0.2631742954
1.69465673 -0.355884701 -0.2074781656
1.684930682 -0.3541492522 -0.1469191909
1.676994562 -0.3530924916 -0.08761152625
1.692512512 -0.3569768369 -0.02949277125
8.366096497 -1.747768641 0.1484832764
8.376898766 -1.753077149 0.4463222027
8.362222672 -1.751529336 0.7437617183
8.319622993 -1.745638013 1.038627148
8.286436081 -1.741694808 1.334437728
8.208892822 -1.72689271 1.62232101
8.214980125 -1.731167674 1.928277135
7.115640163 -1.502094984 1.937053919
0.9250121713 -0.1964486837 -0.2417890429
1.720421076 -0.3669423461 -0.2719346285
8.887787819 -1.898887396 -1.110773802
1.703167558 -0.3641948104 -0.1486623138
1.708952188 -0.3660556376 -0.08939094841
8.835540771 -1.895788908 -0.1570349485
8.363856316 -1.777792573 0.1485530883
8.366820335 -1.781475306 0.4461128116
8.363852501 -1.782369256 0.744459033
8.305713654 -1.773011088 1.037652254
8.286101341 -1.771848559 1.335376263
8.22201252 -1.759645224 1.626137137
8.197455406 -1.757381916 1.925577641
7.123575211 -1.529763341 1.940677285
0.8865548968 -0.1915179938 -0.2314362824
8.842308998 -1.92146945 -1.105898976
8.858607292 -1.926630259 -0.7894313335
8.869622231 -1.932268858 -0.4735368788
8.844499588 -1.93002975 -0.1573142111
8.357600212 -1.806977034 0.1485530883
8.352744102 -1.808979154 0.4456941783
8.361474037 -1.812397718 0.744807601
8.299474716 -1.801992536 1.037652254
8.277935982 -1.800341845 1.335063338
8.279125214 -1.80211401 1.638730526
8.238870621 -1.796364307 1.936825275
7.12385416 -1.555856466 1.942230225
0.9198444486 -0.2020726055 -0.2407537699
8.85112381 -1.960626125 -0.4729088545
8.827947617 -1.958725333 -0.1571396738
8.36100769 -1.838286519 0.1487276107
8.346378326 -1.838124871 0.4456941783
8.355095863 -1.841573596 0.744807601
8.300887108 -1.832663774 1.038627148
8.260026932 -1.826666832 1.33318615
8.284285545 -1.833548188 1.641020298
8.236354828 -1.825955987 1.937724948
7.122150898 -1.581551433 1.943265438
0.941758275 -0.2103353441 -0.2469654083
8.8344841 -1.989316821 -0.4723855257
8.830809593 -1.991728544 -0.1573142111
8.350635529 -1.866588116 0.1486577988
8.351605415 -1.869866014 0.4463222027
8.340841293 -1.868984818 0.7441104054
8.302186966 -1.8633672 1.03960216
8.259383202 -1.856788754 1.334124804
8.24527359 -1.855128527 1.634532809
8.241337776 -1.857265592 1.940424442
7.110933781 -1.605126619 1.941712499
0.88826859 -0.2016466409 -0.2324715555
4.219559669 -0.9633082747 -0.5262883902
4.133606434 -0.9444445968 -0.3672488928
8.833327293 -2.021479368 -0.472699523
8.853040695 -2.029243231 -0.1578377783
8.338218689 -1.894396782 0.1485530883
8.34502697 -1.899007201 0.4463222027
8.334266663 -1.898088455 0.7441104054
8.289825439 -1.891011357 1.038870811
8.254776955 -1.88604784 1.334437728
8.273198128 -1.891776085 1.641401887
8.242402077 -1.887762189 1.942224145
7.114703178 -1.632098436 1.944300771
0.910148263 -0.2099569738 -0.2386832088
8.779263496 -2.030080557 -1.743293881
8.543894768 -1.981939793 -1.071775675
8.574661255 -1.990653872 -0.7664222121
8.835944176 -2.054563046 -0.4732228816
8.869635582 -2.06402874 -0.1582566351
8.325710297 -1.92214179 0.1484483778
8.334791183 -1.925770402 0.4461128116
8.339235306 -1.92986393 0.7451562285
8.283174515 -1.919936657 1.038870811
8.260023117 -1.916089654 1.336314917
8.27036953 -1.921532154 1.642165184
8.231966972 -1.915638804 1.941324353
7.122421741 -1.658749819 1.947924256
0.935742259 -0.219304055 -0.2459301353
8.78359127 -2.063407421 -1.745583653
8.545004845 -2.012081623 -1.072750688
8.598687172 -2.027890205 -0.7692111731
8.869902611 -2.093487263 -0.4754209816
8.990815163 -2.125338793 -0.1605603546
8.330972672 -1.952477932 0.1486577988
8.316352844 -1.952114224 0.4454848468
8.336327553 -1.959873557 0.7455048561
8.276762009 -1.947394252 1.038870811
8.24943924 -1.944004774 1.335689187
8.271593094 -1.950749278 1.64369154
8.210396767 -1.939342499 1.937724948
7.125988483 -1.685825586 1.950512528
0.923733294 -0.2197236121 -0.242824316
8.77670002 -2.092523813 -1.745583653
8.549512863 -2.044667244 -1.074212909
8.576413155 -2.052683115 -0.7678167224
8.331887245 -1.983398795 0.1487974077
8.321490288 -1.982458591 0.4461128116
8.329782486 -1.987507105 0.7455048561
8.271845818 -1.976735115 1.039114714
8.235261917 -1.969512224 1.334437728
8.26855278 -1.980525374 1.644454956
8.214945793 -1.970717788 1.940424442
7.127872467 -1.711250901 1.952583075
0.9154494405 -0.2211322933 -0.2407537699
8.830402374 -2.137930632 -1.757795453
8.55811882 -2.076752186 -1.076162934
8.325264931 -2.011017561 0.1487974077
8.31840229 -2.01243329 0.4463222027
8.315049171 -2.014694691 0.744807601
8.274889946 -2.006493568 1.040333271
8.228337288 -1.998246551 1.334437728
8.250494003 -2.005152464 1.642165184
8.212154388 -1.99887073 1.941324353
7.112470627 -1.733833432 1.949994802
0.9071280956 -0.2226441652 -0.2386832088
8.879699707 -2.184350252 -1.769243836
8.580918312 -2.117206097 -1.080062747
8.307772636 -2.040584564 0.1486229002
8.309031487 -2.042431593 0.4462175369
8.21668148 -2.022772789 0.7366150022
8.122570992 -2.002612352 1.022052884
7.950539112 -1.961670041 1.290323138
7.939690113 -1.961933732 1.581487775
8.215766907 -2.033196688 1.944023609
7.109818935 -1.760819197 1.951030135
0.9025962949 -0.2248752117 -0.2376479357
8.872020721 -2.215332747 -1.769243836
8.581552505 -2.147577524 -1.08103776
8.009902954 -1.995608211 0.1433871835
8.001484871 -1.996477723 0.4299933612
8.008543015 -2.001208544 0.7184865475
7.944490433 -1.986676216 1.000360131
7.934062958 -1.987011194 1.288758874
7.940758228 -1.990161061 1.583014369
8.15038681 -2.045723438 1.930076838
7.120491505 -1.789865017 1.955688834
0.9055916071 -0.2288135737 -0.2386832088
7.993194103 -2.021104574 0.1432126462
7.982850075 -2.021454096 0.4293653369
7.994137764 -2.025797129 0.7177893519
7.916342258 -2.009024143 0.9976791143
7.906018734 -2.009341717 1.285317302
7.1273036 -1.818051696 1.95931232
0.9047873616 -0.2319733053 -0.2386832088
6.867836952 -1.765916348 0.6166886687
6.815445423 -1.754981637 0.8589916825
6.778054714 -1.747876644 1.101976037
6.81459856 -1.758568764 1.359767795
6.775557041 -1.751016617 1.605697274
6.769309998 -1.751923084 1.861996412
0.859100759 -0.2234587818 -0.2262599021
6.858402252 -1.785201788 0.1230027676
6.847589493 -1.784939766 0.368655622
6.878981113 -1.794404745 0.618257463
6.832325459 -1.784782052 0.8619166017
6.812044144 -1.782024264 1.108546257
6.810317993 -1.782842636 1.360149503
6.786369324 -1.77910471 1.609746456
6.761284828 -1.775051355 1.861478686
0.8993685842 -0.2374555022 -0.2376479357
1.350933194 -0.3574364483 -0.263379246
1.314725637 -0.3483475745 -0.2087351084
1.339916587 -0.3552724123 -0.165067628
1.336723566 -0.3549252748 -0.1172862425
1.321812868 -0.3517072201 -0.02317499928
6.854062557 -1.8096416 0.1230376661
6.868350029 -1.815978765 0.370121032
6.843468189 -1.811956286 0.615642786
6.795351982 -1.800485492 0.858016789
6.777143002 -1.798192978 1.103853226
6.740254879 -1.793443203 1.600298405
6.654240131 -1.771800041 1.833526254
0.9097309113 -0.2435914874 -0.2407537699
1.287103295 -0.3453598619 -0.2507858276
1.27153194 -0.3416575491 -0.2018519938
1.284931779 -0.3457390368 -0.1582429409
1.293151379 -0.3481927216 -0.1134513989
1.297917604 -0.3499619961 -0.06824722141
1.289686799 -0.3479842246 -0.02261652239
6.810684204 -1.824917316 0.1223744825
6.827245235 -1.830632091 0.368236959
6.767828941 -1.817232847 0.609367609
6.744616032 -1.813524127 0.8524107933
6.595332146 -1.774618387 1.075069308
6.325369835 -1.704347372 1.265126586
6.263589859 -1.69004631 1.48782289
6.211590767 -1.677178741 1.712399006
0.9088751078 -0.246765554 -0.2407537699
1.276417971 -0.3472735286 -0.2488777488
1.272298098 -0.346391201 -0.2021648735
1.276117444 -0.3479095399 -0.1572679877
1.284240007 -0.350605607 -0.1127541512
1.262070179 -0.3447898328 -0.06636312604
1.286535501 -0.3519562781 -0.02258161828
6.7023139 -1.819722176 0.1205245182
6.762994289 -1.838732362 0.3650967777
6.276996136 -1.708951712 0.565441072
6.099324703 -1.664010525 0.9946619272
6.05074358 -1.651891232 1.210936785
5.989145279 -1.637321234 1.423486948
5.952289581 -1.629478693 1.642000079
