# .PCD v0.7 - Point Cloud Data file format
VERSION 0.7
FIELDS x y z
SIZE 4 4 4
TYPE F F F
COUNT 1 1 1
WIDTH 1243
HEIGHT 1
VIEWPOINT 0 0 0 1 0 0 0
POINTS 1243
DATA ascii
8.590368271 -0.5615367293 -0.1495653391
8.603404045 -0.5458030105 0.14977476
8.580874443 -0.5473811626 0.448415637
8.603711128 -0.5518534184 0.7505598664
8.469392776 -0.5447223186 1.036920905
8.522785187 -0.5511437654 1.346013904
8.54329586 -0.5554649234 1.655903339
8.311410904 -0.5433018208 1.912980437
7.492067337 -0.4910560548 2.000205517
0.9628058076 -0.06445585936 -0.2469654083
7.521378517 -0.5074810982 -1.457080364
7.561207771 -0.5128198862 -1.193646669
8.560321808 -0.5835841894 -1.048376679
8.559581757 -0.5850346088 -0.7468993664
8.590053558 -0.5901298523 -0.4490436912
8.588252068 -0.5930182338 -0.1495653391
8.601346016 -0.5773323774 0.14977476
8.592760086 -0.5797691345 0.4491483271
8.589805603 -0.5810757875 0.7495139837
8.469319344 -0.5758951902 1.037164688
8.504940987 -0.5812999606 1.343510866
8.529553413 -0.5844779015 1.653613687
8.325016975 -0.5733819008 1.916579604
7.455526829 -0.5161110163 1.990888238
0.8970543146 -0.06320016086 -0.2293657213
7.550894737 -0.535956502 -1.463186264
7.543608189 -0.5380858779 -1.191143632
8.558232307 -0.6134616733 -1.048376679
8.551525116 -0.6144811511 -0.7463763952
8.581963539 -0.6196795702 -0.4487296343
8.586129189 -0.6229932308 -0.1495653391
8.587309837 -0.6065078974 0.1495653391
8.576738358 -0.6087700725 0.448415637
8.57977581 -0.6104906797 0.7488167882
8.443498611 -0.6037561893 1.034239888
8.502860069 -0.6109842658 1.343510866
8.515712738 -0.6134017706 1.651323915
8.305472374 -0.60117203 1.912530541
7.465240479 -0.5429733992 1.993994117
0.935360074 -0.06918096542 -0.2397184968
7.550935745 -0.5624565482 -1.463567853
8.101126671 -0.6062830091 -1.279998422
8.555850029 -0.6478229761 -0.4474735558
8.583902359 -0.6529605389 -0.1495653391
8.577163696 -0.6358879805 0.1494257003
8.56659317 -0.6381112337 0.4479969442
8.581565857 -0.640732646 0.7491654158
8.441339493 -0.6332258582 1.034239888
8.504616737 -0.6409580708 1.344136715
8.513519287 -0.6431233287 1.651323915
8.305265427 -0.6303072572 1.912980437
7.467152119 -0.5693224072 1.99502933
0.9351128936 -0.07244555652 -0.2397184968
7.554798126 -0.5892688632 -1.464712739
8.012310982 -0.6277685165 -1.266232252
7.978968143 -0.6293596029 -0.6965233088
8.557518959 -0.6779999137 -0.4476829469
8.573596954 -0.682285428 -0.1494257003
8.582866669 -0.6664433479 0.1495653391
8.556349754 -0.667389214 0.4475782812
8.579277039 -0.67068398 0.7491654158
8.433139801 -0.6622215509 1.033508658
8.494448662 -0.6700193882 1.342885137
8.515137672 -0.6731466651 1.652087331
8.303014755 -0.6592942476 1.912980437
7.459342003 -0.594923377 1.99347651
0.9541232586 -0.07710214704 -0.2448948622
8.010185242 -0.6543347836 -1.266232252
7.999475002 -0.6562709808 -0.980373621
7.964923382 -0.6548359394 -0.6954774857
8.555223465 -0.70637393 -0.4476829469
8.559453964 -0.7082274556 -0.1492162794
8.580609322 -0.694901526 0.1495653391
8.558192253 -0.6945894957 0.4477876127
8.58097744 -0.6994539499 0.7495139837
8.432875633 -0.6903451085 1.033752322
8.486395836 -0.6962176561 1.341946602
8.516771317 -0.7017025948 1.652850509
8.31243515 -0.6877886057 1.915679932
7.355398178 -0.6098938584 1.966041565
0.9422982335 -0.07945824414 -0.2417890429
8.458300591 -0.7176972628 -1.641783595
8.007971764 -0.680893898 -1.266232252
8.017033577 -0.6844833493 -0.9828109145
7.954648018 -0.681953907 -0.6947801709
8.55681324 -0.7350820303 -0.4478922784
8.552946091 -0.737757504 -0.1491464674
8.570286751 -0.7226797938 0.1494257003
8.559695244 -0.7247959375 0.4479969442
8.562602043 -0.7280524969 0.7481195331
8.45031929 -0.7199910283 1.036189795
8.478009224 -0.7253312469 1.341007948
8.502660751 -0.7289351821 1.650560737
8.3139925 -0.7156840563 1.916579604
0.9420295358 -0.08258257806 -0.2417890429
8.469564438 -0.7469493151 -1.644454956
7.954384804 -0.704312861 -1.258097649
8.006687164 -0.7117607594 -0.9818360806
7.904714584 -0.7040863633 -0.6905967593
8.54226017 -0.7638791203 -0.4472642243
8.55230999 -0.7677872181 -0.149181366
8.551775932 -0.7511914968 0.1491464674
8.561092377 -0.7550213933 0.4482062757
8.556171417 -0.7560923696 0.7477709055
8.427981377 -0.7477294803 1.033752322
8.481328964 -0.7554463744 1.341946602
8.492241859 -0.7579123974 1.649034142
8.309502602 -0.7445271015 1.916129708
7.170097351 -0.6449599266 1.917383552
0.9417355657 -0.08587037772 -0.2417890429
3.624349594 -0.333668828 -0.5697859526
7.913226128 -0.7313018441 -0.9706240892
7.914112568 -0.7327768803 -0.6916425824
8.531586647 -0.7929532528 -0.4468455613
8.561524391 -0.7987502217 -0.1493908018
8.553084373 -0.7814020514 0.1492162794
8.552437782 -0.7843533754 0.4478922784
8.557447433 -0.7863190174 0.7481195331
8.413459778 -0.7760500312 1.032289863
8.476673126 -0.7848649621 1.341633558
8.485635757 -0.7871885896 1.648270965
8.316555023 -0.7744315863 1.918379307
7.165878773 -0.6698045731 1.916865945
0.9414300323 -0.08915711939 -0.2417890429
3.654334784 -0.3480105102 -0.7052928805
3.656591892 -0.3495134413 -0.5751047134
8.5327425 -0.8231127262 -0.4470548928
8.544751167 -0.8272816539 -0.1491464674
8.554286957 -0.8116310239 0.1492860913
8.537718773 -0.8130661845 0.4472642243
8.55465126 -0.816185236 0.7481195331
8.493694305 -0.8133613467 1.04252696
8.469948769 -0.8140713573 1.341007948
8.486743927 -0.8171805143 1.649034142
8.30216217 -0.8023322821 1.915679932
7.171188354 -0.6955601573 1.918936491
1.010326743 -0.09924143553 -0.2604240179
3.600346327 -0.3555549085 -0.6949892044
3.623897552 -0.3591580689 -0.5700987577
8.551891327 -0.850577414 -1.050082803
8.563052177 -0.853196919 -0.7491654158
8.531804085 -0.8530912399 -0.4471595585
8.539821625 -0.8569037914 -0.1491115689
8.551402092 -0.841486156 0.1492860913
8.530853271 -0.8424707651 0.4470548928
8.543818474 -0.8452569246 0.7474222779
8.488827705 -0.8428089023 1.042283297
8.449365616 -0.8418694735 1.338192105
8.483839989 -0.8467997909 1.649034142
8.328396797 -0.8342206478 1.92242837
7.159106255 -0.7196218371 1.916348338
0.9715355039 -0.09885630012 -0.2500712276
3.59713006 -0.3679204881 -0.6946075559
3.610831499 -0.3705955446 -0.5682215691
8.505428314 -0.8759499192 -1.04472065
8.512304306 -0.8796610832 -0.744981885
8.530761719 -0.8830733299 -0.4472642243
8.528822899 -0.8858816624 -0.148971945
8.54443264 -0.8709251881 0.1492162794
8.531834602 -0.8726502657 0.4472642243
8.528923988 -0.8738568425 0.7463763952
8.472011566 -0.8710141182 1.040577173
8.450304985 -0.8717635274 1.338817835
8.476926804 -0.8760052323 1.648270965
8.311864853 -0.8618801236 1.919279099
7.156550407 -0.7446075082 1.916348338
0.9519546628 -0.1003904417 -0.2448948622
3.597709894 -0.381309092 -0.6949892044
3.587841511 -0.3815296888 -0.5647799969
8.501257896 -0.9085224271 -0.7442846894
8.519524574 -0.9134824276 -0.4468455613
8.527666092 -0.9158608317 -0.1490068436
8.521453857 -0.8986484408 0.1488672346
8.530721664 -0.902636826 0.44736889
8.521701813 -0.9046904445 0.7460277677
8.474841118 -0.9012112617 1.041308284
8.445246696 -0.9010457397 1.33850503
8.461946487 -0.9058149457 1.645981312
8.310588837 -0.8925470114 1.919728994
7.157749176 -0.7699971199 1.917383552
0.936234653 -0.1020383015 -0.2407537699
3.592453718 -0.3934376836 -0.6942259073
3.58648777 -0.3940512836 -0.5647799969
8.491048813 -0.9359204769 -1.043745637
8.515857697 -0.9401593208 -0.7458534837
8.492462158 -0.9405771494 -0.4455895126
8.530379295 -0.9462839365 -0.1491115689
8.518102646 -0.9298750758 0.1488672346
5.219799042 -0.5707390904 0.2729854882
8.532355309 -0.9359518886 0.7472479343
8.469507217 -0.9320500493 1.04106462
8.445976257 -0.9309524298 1.33913064
8.45483017 -0.9349156022 1.645218134
8.303547859 -0.9211212397 1.918829203
7.158857346 -0.795404315 1.918418884
0.9589095712 -0.1078978926 -0.2469654083
3.579353571 -0.4046519995 -0.6919362545
3.585161448 -0.4059423804 -0.5647799969
8.481982231 -0.9634006619 -1.043014407
8.504605293 -0.9689773321 -0.7451562285
8.497233391 -0.9696397781 -0.4460081756
8.519078255 -0.9751450419 -0.148971945
8.518947601 -0.9585642815 0.1489370465
5.227698326 -0.5900761485 0.2735088468
4.231022358 -0.479072243 0.3688177168
8.458480835 -0.9592360854 1.040089607
8.438750267 -0.9599822164 1.33850503
8.459486961 -0.9638367891 1.646744609
8.288831711 -0.9473240972 1.916129708
7.163714886 -0.8212687969 1.92048943
0.9124903083 -0.105740115 -0.2345421165
3.585684776 -0.4186835289 -0.5650929213
8.482510567 -0.9934642315 -1.043501854
8.493430138 -0.9962459803 -0.744459033
8.495780945 -0.9995281696 -0.4461128116
8.495763779 -1.002532959 -0.1486229002
8.521509171 -0.988986671 0.149041757
5.215687752 -0.6071659327 0.2729854882
8.462966919 -0.9896781445 1.04106462
8.425538063 -0.9882825017 1.336940646
8.4560709 -0.993359983 1.646744609
8.295150757 -0.9773919582 1.918379307
7.160804749 -0.8462697864 1.92048943
0.9696622491 -0.1157968715 -0.2500712276
2.541448116 -0.304848969 -0.4892971218
3.572433949 -0.4297816753 -0.563215673
8.478991508 -1.023067594 -1.043501854
8.478033066 -1.024453402 -0.7434131503
8.514050484 -1.031821132 -0.4472642243
8.502137184 -1.033388734 -0.1487974077
8.510062218 -1.01777637 0.1489021331
5.271044731 -0.6322665215 0.2760209739
4.184144497 -0.502632618 0.3649828434
8.459461212 -1.019213319 1.04106462
8.412231445 -1.016502142 1.335376263
8.448653221 -1.022399306 1.645981312
8.307165146 -1.008219838 1.921978474
7.148217678 -0.8700933456 1.917901158
0.9309039116 -0.114465557 -0.2397184968
2.554007769 -0.315402776 -0.4919684231
3.551307917 -0.4398212433 -0.5600869656
8.471427917 -1.052169323 -1.043014407
8.470451355 -1.05354917 -0.7430645227
8.488595009 -1.058815002 -0.4461128116
8.50660038 -1.062568665 -0.1489370465
8.49851799 -1.046498179 0.1487625092
5.312528133 -0.6551201344 0.2783237398
8.451911926 -1.048247457 1.040577173
8.422535896 -1.046096802 1.337566257
8.433342934 -1.050428391 1.64369154
8.307461739 -1.037694097 1.922878265
7.145293236 -0.8937928081 1.917901158
0.9764965177 -0.1235333532 -0.2521418035
2.574314833 -0.3270376325 -0.4961662591
3.549829721 -0.451595366 -0.5600869656
8.467892647 -1.080255866 -1.043014407
8.470674515 -1.08361578 -0.7434131503
8.475132942 -1.085689425 -0.4455895126
8.512756348 -1.093529701 -0.1491115689
8.496984482 -1.074925542 0.1487974077
8.495145798 -1.080719113 0.7455048561
8.432635307 -1.074262381 1.038627148
8.416873932 -1.075240254 1.337253451
8.429813385 -1.078388691 1.64369154
8.303975105 -1.065236807 1.922878265
7.153626442 -0.9202080965 1.921007037
0.9339348078 -0.1212969497 -0.2407537699
2.584896564 -0.3370958269 -0.4984559119
3.552149296 -0.4644961059 -0.5607126951
8.452260971 -1.108259201 -1.041552067
8.478887558 -1.113255858 -0.744459033
8.467330933 -1.114745259 -0.4453801215
8.505119324 -1.121230245 -0.149041757
8.495164871 -1.10483706 0.1488323361
5.224763393 -0.6804329157 0.2739275098
8.527075768 -1.113527894 0.7486424446
8.428833961 -1.103691101 1.038627148
8.409344673 -1.102632046 1.336627722
8.433784485 -1.108831406 1.645218134
8.29634285 -1.093707204 1.921978474
7.160111904 -0.9451894164 1.923595309
0.9335057139 -0.1245562509 -0.2407537699
2.599271059 -0.3482020795 -0.501508832
3.53884244 -0.4746971726 -0.5588355064
8.434766769 -1.134429574 -1.039845824
8.459629059 -1.142283201 -0.44517079
8.463502884 -1.145814657 -0.1483785659
8.485507965 -1.132208467 0.1487276107
8.478835106 -1.134330511 0.4461128116
8.415291786 -1.130314827 1.037408471
8.376079559 -1.128024697 1.33193481
8.43006134 -1.13679266 1.645218134
8.304256439 -1.122779608 1.924677968
7.149112225 -0.9691390395 1.921524763
0.948399663 -0.1297459602 -0.2448948622
2.619497299 -0.3597580492 -0.5057066679
3.533250093 -0.4865081906 -0.5582097769
7.899816513 -1.090569377 -0.9740363955
7.902709007 -1.092374325 -0.6942572594
8.455590248 -1.171805859 -0.44517079
8.449547768 -1.173974872 -0.1482040435
8.459710121 -1.158836126 0.1483436525
8.468888283 -1.16310513 0.4457988441
8.427025795 -1.161851764 1.039358377
8.383831978 -1.158878922 1.333811998
8.422152519 -1.165673733 1.644454956
8.300287247 -1.151759982 1.924677968
7.141858101 -0.9935557246 1.92048943
0.9096791148 -0.1276851445 -0.2345421165
2.639610052 -0.3719126284 -0.5099044442
3.519794703 -0.4971809387 -0.5563325882
7.895961285 -1.118138194 -0.9740363955
7.904765129 -1.12079227 -0.6947801709
8.467267036 -1.203562975 -0.4460081756
8.467175484 -1.206565261 -0.1485880017
8.455613136 -1.188359022 0.1483436525
8.474664688 -1.194053173 0.4463222027
8.507266998 -1.20016098 0.7479452491
8.422919273 -1.191260576 1.039358377
8.409072876 -1.192296505 1.33850503
8.402482033 -1.1928581 1.641401887
8.311650276 -1.182922959 1.928277135
7.138346672 -1.018479466 1.92048943
0.9092278481 -0.1308597475 -0.2345421165
2.665498734 -0.3850540519 -0.5152471066
3.514127493 -0.5088980198 -0.555706799
7.874330044 -1.143126845 -0.9718428254
7.890947342 -1.146945357 -0.6939086914
8.465270042 -1.219864011 0.1485880017
8.478351593 -1.224770308 0.4467408657
8.487251282 -1.22756803 0.7465507388
8.414780617 -1.220085144 1.038870811
8.389221191 -1.219369173 1.336002111
8.402153015 -1.222746372 1.642165184
8.299757004 -1.210803509 1.926477432
7.15004015 -1.045626998 1.924630523
0.9661007524 -0.1424890459 -0.2500712276
2.69132781 -0.3983807266 -0.5205897689
3.504513979 -0.5200018287 -0.5544553399
5.163980007 -0.7653132081 0.4530101717
8.406543732 -1.248867393 1.038383365
8.382959366 -1.248354793 1.335689187
8.405599594 -1.253225684 1.64369154
8.291625977 -1.239191651 1.925577641
7.153988838 -1.071723819 1.926701188
0.9579567313 -0.1447063237 -0.2480006814
2.693803072 -0.4083613157 -0.5213530064
3.502677441 -0.5322316289 -0.5544553399
5.14029932 -0.7829040885 -0.6332896948
5.150880814 -0.7854355574 -0.4521385729
5.18274641 -0.793997407 -0.09082052857
5.164489269 -0.7810556293 0.09047148377
8.448925972 -1.28230536 0.7439360023
8.409982681 -1.279398203 1.039358377
8.366834641 -1.275822401 1.333811998
8.405056 -1.283151627 1.644454956
8.291101456 -1.268716693 1.926477432
7.14638567 -1.096103668 1.925665855
0.9230809212 -0.1427355111 -0.2386832088
2.731162071 -0.4237824976 -0.5289853215
3.492990732 -0.5432408452 -0.5532038212
7.865849972 -1.226133704 -0.9723302722
7.872597694 -1.228592992 -0.6933857203
8.435673714 -1.322499633 -0.1483436525
8.467840195 -1.310890913 0.1488672346
8.463088036 -1.313180447 0.4466362
8.442430496 -1.311483979 0.7437617183
8.396645546 -1.311876893 1.64369154
8.302025795 -1.300062418 1.930076838
7.134881496 -1.119844317 1.923595309
0.9492906928 -0.1501830518 -0.2459301353
2.758750677 -0.4379304051 -0.5347096324
4.119259357 -0.6568491459 -0.5070330501
4.189078331 -0.6687321067 -0.3674232364
4.093092442 -0.6563398838 -0.07165779173
4.12067461 -0.6548627019 0.3613223135
8.380383492 -1.339319825 1.641401887
8.297436714 -1.329033852 1.930076838
7.138558865 -1.145967722 1.925665855
0.9220619202 -0.1491762996 -0.2386832088
2.799838781 -0.4544779956 -0.5431052446
3.45206809 -0.5615864992 -0.5472593307
4.077756405 -0.664835453 -0.5021582842
4.123794556 -0.6730802655 -0.3618452549
4.119634628 -0.6738778353 -0.2165673375
4.076962471 -0.6683588028 -0.07141344994
4.123639584 -0.667883873 0.07221625745
4.146083832 -0.6730043888 0.2179280818
4.118363857 -0.6692425013 0.3613223135
4.068076134 -0.662528336 0.5009396076
4.097084045 -0.668720603 0.650818944
8.375658035 -1.368564606 1.641401887
8.300438881 -1.359248996 1.931876302
7.142140388 -1.172130346 1.927736282
0.9291594625 -0.1536547393 -0.2407537699
2.825350285 -0.46874699 -0.5484478474
3.411113977 -0.5671531558 -0.5410019755
4.07541132 -0.6790654063 -0.5021582842
4.105698109 -0.6848484278 -0.3604507446
8.447154045 -1.412053227 -0.4466362
4.117993355 -0.6898546815 -0.07218135893
4.105500698 -0.6796612144 0.07193702459
4.11612463 -0.6828963161 0.2164626569
8.443957329 -1.402430773 0.7451562285
8.399132729 -1.39799881 1.040333271
8.35794735 -1.39414227 1.335376263
8.378575325 -1.399086237 1.642928362
8.291800499 -1.387571454 1.93097651
7.145626068 -1.198331952 1.929806828
0.9171883464 -0.1549661458 -0.2376479357
2.887573004 -0.489433229 -0.5610412359
3.113095999 -0.5287765265 -0.4934458435
7.857748508 -1.337504268 -0.9735489488
7.840928078 -1.336049438 -0.6921655536
8.434298515 -1.440186024 -0.4462175369
8.436097145 -1.443524003 -0.1486927122
8.425051689 -1.424990654 0.1484483778
8.436052322 -1.429880381 0.4462175369
8.435081482 -1.431230545 0.744807601
8.364713669 -1.425299406 1.337253451
8.377511024 -1.428984404 1.64369154
8.290747643 -1.417163372 1.931876302
7.141399384 -1.223267555 1.929806828
0.9242566228 -0.1594807208 -0.2397184968
3.005785465 -0.5202698708 -0.5847015977
3.191030264 -0.5534811616 -0.5062735081
7.822476387 -1.361020446 -0.6909453273
8.419382095 -1.467903256 -0.4456941783
8.427325249 -1.470803618 -0.1486229002
8.423967361 -1.455071807 0.1485181749
8.433232307 -1.458187819 0.4463222027
8.424145699 -1.45964551 0.7442846894
8.400902748 -1.458638787 1.041795731
8.3608675 -1.456197619 1.641401887
8.297268867 -1.448105216 1.934575677
7.129692078 -1.245612741 1.927736282
0.9541352987 -0.1680680811 -0.2480006814
3.210574389 -0.5678443313 -0.5097150803
3.460312128 -0.6132603884 -0.4263555408
7.841218472 -1.392498136 -0.6930370927
8.410535812 -1.495115757 -0.4454848468
8.433952332 -1.502315521 -0.1488323361
8.417126656 -1.482651591 0.1484832764
8.428090096 -1.487616539 0.4463222027
8.418999672 -1.489042282 0.7442846894
8.37060833 -1.481990218 1.038627148
8.360653877 -1.483237863 1.338192105
8.34826088 -1.482542276 1.639875531
8.292421341 -1.475612044 1.934575677
7.129104614 -1.271170735 1.928771615
0.9345582724 -0.1678168029 -0.242824316
3.170273066 -0.5709933639 -0.6179023385
3.169693232 -0.5720313191 -0.503457725
3.442523003 -0.6225095987 -0.4244056046
7.87184763 -1.424880862 -0.6961747408
8.401333809 -1.523751974 -0.4452754557
8.430623055 -1.532103896 -0.1488672346
8.405995369 -1.510962605 0.1483785659
8.414983749 -1.515610814 0.4459035099
8.417936325 -1.517659426 0.744633317
8.355617523 -1.509435773 1.037408471
8.357369423 -1.512764931 1.33850503
8.350761414 -1.51307416 1.641401887
8.287220001 -1.504549026 1.934575677
7.147431374 -1.300197124 1.934983253
0.9339668155 -0.1710780114 -0.242824316
3.16439867 -0.5813467503 -0.617139101
3.163791418 -0.5823768973 -0.5028319359
3.438376904 -0.6341623068 -0.4241618812
8.01181221 -1.479117036 -0.709073782
8.392036438 -1.552342296 -0.4450661242
8.425223351 -1.561522841 -0.1488672346
8.408536911 -1.541738272 0.1485181749
8.405714035 -1.544253707 0.4456941783
8.416505814 -1.547755122 0.744981885
8.356154442 -1.539672375 1.038139701
8.328725815 -1.537624717 1.334750533
8.34542942 -1.542214394 1.641401887
8.274252892 -1.532048464 1.932776213
7.150447369 -1.32654798 1.937053919
0.9181719422 -0.1714994907 -0.2386832088
3.143053055 -0.5887741446 -0.6133229136
3.161739111 -0.5934170485 -0.5028319359
3.428338766 -0.6446931958 -0.423186928
8.049675941 -1.515182376 -0.712908566
8.398343086 -1.583847284 -0.4456941783
8.390247345 -1.585353732 -0.1483436525
8.40900135 -1.572182894 0.1486229002
8.404197693 -1.574321032 0.4459035099
8.41105175 -1.577124715 0.744981885
8.35463047 -1.569564104 1.038627148
8.311660767 -1.564495444 1.332873344
8.351570129 -1.573517084 1.64369154
8.276514053 -1.562367558 1.934575677
7.145772934 -1.351499677 1.937053919
0.8682259917 -0.1653088927 -0.2252246141
3.148692369 -0.6012147665 -0.6148493886
3.155768394 -0.6037076712 -0.5022062063
3.441664457 -0.6596457958 -0.4251368344
7.89171505 -1.513991833 -0.6993122697
8.39080143 -1.612776399 -0.4455895126
8.382699013 -1.614253402 -0.148308754
8.393640518 -1.599654317 0.1484483778
8.402573586 -1.604396701 0.4461128116
8.3859272 -1.602735043 0.7432388067
8.354949951 -1.59983778 1.039358377
8.311969757 -1.594615936 1.333811998
8.338315964 -1.601179242 1.642165184
8.274837494 -1.591984749 1.935475707
7.120146275 -1.372412801 1.931359768
0.9207452536 -0.178641215 -0.2397184968
3.14464736 -0.6118271947 -0.6144677401
3.149764061 -0.6139638424 -0.5015804768
3.435444117 -0.6708945036 -0.4246493578
6.947797775 -1.358067155 -0.615642786
8.384079933 -1.628181458 0.1483785659
8.404765129 -1.635243416 0.4465315342
8.392015457 -1.634282708 0.7442846894
8.357107162 -1.630512834 1.040333271
8.312168121 -1.624756932 1.334750533
8.321115494 -1.62801373 1.639875531
8.280703545 -1.623108745 1.938174844
7.120998859 -1.398375034 1.932912707
0.8860026598 -0.17511186 -0.2304009944
3.134789705 -0.6212736368 -0.6129413247
3.153414249 -0.6261088848 -0.5025190711
3.425293446 -0.6813332438 -0.4236744046
8.37834549 -1.657437325 0.1483785659
8.391168594 -1.663018107 0.4461128116
8.386259079 -1.663566351 0.7442846894
8.329949379 -1.655418515 1.037652254
8.310320854 -1.654533267 1.335376263
8.276873589 -1.649376035 1.632243156
8.267343521 -1.650477886 1.93637538
7.125545979 -1.42511785 1.935500979
0.9194756746 -0.1850648373 -0.2397184968
8.386231422 -1.689437509 0.1486229002
8.377482414 -1.690718412 0.4456941783
8.392118454 -1.695196629 0.7453305721
8.318282127 -1.683304191 1.036920905
8.302558899 -1.683139563 1.335063338
8.309547424 -1.686065793 1.639875531
8.257713318 -1.678549767 1.935475707
7.128099918 -1.4515239 1.937571526
0.9453195333 -0.1937023699 -0.2469654083
1.686137676 -0.3464210629 -0.3263462186
1.697893739 -0.3500719368 -0.2077219039
1.707681298 -0.3524006605 -0.1488366276
1.75455761 -0.3627127409 -0.09169372916
1.676186204 -0.3471214771 -0.0291786287
8.384200096 -1.719504237 0.1486927122
8.369572639 -1.719548941 0.4455895126
8.378343582 -1.722874999 0.744633317
8.335686684 -1.717136025 1.039845824
8.286959648 -1.710114241 1.333498955
8.301688194 -1.714664221 1.639493942
8.259435654 -1.708943605 1.937275171
7.126773357 -1.477181077 1.938606858
0.918161273 -0.1914794147 -0.2397184968
1.669544578 -0.3490901589 -0.3232932687
1.661818385 -0.3480801582 -0.2622357011
1.690833211 -0.3547736406 -0.2069907039
1.686942339 -0.3542646766 -0.1470935196
1.68878305 -0.3552667797 -0.08823955804
1.680834413 -0.3542073369 -0.02928334102
8.374232292 -1.747943044 0.1486229002
8.375249863 -1.751206398 0.4462175369
8.364478111 -1.75047791 0.7439360023
8.323813438 -1.745000958 1.039114714
8.282874107 -1.739436865 1.333811998
8.232250214 -1.730305791 1.626900434
8.205747604 -1.72772646 1.926027536
7.117793083 -1.501251698 1.937571526
0.8985895514 -0.1906732917 -0.2345421165
1.732077122 -0.3691123426 -0.273811847
1.714821935 -0.3660610318 -0.2101592869
1.68569541 -0.3601510227 -0.1470935196
1.72464025 -0.3691011965 -0.09022831917
8.831960678 -1.893408179 -0.1569651514
8.356343269 -1.774671435 0.1484134793
8.372992516 -1.781261802 0.4464268684
8.362215042 -1.780494571 0.7442846894
8.317671776 -1.774045825 1.039114714
8.284478188 -1.76998961 1.335063338
8.220399857 -1.757799506 1.625755548
8.190139771 -1.754318714 1.923778176
7.123842239 -1.528519988 1.940677285
0.8979185224 -0.1938088089 -0.2345421165
8.844583511 -1.920347333 -1.106142759
8.849207878 -1.922968626 -0.7885597944
8.893379211 -1.935818434 -0.4747929573
8.847126961 -1.927368045 -0.1573491096
8.357914925 -1.805518389 0.1485530883
8.355327606 -1.806485653 0.4457988441
8.355948448 -1.80967319 0.7442846894
8.303668976 -1.80138576 1.038139701
8.282423973 -1.79829061 1.335689187
8.275603294 -1.799834609 1.637967348
8.248703957 -1.797000289 1.939074874
7.120621681 -1.552546501 1.941194892
0.9274273515 -0.2035687864 -0.242824316
8.876937866 -1.958219051 -1.111017466
8.824505806 -1.951498866 -0.4714434445
8.844249725 -1.959103346 -0.1574189067
8.349928856 -1.832795739 0.1485181749
8.348970413 -1.835640073 0.4457988441
8.365146637 -1.842258096 0.7456791997
8.297649384 -1.828911662 1.038139701
8.279953957 -1.828042269 1.336314917
8.286842346 -1.831080079 1.641401887
8.233186722 -1.822238445 1.936825275
7.130247593 -1.580737948 1.945336103
0.9267471433 -0.2066431046 -0.242824316
8.831279755 -1.985356569 -0.4721761346
8.831504822 -1.988645792 -0.1573142111
8.357141495 -1.864979625 0.1487625092
8.346409798 -1.865643501 0.4460081756
8.351213455 -1.868247867 0.744981885
8.298963547 -1.859601021 1.039114714
8.260030746 -1.853905439 1.334124804
8.236343384 -1.850099087 1.632624745
8.236281395 -1.853105307 1.939074874
7.122801781 -1.605192661 1.944818377
0.8958398104 -0.2032009661 -0.2345421165
4.135714054 -0.9441666603 -0.3674232364
8.841468811 -2.02171874 -0.4731182158
8.845952034 -2.024368525 -0.1576981395
8.344731331 -1.892813206 0.1486577988
8.335951805 -1.893881679 0.4457988441
8.336540222 -1.897075772 0.7442846894
8.302098274 -1.890762448 1.040333271
8.257360458 -1.883605599 1.334750533
8.285010338 -1.892955661 1.64369154
8.235133171 -1.884584546 1.940424442
7.115272045 -1.629614949 1.944300771
0.9177148342 -0.21153377 -0.2407537699
8.777704239 -2.028106213 -1.742912292
8.534571648 -1.978207469 -1.070556879
8.592474937 -1.993209124 -0.7679910064
8.84213829 -2.054376602 -0.4735368788
8.862204552 -2.060668945 -0.1581170112
8.32604599 -1.920688629 0.1484483778
8.340966225 -1.92566371 0.4464268684
8.333749771 -1.927061796 0.744633317
8.287377357 -1.919386864 1.039358377
8.254584312 -1.913309813 1.335376263
8.270704269 -1.920088649 1.642165184
8.243689537 -1.916849971 1.944023609
7.118947506 -1.656631112 1.946888924
0.9056851268 -0.2120929956 -0.2376479357
8.787773132 -2.062771797 -1.746346831
8.556949615 -2.013317823 -1.074212909
8.569952011 -2.019534349 -0.7665965557
8.860548019 -2.089646816 -0.4748976231
8.991187096 -2.123769522 -0.1605603546
8.323525429 -1.949200034 0.1485181749
8.33419323 -1.954767346 0.4464268684
8.334730148 -1.957962871 0.7453305721
8.273237228 -1.945040941 1.038383365
8.269005775 -1.947092533 1.338817835
8.264291763 -1.94750464 1.642165184
8.2183218 -1.939700246 1.939524651
7.124401569 -1.684137106 1.949994802
0.9312896729 -0.2213492692 -0.2448948622
8.798072815 -2.095996618 -1.749781489
8.547939301 -2.042713642 -1.073969245
8.629091263 -2.063698769 -0.7725231051
8.3244524 -1.980093837 0.1486577988
8.319547653 -1.981995702 0.4460081756
8.335943222 -1.987439394 0.7460277677
8.268327713 -1.97436893 1.038627148
8.248710632 -1.972728491 1.336627722
8.265078545 -1.978168249 1.64369154
8.213395119 -1.968829751 1.939974546
7.125994205 -1.710799932 1.952065468
0.9267554879 -0.2236921638 -0.2438595891
8.794519424 -2.127618074 -1.750544667
8.548473358 -2.074411631 -1.074944258
8.321377754 -2.01007843 0.1487276107
8.31840229 -2.01243329 0.4463222027
8.338637352 -2.0188694 0.7468993664
8.26910305 -2.005090237 1.03960216
8.226417542 -1.997780561 1.334124804
8.2657547 -2.008861303 1.645218134
8.214047432 -1.999331474 1.941774249
7.121855736 -1.736121178 1.952583075
0.8921951652 -0.2186488807 -0.2345421165
8.882367134 -2.181718588 -1.769625425
8.564310074 -2.109937191 -1.077869177
8.320137024 -2.040542364 0.1488323361
8.311326981 -2.041457653 0.4463222027
8.261886597 -2.030842781 0.7406240702
8.03718853 -1.981561422 1.304402232
7.944187641 -1.960102916 1.582251191
8.210801125 -2.028926611 1.942674041
7.119502068 -1.761898637 1.953618169
0.910173595 -0.2264256179 -0.2397184968
8.874697685 -2.212710619 -1.769625425
8.587703705 -2.147524357 -1.08176887
8.027714729 -1.998557925 0.1437013149
8.009585381 -1.997013927 0.4304120839
8.001508713 -1.996483684 0.7177893519
7.96794796 -1.991064429 1.00328505
7.934409618 -1.985626578 1.288758874
7.933487415 -1.98686707 1.581487775
8.152634621 -2.044775248 1.930526614
7.1151824 -1.787210345 1.954135895
0.9206160903 -0.2324388474 -0.242824316
7.995485783 -2.020199537 0.1432475597
7.992884636 -2.022510767 0.4298886955
7.992558956 -2.023912668 0.7176150084
7.939783573 -2.013498068 1.000604033
7.912111759 -2.009420395 1.286255836
7.567556858 -1.926133037 1.792856455
7.135108471 -1.818716288 1.961382866
0.9197990894 -0.2356509566 -0.242824316
6.793662548 -1.750636935 1.104478955
6.807301521 -1.755418658 1.35824132
6.777749062 -1.75032115 1.60614717
6.777097225 -1.752676487 1.864066958
0.8890553713 -0.2310845554 -0.2345421165
6.866454601 -1.786018252 0.123142384
6.846279621 -1.782046318 0.3685509562
6.879293919 -1.793204069 0.618257463
6.83647871 -1.78459239 0.862404108
6.795464516 -1.775152802 1.105730414
6.822024822 -1.784635186 1.362439156
6.779139042 -1.775944591 1.607946873
6.769379616 -1.774650693 1.863549352
0.8994514346 -0.2371415198 -0.2376479357
1.305503011 -0.3449287415 -0.2542203963
1.311088324 -0.3466492891 -0.2081093788
1.311255932 -0.3471833766 -0.1614115536
1.284849644 -0.3406716883 -0.1125798449
1.374599814 -0.3647253513 -0.07232942432
1.325800896 -0.3522728682 -0.02324480936
6.870162964 -1.811327338 0.1233169138
6.863190651 -1.812051654 0.3698070049
6.863362312 -1.814660072 0.6173859239
6.820928097 -1.804714322 0.8611853719
6.781589031 -1.79683888 1.104478955
6.774320602 -1.79617846 1.354043603
6.758144379 -1.79441452 1.604347587
6.667927265 -1.77295208 1.837149739
0.8762636185 -0.2341385484 -0.2314362824
1.289180398 -0.3451936841 -0.2511674464
1.28315866 -0.3440613747 -0.2037292123
1.292781353 -0.3471253216 -0.159217909
1.277940392 -0.3433794975 -0.1120569035
1.288457274 -0.3466876447 -0.06772386283
1.28787744 -0.3470137715 -0.02258161828
6.842547894 -1.829615593 0.1229329482
6.849106312 -1.833931327 0.3693883419
6.768779755 -1.813689113 0.609367609
6.757069111 -1.813079357 0.8538731933
6.660812855 -1.789744377 1.08570683
6.362284184 -1.710720897 1.272377372
6.313398838 -1.699939847 1.499520302
6.225232124 -1.678530812 1.716022372
0.8978164196 -0.2432583869 -0.2376479357
1.280388951 -0.3476339877 -0.2496409565
1.272418976 -0.345947057 -0.2021648735
1.281985044 -0.3490284979 -0.1579992175
1.272889376 -0.3467908502 -0.1117082834
1.275678277 -0.3480290473 -0.06709583104
1.290516257 -0.352561146 -0.02265142649
6.755058765 -1.831511497 0.121466957
6.779055595 -1.840558171 0.3659341633
6.33749342 -1.721858859 0.5708447695
6.438477993 -1.751709223 0.8141437769
6.12468195 -1.668631673 0.998729229
6.062684059 -1.65287745 1.213226438
6.016035557 -1.642415643 1.42978549
5.973356724 -1.633004904 1.64769423
0.9155902267 -0.2515079975 -0.242824316
1.273488998 -0.3505381942 -0.2484961301
1.271203637 -0.3503865004 -0.2021648735
1.2864995 -0.3550858498 -0.1587304324
1.283194065 -0.3544145226 -0.1127541512
1.276380658 -0.353012234 -0.06720050424
1.283496141 -0.3554625213 -0.02254671231
6.177884579 -1.698193312 0.1111351326
6.164087296 -1.696715117 0.3328578472
6.024107933 -1.659315825 0.5429549217
5.930952072 -1.635884047 0.7502843142
5.886522293 -1.625840545 0.9605592489
5.829801083 -1.611269474 1.167432308
5.784889698 -1.601030231 1.375797391
5.729325294 -1.587805629 1.581436515
0.8849300146 -0.2464110702 -0.2345421165
1.274148703 -0.3555090129 -0.2488777488
1.275680304 -0.3564163148 -0.2031034678
1.264223576 -0.3536912203 -0.1560492963
1.283867717 -0.3594286442 -0.1129284576
1.271294355 -0.3563872576 -0.06699115783
1.268770576 -0.3561574817 -0.02230237983
5.99084568 -1.669293404 0.1078540757
8.297369957 -2.315106153 0.4492529929
5.784161568 -1.614966989 0.5216889381
5.714909554 -1.597782135 0.7234730124
5.641129017 -1.579277515 0.9211377501
5.602955818 -1.569645286 1.122782946
5.561613083 -1.56015718 1.323608637
5.493124008 -1.543012977 1.517249346
0.8989382386 -0.2536961734 -0.2386832088
4.340915203 -1.227536917 -0.8686254025
1.323845387 -0.3748600185 -0.2112380713
5.620131016 -1.59881568 -0.1012919694
8.332784653 -2.353228807 0.1504379511
8.262331009 -2.336446762 0.4477876127
5.540766716 -1.567878962 0.5000742674
5.49920845 -1.558192611 0.6966617703
5.430342197 -1.540727377 0.8873479366
5.395361423 -1.53181982 1.081949949
5.349942207 -1.520942926 1.274119377
5.31304884 -1.512459159 1.468591332
0.9054768085 -0.2589573264 -0.2407537699
4.285646915 -1.228080153 -0.8583217263
5.142831802 -1.47565484 -0.8407304883
5.455302238 -1.567374229 -0.6917870045
5.440324306 -1.564098954 -0.4915329814
5.466308594 -1.573635578 -0.2959086299
8.316086769 -2.397171021 -0.1503681391
5.479191303 -1.56802845 0.09877882153
5.493186474 -1.574108481 0.2972693741
5.351399899 -1.534489274 0.4833403528
5.310567379 -1.524787188 0.6732628345
5.25027132 -1.509458542 0.8585639596
5.193761349 -1.494193196 1.0422616
5.179812431 -1.492138386 1.234528065
5.103557587 -1.47210145 1.411651134
0.8637458086 -0.2502876222 -0.2293657213
4.285104752 -1.244127035 -0.8590849042
4.853122234 -1.410880804 -0.7938001156
5.274447441 -1.535363793 -0.6693630219
5.255020142 -1.530703664 -0.4751477242
8.302326202 -2.421479702 -0.4510324597
5.213412285 -1.522533059 -0.094101578
5.320037842 -1.542593598 0.09598644078
5.288181305 -1.535357833 0.2863835096
5.169990063 -1.502020717 0.4673036933
5.099355698 -1.483430028 0.6469390988
5.059107304 -1.473637342 0.8279027939
5.013225555 -1.461222053 1.006771207
4.998727322 -1.458889484 1.192237258
4.942626953 -1.444388986 1.368169546
0.8962323666 -0.2630957663 -0.2386832088
4.282618999 -1.259631038 -0.8594664931
4.844378471 -1.426696897 -0.793174386
5.101500511 -1.504356146 -0.6479139924
5.08912611 -1.501672864 -0.4605055451
5.118078232 -1.512157917 -0.2774863839
5.054662228 -1.495340228 -0.09130919725
5.122757435 -1.504795313 0.09249595553
5.106508732 -1.501958728 0.2767536938
5.019454479 -1.47730577 0.4540560246
4.938007832 -1.455208063 0.6269524693
4.883417606 -1.440973401 0.799744606
4.848048687 -1.431456447 0.9743335843
4.821676731 -1.425499797 1.150846243
4.778249264 -1.414474845 1.323652625
0.8804947734 -0.2618177235 -0.2345421165
4.263144016 -1.270088315 -0.8564136028
4.820438862 -1.437951326 -0.790045619
4.940249443 -1.475569248 -0.6279274225
4.915865421 -1.469220757 -0.4451661408
4.963521481 -1.485351443 -0.2693219781
4.86934948 -1.459022403 -0.08802814037
4.97180748 -1.479326129 0.08984319121
4.921307564 -1.466170311 0.2669145167
4.830969334 -1.44017458 0.4373221397
4.757899284 -1.420199871 0.6045285463
4.719375134 -1.410494924 0.7734636068
4.688785076 -1.402244091 0.9430409074
4.65238905 -1.393128872 1.111254811
4.610441208 -1.382321715 1.278100491
0.8943737149 -0.2693462074 -0.2386832088
4.264323235 -1.286662936 -0.8575584292
4.768116474 -1.440487146 -0.7822239399
4.760262489 -1.439927936 -0.6055034995
4.739081383 -1.434423923 -0.4294781089
4.763342381 -1.443582296 -0.2586454451
4.684354305 -1.421429753 -0.08474709094
4.78280735 -1.44128263 0.08649232984
4.744069576 -1.431415439 0.2574940622
4.673324108 -1.410959721 0.4233771861
4.623701572 -1.397739053 0.5879542828
4.574513435 -1.384612441 0.7503113151
4.550455093 -1.378197551 0.9159459472
4.52068615 -1.370904326 1.080661535
4.487282753 -1.36248529 1.244971752
0.8675584793 -0.2645770609 -0.2314362824
4.265439034 -1.303261518 -0.8587033153
4.645943165 -1.421294093 -0.7628260851
4.622591019 -1.415032506 -0.5884417892
4.615940094 -1.414758921 -0.4186708033
4.586431026 -1.407466054 -0.2492249757
4.580212116 -1.406432509 -0.0829320401
4.636212826 -1.414778471 0.08390937001
4.62850523 -1.413309455 0.2514230609
4.496891022 -1.374837399 0.407689184
4.493516445 -1.375521302 0.5718675256
4.433906078 -1.358119965 0.7277847528
4.399213314 -1.349173427 0.8861798048
4.393157959 -1.348155141 1.050967932
4.364554882 -1.341044784 1.211842895
0.9035954475 -0.278845638 -0.2417890429
4.262969017 -1.317978859 -0.8590849042
4.484580517 -1.388209462 -0.7368579507
4.46238327 -1.382191777 -0.5684552193
4.500850201 -1.395828605 -0.4085607231
4.471107483 -1.388315797 -0.2431540042
4.513033867 -1.393565416 0.08174528182
4.486399651 -1.386198878 0.2438867092
4.393330574 -1.359122753 0.3986249864
4.322063446 -1.338728666 0.5504184961
4.312394142 -1.3365587 0.7083868384
4.269086838 -1.324769855 0.8606113791
4.269553661 -1.325731635 1.022174239
4.216192245 -1.310776353 1.171467066
0.8989776373 -0.2806890011 -0.2407537699
5.268228531 -1.651972532 -0.6727753878
4.332472801 -1.360206366 -0.3935699463
3.097893715 -0.9743847847 -0.05598552525
4.355725288 -1.36249733 0.2369783521
4.289925575 -1.342736602 0.3895607591
4.215310574 -1.320998192 0.5372566581
4.179537773 -1.311390042 0.6871117353
4.16352272 -1.307163358 0.8400040269
4.131047726 -1.298552036 0.9897813201
4.115768909 -1.295328021 1.144549966
0.8868912458 -0.2804868519 -0.2376479357
3.866250992 -1.224961758 -0.7800899744
4.162216663 -1.320332885 -0.6849216819
3.105473757 -0.9857107997 -0.3949132264
4.157718658 -1.323699832 -0.07546240836
3.033316612 -0.9604768753 0.164545387
4.148230076 -1.315099239 0.3770103455
4.104712486 -1.302091479 0.523607254
4.058207035 -1.288898468 0.6677139401
4.053930759 -1.289098144 0.8186334372
4.022274494 -1.280578017 0.9645867944
3.993417263 -1.272158504 1.111421108
0.8859067559 -0.2835809886 -0.2376479357
3.803997755 -1.219865441 -0.7682598829
4.074826717 -1.308283687 -0.6711554527
4.069444656 -1.308122754 -0.5197074413
3.062278986 -0.9808325171 0.05542704463
3.07749486 -0.9862983227 0.1671621799
4.04117012 -1.296699762 0.3675975502
3.978954792 -1.278268695 0.5080080032
3.974697828 -1.27766645 0.6545734406
3.888685226 -1.251515627 0.7858142853
3.917618752 -1.262336612 0.9402920008
3.885987282 -1.252892971 1.082433224
0.8959383965 -0.2902438641 -0.2407537699
3.809052467 -1.236166477 -0.7701678872
3.950222254 -1.282742858 -0.6511318088
3.982020378 -1.294605255 -0.5089829564
3.965605021 -1.290799141 -0.3611480296
3.927839756 -1.280781507 -0.07141344994
3.968339443 -1.285563946 0.07211155444
3.978351593 -1.290342212 0.2169860303
3.926710129 -1.275107861 0.3574874699
3.241362572 -1.054433703 0.5331802368
3.82104063 -1.243743539 0.7728391886
3.342737675 -1.089347243 0.8017221689
3.249810696 -1.060318828 0.9043658376
0.8729409575 -0.2859957516 -0.2345421165
3.801202059 -1.247566581 -0.7694047093
3.851887703 -1.2656914 -0.6354883909
3.85679388 -1.268795252 -0.4933836758
3.870240211 -1.274716258 -0.3527810574
3.824268341 -1.260314703 -0.2088216096
3.330857038 -1.09899652 -0.06052314863
3.306358099 -1.083878875 0.06003448367
3.875144482 -1.27183485 0.2115430832
3.070641279 -1.008387923 0.2790473104
3.755182981 -1.234641194 0.4802217782
3.72551012 -1.226326466 0.6145262122
3.719710827 -1.225137353 0.7529951334
3.712759495 -1.22428453 0.8926023841
3.671685457 -1.212161541 1.024457812
0.8865557909 -0.2940588295 -0.2386832088
3.750026464 -1.246014118 -0.7598642111
3.753503561 -1.248624444 -0.6198449731
3.754399776 -1.249650359 -0.4807092845
3.763696194 -1.254204273 -0.3433682323
3.774153233 -1.259152651 -0.2063094825
3.7291224 -1.244852543 -0.06792297214
3.780853748 -1.254059196 0.06883049756
3.252754927 -1.080156207 0.177420035
3.0366745 -1.009578586 0.2762583196
3.656670094 -1.216412187 0.4680348635
3.638743162 -1.211859703 0.6007599235
3.636972666 -1.212680578 0.736967206
3.601036549 -1.202095032 0.8665081263
3.605132341 -1.204161882 1.00685811
0.8708720803 -0.2922350466 -0.2345421165
3.671216965 -1.234074593 -0.7445995212
3.651767731 -1.228955746 -0.6035757661
3.636923075 -1.225373149 -0.4660849273
3.664680243 -1.236149907 -0.3346526623
3.663761854 -1.236552358 -0.2004478574
3.610866785 -1.220103979 -0.06582868099
3.68903017 -1.238629341 0.06722487509
3.650124311 -1.226984262 0.1996104866
2.993474722 -1.006833911 0.27259776
3.565647364 -1.200665712 0.4568228722
3.525708675 -1.188587546 0.5826135874
3.539703608 -1.193993449 0.7178862691
3.50450325 -1.183482528 0.8440129757
3.498209953 -1.182717919 0.9778704047
0.8588198423 -0.2916972339 -0.2314362824
3.558869362 -1.210844755 -0.7224656343
3.557484865 -1.211759567 -0.5885580778
3.564980745 -1.215007186 -0.4573103487
3.5509758 -1.211617708 -0.3245426118
3.583603859 -1.22414732 -0.1962609887
3.527112484 -1.205537558 -0.0643626824
3.578650475 -1.215484858 0.06527020782
3.604218721 -1.225572467 0.1973077059
2.987878323 -1.01715672 0.272423476
3.50130415 -1.192623019 0.449023217
3.491623878 -1.190686226 0.5776076317
2.5580163 -0.8733115196 0.5171551704
2.537571669 -0.8673207164 0.6091640592
2.492363214 -0.8523546457 0.6942047477
0.8834808469 -0.3031723201 -0.2386832088
3.512344837 -1.207340598 -0.7136884332
3.493888617 -1.202360392 -0.5785462856
3.50838089 -1.208717346 -0.4504856467
3.529208422 -1.211759925 0.06443248689
2.950392008 -1.014173865 0.1613005549
2.551332712 -0.8774982095 0.2323318273
2.472519636 -0.851356864 0.3159419
2.449309111 -0.8443212509 0.4036524892
2.479165792 -0.8550974131 0.501508832
2.455627441 -0.8479380012 0.5898182392
2.423792839 -0.8378924727 0.6755697727
0.8678167462 -0.3011871576 -0.2345421165
2.469651699 -0.8585740328 -0.4999823868
2.480374098 -0.8632721901 -0.4092841148
2.488128424 -0.8669449687 -0.318379283
2.485550642 -0.8665331006 -0.2265795469
2.489239931 -0.868794024 -0.1359699517
2.472997189 -0.8640936017 -0.04502541199
2.489763975 -0.8645920753 0.0453046523
2.495958805 -0.8677197099 0.1362839788
2.467336893 -0.8582521081 0.2248364389
2.409543514 -0.8390917778 0.3081422746
2.405310869 -0.8385592699 0.3967693448
2.407578707 -0.8398213387 0.4873890281
2.401138544 -0.8385152221 0.5772209764
2.382557154 -0.8329594731 0.6646993756
0.8594686985 -0.3016554415 -0.2324715555
2.418484211 -0.8502595425 -0.4900603294
2.430762053 -0.8555295467 -0.4014623761
2.430791378 -0.8564935923 -0.3113108575
2.441021442 -0.8610562682 -0.2227446884
2.437223673 -0.8601948619 -0.1332484782
2.417173147 -0.8540672064 -0.04404807836
2.445222378 -0.8587010503 0.04453674331
2.440156937 -0.857878983 0.1333531588
2.413579464 -0.8490085602 0.2201300114
2.365407228 -0.8329914212 0.3027800024
2.3613832 -0.832500875 0.3898862302
2.363900661 -0.8338522911 0.478993386
2.335721254 -0.8248289824 0.5619243383
2.337743521 -0.8264610767 0.6527937055
0.8802030683 -0.3125609457 -0.2386832088
2.358010054 -0.838722229 -0.4782301784
2.375504494 -0.8458790779 -0.3927020431
2.367948294 -0.8436540961 -0.3035112023
2.374196768 -0.8468144536 -0.2168181092
2.38703084 -0.8523313999 -0.1306316853
2.357683659 -0.8423164487 -0.04300093651
2.391331196 -0.8491640091 0.04359431565
2.373163462 -0.8436455727 0.1297943145
2.354139566 -0.8378084898 0.2149006724
2.315733433 -0.8245956302 0.2966865301
2.291478157 -0.8168599606 0.3786229491
2.312753439 -0.8253542185 0.4690713286
2.281298399 -0.8150267601 0.5493270755
2.271175146 -0.8118570447 0.6346763968
0.8391059637 -0.3012698591 -0.2272951603
2.295950651 -0.8256878853 -0.4660184085
2.313062429 -0.8327536583 -0.3826902509
2.314417601 -0.8341543674 -0.2969302833
2.31125021 -0.8334685564 -0.2112401277
2.318290234 -0.8369219303 -0.1269681752
2.286877155 -0.8264838457 -0.04174436256
2.329862356 -0.8369650841 0.0425122641
2.321190596 -0.8347647786 0.1270728409
2.276212215 -0.8190379739 0.2079282254
2.251064301 -0.8108767867 0.2886431515
2.219713688 -0.8004592657 0.3670467734
2.241529465 -0.8087685108 0.4549514651
2.230785608 -0.8057721257 0.5376296043
2.204598427 -0.7971832156 0.6165590286
0.8634722233 -0.3134250939 -0.2345421165
2.24508214 -0.8162556291 -0.4560963511
2.239603996 -0.8151491284 -0.3708012402
2.268593788 -0.8265975118 -0.2913242877
2.240939379 -0.8169642687 -0.2049649209
2.260944605 -0.8251516819 -0.1239326894
2.240778208 -0.8186782002 -0.04094155133
2.259261847 -0.8205181956 0.04125569016
2.265705109 -0.823753655 0.1241420209
2.22091341 -0.8079074621 0.2030474991
2.195992708 -0.7997100949 0.2818184793
2.176076412 -0.793317616 0.3601636887
2.1741395 -0.7930413485 0.4415948689
2.180366039 -0.7961750031 0.5259321332
2.147369862 -0.7849759459 0.6010298729
0.8623728752 -0.3164372444 -0.2345421165
2.188779831 -0.8044468164 -0.4450294077
2.182982445 -0.8031811714 -0.3617280126
2.208091021 -0.8128567934 -0.2837683856
2.200684547 -0.8110026717 -0.2014786899
2.199962378 -0.8116089106 -0.1206878498
2.19677949 -0.8108703494 -0.04017364234
2.207577229 -0.8104809523 0.04034816474
2.20671773 -0.8106024861 0.1210018694
2.193770409 -0.8067156076 0.2007814497
2.144753218 -0.7895404696 0.2754812539
2.140068293 -0.7882400751 0.3545320332
0.8613188267 -0.3192952573 -0.2345421165
2.154811859 -0.8000833392 -0.438541919
2.158087969 -0.8021569848 -0.3579736054
2.155147314 -0.8014921546 -0.2771874666
2.169975042 -0.8078688383 -0.1988640279
2.159828663 -0.8049498796 -0.1185944155
2.1622262 -0.8062732816 -0.0395802632
2.17862916 -0.8080615401 0.03985949978
2.159078121 -0.8012385368 0.1184897348
2.16680336 -0.8049660921 0.1985154003
2.125377893 -0.7904210091 0.2732876241
2.137442589 -0.7953324914 0.3545320332
2.146613598 -0.7995981574 0.4370154142
2.123908281 -0.7915626764 0.5133348703
2.129446745 -0.7944734097 0.5974064469
0.8602552414 -0.3221497238 -0.2345421165
2.14295578 -0.8037771583 -0.4366338253
2.148018599 -0.8065314889 -0.3567221165
2.137471199 -0.8034226298 -0.2752375305
2.15609479 -0.8108522296 -0.1978181452
2.155278444 -0.8114039898 -0.1184897348
2.148170948 -0.809584558 -0.0393708311
2.172192335 -0.8138782978 0.03978969157
2.152528048 -0.807367444 0.1182803959
2.17531395 -0.8163471222 0.1995612532
2.130177975 -0.8002569675 0.2742625773
2.114315033 -0.7951399088 0.351090461
2.143950462 -0.8067121506 0.4370154142
2.122956038 -0.7996586561 0.5137848258
2.112199545 -0.7964490652 0.593265295
0.859125495 -0.3251506388 -0.2345421165
2.130958319 -0.8077731729 -0.4347257316
2.154424429 -0.8175286055 -0.3582864404
2.153210878 -0.8179280758 -0.2776749134
2.132764816 -0.8105873466 -0.1959007382
2.156166553 -0.820342958 -0.1186990887
2.14533186 -0.8170782328 -0.0393708311
2.152507305 -0.8150823712 0.03947554529
2.149696589 -0.814876318 0.1182803959
2.140781879 -0.8119243979 0.1965979636
2.13108325 -0.809096992 0.2747500539
2.10414052 -0.7997082472 0.3498390019
2.130111217 -0.8100042939 0.4347257316
2.116509199 -0.8056776524 0.5128849745
2.098575115 -0.7996895909 0.5901594758
0.8507676721 -0.3253870904 -0.2324715555
2.12445879 -0.8138020635 -0.4339624941
2.12942481 -0.8165568709 -0.3545320332
2.144782782 -0.8233050704 -0.2769437134
2.137362242 -0.8208844662 -0.1965979636
2.142104387 -0.8235639334 -0.1180710569
2.148065805 -0.8267166018 -0.03947554529
2.134707928 -0.8168737292 0.0391963087
2.146839142 -0.8223751187 0.1182803959
2.134213924 -0.8179661036 0.1962493509
2.117126226 -0.8122646213 0.2732876241
2.103180408 -0.8077564836 0.3501518965
2.121772766 -0.8153222203 0.4335808754
2.113683939 -0.8130607009 0.5128849745
2.095771074 -0.8070101142 0.5901594758
0.8676463366 -0.335318923 -0.2376479357
2.1289289 -0.8240476251 -0.4354889691
2.126561642 -0.823984921 -0.3545320332
2.140045166 -0.8300687075 -0.2766999602
2.132626295 -0.8276194334 -0.1964236498
2.131769896 -0.8281434178 -0.1176523715
2.148894072 -0.8356592059 -0.0395453535
2.124382973 -0.8214355707 0.03905668855
2.132780075 -0.8255383372 0.1176523715
2.138777256 -0.8282889724 0.1969465911
2.101321697 -0.814627111 0.271581471
2.109555721 -0.8186663389 0.3517162204
2.118913889 -0.8227235079 0.4335808754
2.11991477 -0.8239638209 0.5151344538
2.109144688 -0.8206253052 0.5948182344
0.855673492 -0.3341293931 -0.2345421165
2.115068674 -0.827183485 -0.4331992269
2.123672247 -0.831403017 -0.3545320332
2.126045227 -0.8331879973 -0.2752375305
2.144416571 -0.8412513137 -0.1978181452
2.130724907 -0.8363093138 -0.1177570373
2.14410305 -0.8424239159 -0.03951045126
2.138265848 -0.8353952169 0.0393708311
2.129885197 -0.8329781294 0.1176523715
2.14700532 -0.8401055932 0.1979924589
2.098465443 -0.8219570518 0.271581471
2.099328756 -0.8231406808 0.3504647315
2.123339653 -0.8329828978 0.4351073205
2.106142521 -0.8270848393 0.5124350786
2.11345911 -0.8308095932 0.5968887806
0.8724123836 -0.3443560898 -0.2397184968
2.104719877 -0.8320429921 -0.4316727817
2.127958059 -0.8420886397 -0.3557835221
2.130506754 -0.8435272574 -0.2762124836
2.134058237 -0.8457952142 -0.1971209049
2.135071516 -0.8470592499 -0.1181757301
2.129997492 -0.8454765677 -0.03930102289
2.142776966 -0.8457908034 0.03951045126
2.130679607 -0.8418754935 0.1178617179
2.140206337 -0.8465035558 0.1976438463
2.10665822 -0.8336597085 0.2730438709
2.085423708 -0.8260986209 0.3485875428
2.127572536 -0.8436543345 0.4366338253
2.106719255 -0.8362365961 0.5133348703
2.106955051 -0.8367558122 0.5958535075
0.8712050319 -0.3473993242 -0.2397184968
2.11091876 -0.8430255055 -0.4335808754
2.123171329 -0.8487781286 -0.3554706573
2.134772778 -0.8542804122 -0.2771874666
2.119995117 -0.8487960696 -0.1960750371
2.139517307 -0.8574789762 -0.1185944155
2.1343081 -0.8562559485 -0.03944064304
2.132233143 -0.8506747484 0.0393708311
2.131289244 -0.8511607647 0.1180710569
2.129837751 -0.8510119915 0.1969465911
2.107274771 -0.8428497314 0.2735313475
