# .PCD v0.7 - Point Cloud Data file format
VERSION 0.7
FIELDS x y z
SIZE 4 4 4
TYPE F F F
COUNT 1 1 1
WIDTH 1216
HEIGHT 1
VIEWPOINT 0 0 0 1 0 0 0
POINTS 1216
DATA ascii
-0.8997550607 2.022782564 0.1899741441
-0.9732677341 2.190108538 0.2891306281
-1.02602756 2.309918165 0.3936406672
-0.9490630031 2.138658047 0.4465559125
-0.9229754806 2.08085084 0.5155844092
-1.017867446 2.296947718 0.6615934968
-0.9565219879 2.16565299 -0.6227707267
-0.8560416698 1.939988256 -0.4795922041
-0.9648071527 2.187509537 -0.4564779401
-1.018372178 2.311145067 -0.3933278024
-1.016408086 2.307775974 -0.3044861853
-0.8314452171 1.889604092 -0.1769007742
-0.9332022667 2.122871637 -0.119327113
-0.935536027 2.129191875 -0.03989440575
-1.016781807 2.30317378 0.04324526712
-0.8426339626 1.909603238 0.1071851775
-0.8954537511 2.031224489 0.1904970706
-0.9619995952 2.184240341 0.2879119217
-1.01597476 2.307883978 0.3927020431
-0.9474987388 2.154373169 0.4492272139
-0.9160705209 2.083899736 0.5155844092
-1.009468555 2.298541546 0.6610759497
-0.9555317163 2.182971001 -0.626911819
-0.8480426073 1.939245224 -0.4786924124
-0.9693418145 2.217680931 -0.462202251
-1.002798796 2.296405554 -0.390199095
-1.001995325 2.296754122 -0.302536279
-0.8200682402 1.881536007 -0.1758549064
-0.9261568189 2.125954866 -0.119327113
-0.9416648149 2.163614988 -0.04048778862
-1.008336306 2.30470109 0.04321036115
-0.8455616236 1.934493899 0.1084412411
-0.9038679004 2.068872213 0.1938089877
-0.9476036429 2.171044827 0.285718292
-1.011859894 2.320470095 0.3942663968
-0.9277980924 2.128707647 0.443121314
-0.9087901711 2.087085009 0.5155844092
-1.002979636 2.305594444 0.6621111631
-0.9490612149 2.190003633 -0.6279470921
-0.843591392 1.947558522 -0.4800421298
-0.9549699426 2.206804276 -0.4591493011
-1.006917 2.329076767 -0.3952049911
-0.9947599769 2.302059889 -0.3027800024
-0.8166546226 1.891703844 -0.1765521467
-0.9262686968 2.147674561 -0.1203738302
-0.9325238466 2.163215876 -0.0404179804
-0.9986954927 2.304537058 0.04314055294
-0.8689582348 2.007081985 0.1124187708
-0.9018161893 2.084971666 0.1950291842
-0.9439586997 2.183449507 0.2869369984
-0.9974881411 2.30948019 0.3917634189
-0.9277684093 2.150119781 0.4469375014
-0.9011349678 2.090401649 0.5155844092
-0.9926326871 2.30375886 0.6605582833
-0.9444591403 2.200403452 -0.6300175786
-0.8425920606 1.964965343 -0.4836413562
-0.9464879036 2.208319664 -0.4587676525
-0.9956700802 2.325314283 -0.393953532
-0.9863152504 2.305690527 -0.3027800024
-0.8069126606 1.887215257 -0.1758549064
-0.9203349352 2.154568434 -0.1205831841
-0.9296776056 2.17749238 -0.04062740505
-0.9894533753 2.306344748 0.04310565069
-0.9422341585 2.197335482 0.1230953038
-0.915715456 2.137555122 0.1997355819
-0.9273573756 2.166820049 0.2842558622
-0.9816507697 2.294786453 0.3886347413
-0.9241144657 2.162371874 0.4488455653
-0.8938320279 2.093534946 0.5155844092
-0.9777601361 2.291218519 0.6558995247
-0.9397950768 2.210798979 -0.6320881844
-0.8269261122 1.946226239 -0.4782425463
-0.8160364032 1.922460675 -0.3977087736
-0.9709804058 2.288596392 -0.3870703876
-0.9817631245 2.316259384 -0.3037549555
-0.7956592441 1.879012346 -0.1748090386
-0.9217484593 2.177840471 -0.121734567
-0.9298593998 2.199142456 -0.04097645357
-0.9778885841 2.300410986 0.04293112084
-0.9548561573 2.248408556 0.1258167773
-0.9370411038 2.208601713 0.2061851174
-0.9240422249 2.179020882 0.2854745388
-0.9767171741 2.305474281 0.3898862302
-0.9177047014 2.167232275 0.4492272139
-0.8868851662 2.096487045 0.5155844092
-0.9697568417 2.294617414 0.6558995247
-0.9579545259 2.274435997 -0.6496878266
-0.8095467091 1.923953772 -0.4719438851
-0.9344789386 2.221950054 -0.4602941573
-0.9706379771 2.310183048 -0.390199095
-0.972902894 2.317841768 -0.3035112023
-0.7901950479 1.883477569 -0.1749833524
-0.920316577 2.195780993 -0.1225719452
-0.9283552766 2.217131138 -0.04125569016
-0.9683004022 2.300124884 0.04286131263
-0.953196764 2.266456127 0.1266541481
-0.9266230464 2.204349995 0.2054878622
-0.9164298773 2.182233572 0.2854745388
-0.9686641097 2.308869362 0.3898862302
-0.9010229707 2.148696661 0.4446478188
-0.8795620799 2.099570036 0.5155844092
-0.9557740092 2.283732176 0.6517584324
-0.9641381502 2.311642885 -0.6595230103
-0.7953301668 1.90877974 -0.4674448967
-0.9267166257 2.225198507 -0.4602941573
-0.9656026959 2.320852757 -0.3914505839
-0.9625210166 2.315724373 -0.3027800024
-0.7836151123 1.886224627 -0.1749833524
-0.9157091975 2.20635891 -0.122990638
-0.9236745834 2.227746964 -0.04139531404
-0.9594966173 2.301645041 0.04282641038
-0.9445110559 2.267925978 0.1265494823
-0.9065206647 2.179920197 0.2847433388
-0.9575667381 2.304939985 0.3886347413
-0.8957761526 2.15726757 0.4457926154
-0.9522345066 2.297762156 0.6548642516
-0.958275795 2.320350885 -0.6610759497
-0.7700810432 1.866508245 -0.4561973512
-0.912956357 2.213899851 -0.4572412074
-0.9582473636 2.326035738 -0.3917634189
-0.9461218119 2.298877478 -0.300098896
-0.7717199326 1.876050234 -0.1737631559
-0.9209082127 2.24094677 -0.1247700602
-0.9219686389 2.245756626 -0.04167455062
-0.9514570832 2.30498004 0.04282641038
-0.9327821732 2.261976957 0.1260261238
-0.8996620774 2.184906483 0.284987092
-0.9450056553 2.29730773 0.3867575526
-0.8942132592 2.174907446 0.4488455653
-0.8648819327 2.105659723 0.5155844092
-0.9398083687 2.290348768 0.6517584324
-0.9421267509 2.304012299 -0.6553818583
-0.7812480927 1.912481546 -0.466994971
-0.9037379026 2.213438034 -0.4564779401
-0.9471384287 2.322050333 -0.3905119598
-0.9365925789 2.298489571 -0.2996113896
-0.7621610165 1.871351719 -0.1730659306
-0.9183484912 2.257097483 -0.1255027652
-0.9201470613 2.263781309 -0.04195378721
-0.9418916702 2.304585218 0.04275659844
-0.9279000163 2.27261591 0.1264448166
-0.9155340195 2.243447781 0.2082768381
-0.8950268626 2.195386648 0.2859620154
-0.9340008497 2.293274164 0.3855060637
-0.891056776 2.18892622 0.4511353076
-0.8942323327 2.19892478 0.5380795002
-0.9288987517 2.286456347 0.6496878266
-0.9326292276 2.303705454 -0.6543466449
-0.7899113894 1.953135133 -0.4764429033
-0.8621613383 2.132851124 -0.4389235079
-0.939027667 2.32534194 -0.3905119598
-0.9330201149 2.312790155 -0.3010738194
-0.7556244731 1.874000669 -0.1730659306
-0.9104646444 2.260289192 -0.1255027652
-0.9211969972 2.289241314 -0.04237264767
-0.9315916896 2.302297831 0.04265188798
-0.9192133546 2.273988962 0.1263401359
-0.9084441066 2.248476744 0.2084511369
-0.8999894261 2.229791164 0.2901056111
-0.9267293811 2.29835248 0.3858189285
-0.8797417283 2.18291831 0.4492272139
-0.9047468305 2.247226 0.5493270755
-0.9144245386 2.273553848 0.6450291276
-0.9224265218 2.301567078 -0.6527937055
-0.7823639512 1.954071522 -0.4759930074
-0.832829237 2.081165791 -0.4274749756
-0.9221050739 2.306595087 -0.3867575526
-0.9190508127 2.301285028 -0.299123913
-0.7505551577 1.880327821 -0.1734145433
-0.9040482044 2.26716423 -0.1257120967
-0.9176410437 2.303588867 -0.04258207232
-0.9176002145 2.290685415 0.04237264767
-0.9127546549 2.280892134 0.1265494823
-0.9124279022 2.281232834 0.2112401277
-0.9120868444 2.282690763 0.2966865301
-0.9194327593 2.303408384 0.3861318231
-0.8684785366 2.176858664 0.4473191202
-0.91132617 2.286575794 0.5583251119
-0.9079113007 2.280321598 0.6460644007
-0.9136738777 2.302977324 -0.6522760391
-0.7769747376 1.960413814 -0.4768928289
-0.8631571531 2.178974152 -0.4473191202
-0.911867857 2.304289341 -0.3858189285
-0.9080936313 2.297094822 -0.2981489599
-0.7461838722 1.888495088 -0.1739374846
-0.907861948 2.30003047 -0.1273868531
-0.9099974632 2.306619167 -0.04258207232
-0.9088618755 2.292015314 0.0423377417
-0.9029776454 2.278336525 0.1262354702
-0.9088605642 2.295518875 0.2122860104
-0.9011932611 2.278476715 0.2957115769
-0.9110634923 2.304607391 0.3858189285
-0.8572692871 2.170746565 0.4454110265
-0.7710338235 1.954380751 0.4750932157
-0.9003450274 2.283319712 0.6460644007
-0.9056287408 2.306152821 -0.6522760391
-0.7661978602 1.952095389 -0.4741933942
-0.8526784778 2.174662828 -0.4457926154
-0.9027804732 2.303622007 -0.3851931989
-0.8968521357 2.290851116 -0.2969302833
-0.7352325916 1.879955292 -0.1728916019
-0.900229156 2.303028584 -0.1273868531
-0.8895744681 2.278115749 -0.04198869318
-0.9019866586 2.296878338 0.04237264767
-0.8913715482 2.272178173 0.1257120967
-0.903023541 2.304242134 0.2128089517
-0.8943560123 2.283301115 0.2959553003
-0.8994147778 2.298575401 0.3842546046
-0.853640914 2.182719707 0.4473191202
-0.762421608 1.951481223 0.4737434983
-0.8916661739 2.284649134 0.6455467343
-0.8937758207 2.298340321 -0.6491702199
-0.7579672933 1.951125383 -0.4732936025
-0.8419098258 2.16832757 -0.4438845515
-0.8954474926 2.308600903 -0.3855060637
-0.8881334066 2.292116642 -0.2966865301
-0.7210800648 1.861945748 -0.170974195
-0.8744087815 2.262554169 -0.04163964465
-0.8939641118 2.300012827 0.04237264767
-0.8870498538 2.284585238 0.1262354702
-0.891772747 2.297937155 0.2119373977
-0.885663271 2.284558296 0.2957115769
-0.8849647641 2.285122633 0.3814387619
-0.8481431007 2.19117856 0.4484639764
-0.7633354068 1.974124551 0.4786924124
-0.878813684 2.275133133 0.6419233084
-0.8801969886 2.287022591 -0.6450291276
-0.7553473115 1.964672923 -0.4759930074
-0.8434910178 2.195076942 -0.4488455653
-0.8824275136 2.298803568 -0.3833159804
-0.8787059784 2.291495562 -0.2961990535
-0.7131496668 1.860730529 -0.1706255525
-0.8743640184 2.286137819 -0.04202359915
-0.8816229105 2.291920662 0.0421632193
-0.8783538342 2.285802841 0.1261307895
-0.879460454 2.289876223 0.210891515
-0.879105866 2.291342258 0.2961990535
-0.8755682707 2.284508705 0.3808130324
-0.8397874832 2.192292452 0.4480823576
-0.7599214911 1.985877395 0.4809419215
-0.8660375476 2.26555562 0.6382998228
-0.8694574237 2.282859802 -0.6429585218
-0.744327426 1.9563694 -0.4732936025
-0.849779129 2.234709263 -0.4564779401
-0.8715924621 2.294483185 -0.3820645213
-0.8735182881 2.301973104 -0.2971740067
-0.7087701559 1.868797183 -0.1711484939
-0.8628388643 2.279825449 -0.04184907675
-0.8700596094 2.285640001 0.04198869318
-0.8717886806 2.292588949 0.1263401359
-0.8721691966 2.294794798 0.2110658288
-0.8661695123 2.281406641 0.2944929004
-0.8689900637 2.291245222 0.3814387619
-0.8251703978 2.176852703 0.4442661703
-0.7709280252 2.035901546 0.4926394224
-0.8594914079 2.272178411 0.6393350959
-0.8628466725 2.289496422 -0.6439938545
-0.7278817892 1.933422446 -0.466994971
-0.8281459212 2.200911999 -0.4488455653
-0.8642733693 2.299360514 -0.3823773563
-0.858500123 2.286423922 -0.2947366238
-0.7008428574 1.867529035 -0.1707998663
-0.8492646217 2.267841816 -0.04156983644
-0.8641911149 2.294277191 0.04209340736
-0.8560441732 2.275055408 0.1251887381
-0.863452673 2.295960188 0.210891515
-0.8561067581 2.278841019 0.2937616706
-0.8602932692 2.292414904 0.3811258972
-0.820325017 2.187072515 0.4457926154
-0.7419375181 1.980184913 0.4782425463
-0.8529086113 2.27878356 0.640370369
-0.8542977571 2.288575888 -0.6429585218
-0.7347410917 1.970392227 -0.4755431116
-0.7931163907 2.128077507 -0.4331992269
-0.8563556671 2.300213337 -0.3820645213
-0.8437008858 2.268643618 -0.2920555174
-0.6942776442 1.867854238 -0.1706255525
-0.8393545747 2.262998819 -0.04143021628
-0.8534834385 2.287613153 0.04191888496
-0.8447070718 2.266504765 0.1245607138
-0.8492801189 2.27999115 0.209148407
-0.8475581408 2.277798653 0.293274194
-0.8462041616 2.276590586 0.3779972196
-0.8072962761 2.173075676 0.4423580766
-0.7289323807 1.964236021 0.4737434983
-0.8430598974 2.274206161 0.6382998228
-0.8429580927 2.282483101 -0.640370369
-0.7278581262 1.972945094 -0.4755431116
-0.7863628864 2.132675171 -0.4335808754
-0.8421770334 2.286505699 -0.3792486787
-0.7905374765 2.148616791 -0.2759687304
-0.685003221 1.862786412 -0.1699283123
-0.8348948359 2.275301456 -0.04160473868
-0.8468783498 2.29433012 0.04198869318
-0.8381727338 2.27318716 0.1247700602
-0.78482306 2.129643917 0.1948548555
-0.8416597843 2.286331892 0.2940054238
-0.8355255723 2.272114277 0.3767457306
-0.8071563244 2.196150541 0.4465559125
-0.7193853855 1.959451079 0.4719438851
-0.8304595947 2.264439106 0.6346763968
-0.8296823502 2.270895004 -0.6362292767
-0.7102766037 1.946183681 -0.4683446884
-0.7816051841 2.142784357 -0.4351073205
-0.8105205894 2.224471569 -0.3682982624
-0.8312368989 2.283805132 -0.293274194
-0.6730473638 1.85018754 -0.1685338169
-0.8276302814 2.280081272 -0.04163964465
-0.8333777785 2.282245159 0.04170945287
-0.8295487165 2.274222374 0.1246653795
-0.7166486979 1.965773702 0.1793411374
-0.831636548 2.283659697 0.293274194
-0.8296145797 2.280586243 0.377684325
-0.798815012 2.197109461 0.446174264
-0.7052232027 1.941801786 0.466994971
-0.8192564249 2.258244038 0.6320881844
-0.8210932612 2.271960974 -0.6357116699
-0.6783341765 1.878998637 -0.4512484074
-0.7621263862 2.112258911 -0.4282382131
-0.8228447437 2.283037663 -0.377684325
-0.8259500265 2.294163465 -0.2942491472
-0.6699581742 1.861899018 -0.169405371
-0.8210170865 2.286720753 -0.04170945287
-0.8233674765 2.279498339 0.04160473868
-0.8229603171 2.280862093 0.1248747408
-0.7205969691 1.9982512 0.1821301281
-0.8209683299 2.279078245 0.2922992408
-0.8169676661 2.270457268 0.3754942715
-0.789147079 2.194342375 0.4450294077
-0.6760408878 1.8818959 0.451698333
-0.8126741052 2.264726162 0.6331234574
-0.8170586824 2.285728216 -0.6388174891
-0.6973286867 1.952929974 -0.4687945843
-0.7006389499 1.963285446 -0.3969455659
-0.8168607354 2.291477919 -0.3786229491
-0.8126101494 2.282071829 -0.2922992408
-0.6577874422 1.849324942 -0.1680108905
-0.8130294085 2.289572954 -0.04170945287
-0.8133878112 2.27670908 0.04150002822
-0.8069373965 2.261148214 0.1236186624
-0.8026391268 2.250341177 0.2053135335
-0.8063450456 2.263231039 0.2898618579
-0.8130117059 2.284461021 0.37737149
-0.7814820409 2.19708395 0.4450294077
-0.662291348 1.864044905 0.4467493892
-0.8034709096 2.263908386 0.6320881844
-0.8073887825 2.28506422 -0.6377821565
-0.696995914 1.973727703 -0.4732936025
-0.6882141232 1.951028585 -0.393892616
-0.8064866066 2.288867235 -0.377684325
-0.79804492 2.266170979 -0.2898618579
-0.6526507139 1.855368495 -0.1683595181
-0.8010574579 2.28107667 -0.04150002822
-0.8054350019 2.279534578 0.04150002822
-0.7977106571 2.260184288 0.1234093308
-0.8036596179 2.279574633 0.2077539116
-0.800419569 2.271648407 0.2905930579
-0.7997853756 2.272378922 0.374868542
-0.7792848349 2.216602087 0.4484639764
-0.6489974856 1.848073483 0.442250371
-0.7955639958 2.266699076 0.6320881844
-0.7962218523 2.278749943 -0.6351940036
-0.6865467429 1.967069387 -0.4710440934
-0.7305431962 2.094300985 -0.4228955805
-0.7984925508 2.291668415 -0.377684325
-0.7877755165 2.263456345 -0.2891306281
-0.6402795315 1.840699196 -0.1667907089
-0.6267098188 1.803719878 -0.09786937386
-0.7917785048 2.280080318 -0.04143021628
-0.798393786 2.286246777 0.04156983644
-0.7898167372 2.262954712 0.1234093308
-0.7733966708 2.218400717 0.2018273026
-0.790130198 2.268942833 0.2898618579
-0.7866532803 2.260231972 0.3723655641
-0.7773441672 2.235998631 0.4518985152
-0.641264379 1.846645713 0.4413505793
-0.7844792604 2.260337114 0.6295000315
-0.7825853825 2.265081644 -0.6305352449
-0.654577136 1.895654678 -0.4530479908
-0.7296290398 2.11539793 -0.4267117381
-0.7863816619 2.281231165 -0.3754942715
-0.7770344019 2.256671429 -0.2879119217
-0.6286658049 1.827850461 -0.1653962135
-0.612934351 1.783122778 -0.09661331773
-0.7812165618 2.275265455 -0.04129059985
-0.7868902087 2.277541161 0.04136040807
-0.7819120884 2.265698195 0.1234093308
-0.6572130322 1.906523228 0.172717303
-0.7838943601 2.275304317 0.2903493047
-0.7787593007 2.26296401 0.3723655641
-0.7673714757 2.231137991 0.4503720701
-0.6338703036 1.845075965 0.4404507279
-0.7709415555 2.246616125 0.6248412132
-0.7744444013 2.265836477 -0.6300175786
-0.6265493035 1.835224271 -0.437751323
-0.7257805467 2.127096176 -0.4286198318
-0.7745909095 2.272743464 -0.3736170232
-0.777469337 2.28379941 -0.2910805345
-0.6264519095 1.841242313 -0.1664420962
-0.6073493361 1.787142277 -0.09671798348
-0.7704522014 2.268376112 -0.04111607373
-0.7737633586 2.265135765 0.04108116776
-0.7731043696 2.264498234 0.1231999844
-0.6502444744 1.906806111 0.1725429893
-0.7676270008 2.25359869 0.2871807218
-0.7718877792 2.267403841 0.3726784289
-0.7557858825 2.222651005 0.4480823576
-0.6293064952 1.852812886 0.4418004453
-0.7442363501 2.192451 0.6087944508
-0.7696219087 2.277677059 -0.6326057911
-0.6603637338 1.955455542 -0.466545105
-0.7645251751 2.26781249 -0.3723655641
-0.7660901546 2.275077581 -0.2896181345
-0.621290803 1.84719491 -0.1667907089
-0.7631651759 2.272947311 -0.04115097597
-0.766887188 2.269583941 0.04111607373
-0.7613633275 2.255828619 0.1225719452
-0.643584013 1.909064531 0.1725429893
-0.6213431954 1.844151616 0.233801946
-0.7652279139 2.273828983 0.3733041883
-0.749037385 2.227005482 0.4484639764
-0.6188141108 1.84195888 0.4386511445
-0.6954021454 2.072325945 0.5741126537
-0.7596156597 2.272887707 -0.6305352449
-0.6578537226 1.970687866 -0.4696944058
-0.7218475342 2.163646936 -0.4351073205
-0.7584783435 2.27608943 -0.3733041883
-0.755636692 2.27020359 -0.2886431515
-0.6173537374 1.856914759 -0.1674879491
-0.7489281893 2.256618261 -0.04080192745
-0.7589607239 2.272246838 0.04111607373
-0.7503234148 2.248999834 0.1220485866
-0.6391408443 1.916858315 0.1730659306
-0.6130198836 1.84065938 0.2330707312
-0.7529218793 2.263365269 0.3711140752
-0.7424983382 2.233332396 0.4492272139
-0.6086962223 1.833011031 0.4359517395
-0.6498488188 1.959222794 0.5415015221
-0.7494636774 2.270153046 -0.6289823651
-0.6558558941 1.987776875 -0.4732936025
-0.7046945095 2.13830924 -0.4293830693
-0.7464663982 2.26905632 -0.2881556749
-0.6071358919 1.847701669 -0.1664420962
-0.7316972017 2.230717659 -0.04027835652
-0.7485172749 2.267286539 0.04097645357
-0.7412168384 2.247811794 0.1218392476
-0.6339811683 1.924865127 0.1735888571
-0.6090732217 1.850330472 0.2340456992
-0.7413153052 2.254720449 0.3692368865
-0.7318570614 2.228577852 0.4477007091
-0.6019733548 1.835229874 0.4359517395
-0.6369875073 1.943122029 0.5363250971
-0.7367404699 2.258063078 -0.6248412132
-0.6467539668 1.984609127 -0.4719438851
-0.6905388236 2.120221853 -0.425185293
-0.7287278175 2.240131855 -0.3664210439
-0.7375319004 2.269888878 -0.2879119217
-0.5994521976 1.846019626 -0.1660934538
-0.7302959561 2.254310369 -0.04066231102
-0.7371019721 2.260508776 0.04080192745
-0.73421067 2.254311562 0.1220485866
-0.626024425 1.923277378 0.1732402444
-0.6078116298 1.869540811 0.2362393439
-0.7318255305 2.253664732 0.3686111271
-0.7252859473 2.234853745 0.4484639764
-0.5961648226 1.839173555 0.4364016354
-0.6280765533 1.939929843 0.5347722173
-0.7288543582 2.260620832 -0.6248412132
-0.6320574284 1.962740302 -0.4660951793
-0.6723077893 2.088979959 -0.4183161557
-0.726949513 2.261467695 -0.3695497513
-0.7302103043 2.274339676 -0.2881556749
-0.5893527269 1.836717963 -0.1650476009
-0.7230315208 2.258750677 -0.04069721699
-0.7255265713 2.251648426 0.0405925028
-0.7275614738 2.260662794 0.1222579256
-0.6272372603 1.950107932 0.1755062789
-0.5976393223 1.860311031 0.2347768992
-0.7257653475 2.261848211 0.3695497513
-0.715081811 2.229893923 0.4469375014
-0.5909305215 1.844954967 0.4373014271
-0.620123446 1.938430667 0.5337369442
-0.721544683 2.264992237 -0.6253588796
-0.6246109605 1.963077784 -0.4656452537
-0.5614923835 1.765770078 -0.3519146144
-0.722040236 2.273405313 -0.3711140752
-0.7168652415 2.259845018 -0.2859620154
-0.5865499377 1.850159526 -0.1660934538
-0.7179509997 2.268761873 -0.04083683342
-0.7200894952 2.261789083 0.04073211923
-0.715215683 2.247837543 0.1214205623
-0.6155993938 1.937095165 0.1741117984
-0.5899404287 1.858601928 0.2342894226
-0.7176629901 2.262359858 0.3692368865
-0.7061082125 2.228633165 0.446174264
-0.5815466046 1.837716937 0.435051918
-0.6136923432 1.940476298 0.5337369442
-0.714214325 2.269339561 -0.6258764863
-0.6110817194 1.942830682 -0.4602464437
-0.5541488528 1.763973117 -0.351151377
-0.7133144736 2.272017956 -0.3704883456
-0.7081799507 2.258421421 -0.2854745388
-0.5800876021 1.85219574 -0.1660934538
-0.7070432305 2.261711121 -0.04066231102
-0.7113848925 2.260349274 0.04066231102
-0.7043706775 2.240793228 0.1208971962
-0.5998821259 1.910718203 0.1714971066
-0.5825847387 1.856760025 0.233801946
-0.7062176466 2.253540993 0.367359668
-0.702233851 2.242203712 0.4484639764
-0.5737043619 1.834055662 0.4337022305
-0.6034588814 1.931542873 0.5306310654
-0.7032414079 2.260627747 -0.6227707267
-0.6031393409 1.941230178 -0.459346652
-0.6321306825 2.035793781 -0.4061043561
-0.7030382752 2.266947269 -0.3692368865
-0.6997044086 2.25898385 -0.2852308154
-0.5709968805 1.84459269 -0.1652218997
-0.5663760304 1.83192873 -0.09828805923
-0.695997715 2.252579689 -0.04045288265
-0.7034898996 2.262819052 0.04066231102
-0.6981207132 2.246931791 0.1211065501
-0.5811417699 1.872736692 0.1678365767
-0.5772755742 1.862574577 0.2342894226
-0.6940644383 2.240775347 0.36485672
-0.6915022731 2.235263586 0.4465559125
-0.5655725002 1.830461621 0.4323525131
-0.5959098339 1.929841638 0.5295957923
-0.6919420958 2.251988649 -0.6196648479
-0.6001313329 1.954396844 -0.4620460868
-0.6399875879 2.086789131 -0.4160264432
-0.6926230788 2.259822607 -0.3676725328
-0.692209959 2.261291742 -0.2852308154
-0.5622248054 1.838953137 -0.1645246595
-0.5813083053 1.902559876 -0.10205625
-0.6892983317 2.258820534 -0.04052269459
-0.688934803 2.24220109 0.04024345428
-0.6891017556 2.245535851 0.1208971962
-0.5675954819 1.851894855 0.1657448411
-0.5681893826 1.854988217 0.2330707312
-0.6873945594 2.24696207 0.3654824495
-0.6829383373 2.233788967 0.4457926154
-0.5589306355 1.830463171 0.4319026172
-0.5846620202 1.917127252 0.5254547
-0.6844698191 2.25427103 -0.6196648479
-0.5983956456 1.973263502 -0.4660951793
-0.6552704573 2.162175894 -0.4309095442
-0.6858755946 2.2660079 -0.3682982624
-0.683737278 2.26179409 -0.284987092
-0.5584287047 1.848436356 -0.1652218997
-0.6814088225 2.261213303 -0.04052269459
-0.6787806749 2.236938477 0.04010383412
-0.6829963923 2.253662109 0.1212112084
-0.5620282292 1.855673909 0.1659191549
-0.5605608225 1.853160143 0.2325832546
-0.6789762378 2.247456789 0.3651695848
-0.6688944697 2.215485811 0.4415948689
-0.551974535 1.830537319 0.4314526916
-0.5768517852 1.915457129 0.5244194269
-0.6777068973 2.260347366 -0.6207001209
-0.5831182599 1.947337866 -0.459346652
-0.6522223353 2.179496527 -0.4339624941
-0.6756982207 2.260817528 -0.3670467734
-0.6729995012 2.254656076 -0.2837683856
-0.5496944189 1.842737436 -0.1645246595
-0.5680118203 1.906571865 -0.10205625
-0.6723713875 2.259744406 -0.04045288265
-0.5854479074 1.953876495 0.03490301967
-0.6705451608 2.24072504 0.1203738302
-0.5572602749 1.863350749 0.1664420962
-0.5501123071 1.841791153 0.2308770865
-0.6733851433 2.257385015 0.3664210439
-0.6650835276 2.230977058 0.4442661703
-0.5439136624 1.826849699 0.430103004
-0.5723649263 1.924865723 0.5264900327
-0.6698130965 2.262698889 -0.6207001209
-0.5669243932 1.917592287 -0.451698333
-0.6451672316 2.183642626 -0.4343441129
-0.6672427654 2.261268139 -0.3667339385
-0.6628801227 2.249375343 -0.2827934325
-0.5449468493 1.85037899 -0.1650476009
-0.5534626245 1.881717801 -0.1005908474
-0.6599710584 2.24672842 -0.04017364234
-0.5638751984 1.906051874 0.03399549052
-0.6593245268 2.231559515 0.1197458133
-0.5513171554 1.867195249 0.1666163951
-0.5448032022 1.847508192 0.2313645631
-0.6615942121 2.246457815 0.3642309904
-0.6595095396 2.240818024 0.4457926154
-0.5325869322 1.81191051 0.4260538816
-0.56564188 1.926852107 0.5264900327
-0.6581169367 2.252043486 -0.617076695
-0.5307454467 1.818541765 -0.427403599
-0.6380901337 2.187766314 -0.4347257316
-0.6604506969 2.267376184 -0.367359668
-0.6533613205 2.245957136 -0.2820622325
-0.5345915556 1.838877559 -0.1638274044
-0.5546875596 1.91049087 -0.10205625
-0.6465550065 2.22981286 -0.03982459381
-0.560020864 1.917606354 0.03417001665
-0.6537671685 2.241517067 0.1201644912
-0.5408928394 1.85571897 0.1653962135
-0.5383504033 1.849398732 0.2313645631
-0.6504404545 2.23737216 0.3623537421
-0.6505875587 2.239336252 0.4450294077
-0.5322325826 1.83434546 0.4310027957
-0.5519230962 1.904693127 0.5197607279
-0.6491815448 2.250614643 -0.6160414219
-0.5691677332 1.975808263 -0.4647454619
-0.6304499507 2.18998003 -0.4347257316
-0.650349319 2.262073755 -0.3661082089
-0.6466135979 2.252039909 -0.2825496793
-0.5254222155 1.831156611 -0.1629558504
-0.5485659242 1.914335251 -0.1021609232
-0.5435851216 1.899460554 -0.03378606215
-0.5439082384 1.886884451 0.03357663378
-0.6453868151 2.241865873 0.1200598255
-0.5327597857 1.851851583 0.1648732871
-0.5340836644 1.858898282 0.2323395163
-0.644806385 2.247224092 0.3636052608
-0.6384371519 2.22649622 0.4419764578
-0.5397754312 1.884901285 0.442700237
-0.543677032 1.901036024 0.5182077885
-0.6413208842 2.252867222 -0.6160414219
-0.5601353049 1.970285416 -0.4629458785
-0.6233375669 2.194056273 -0.4351073205
-0.6392135024 2.252928257 -0.3642309904
-0.6371244192 2.248553514 -0.2818184793
-0.5206550956 1.838730812 -0.1634787917
-0.5359015465 1.895097852 -0.1010095328
-0.5380387902 1.905195236 -0.03385587409
-0.5334878564 1.875308037 0.03333229944
-0.6386483312 2.247947693 0.1202691719
-0.5295568109 1.865199924 0.1659191549
-0.527592063 1.860751271 0.2323395163
-0.6348047853 2.241858721 0.3623537421
-0.6279889941 2.219265699 0.4400683641
-0.5411414504 1.91490376 0.4494488239
-0.5344147682 1.893626094 0.5156196356
-0.6324086189 2.251372099 -0.6150061488
-0.5532547235 1.972228527 -0.4629458785
-0.6156755686 2.196218491 -0.4351073205
-0.6302809119 2.251341343 -0.3636052608
-0.6291300654 2.248742104 -0.2815747261
-0.5158423185 1.846293807 -0.1640017331
-0.5282099843 1.893109202 -0.1008001864
-0.5284949541 1.89541173 -0.033646442
-0.5253176093 1.871382952 0.03322758526
-0.6268751621 2.234668732 0.1194317937
-0.5230432153 1.867036939 0.1659191549
-0.5200243592 1.858758211 0.2318520397
-0.6284312606 2.247756243 0.3629795313
-0.6207669377 2.223335028 0.4404500127
-0.5316464305 1.90542531 0.4467493892
-0.5307253599 1.904692411 0.5182077885
-0.6244223714 2.251595497 -0.6144884825
-0.5441113114 1.964662075 -0.4606963694
-0.6062939763 2.190679789 -0.4335808754
-0.6228121519 2.253418922 -0.3636052608
-0.6184979677 2.239335775 -0.2801122963
-0.508656919 1.844152927 -0.1636531055
-0.5182160735 1.881371856 -0.1000674888
-0.5174307823 1.879801869 -0.03333229944
-0.5196425319 1.875041842 0.03326249123
-0.6178625822 2.230960846 0.1191177741
-0.5205662251 1.882203341 0.1671393216
-0.5149140358 1.864299417 0.2323395163
-0.6188709736 2.242211103 0.3617280126
-0.6123466492 2.221596241 0.4396867752
-0.5258418322 1.909056902 0.4471993148
-0.5228686333 1.900853992 0.5166548491
-0.61644274 2.251790285 -0.6139708161
-0.5391344428 1.972095013 -0.4620460868
-0.5990265012 2.192677975 -0.4335808754
-0.6153355241 2.255471945 -0.3636052608
-0.6096343398 2.237650394 -0.2796248496
-0.4990786016 1.834382176 -0.1626072377
-0.5104027987 1.877297878 -0.09975346923
-0.5087704062 1.873877287 -0.03319268301
-0.5150051713 1.88254118 0.03336720541
-0.6121761203 2.240810871 0.1195364669
-0.5132727027 1.880075097 0.1667907089
-0.5139507651 1.885148525 0.2347768992
-0.6084464192 2.234827757 0.3601636887
-0.6080691218 2.234980822 0.4419764578
-0.5191752315 1.910880566 0.4471993148
-0.5121837854 1.887751937 0.5125137568
-0.6036566496 2.237248182 -0.6093121171
-0.5307257175 1.968320131 -0.4606963694
-0.5909864306 2.194858789 -0.4335808754
-0.6055253148 2.251989365 -0.3626666367
-0.6028504372 2.2435987 -0.2801122963
-0.491122812 1.830340147 -0.1620842963
-0.4900781214 1.828997016 -0.0970320031
-0.4887779951 1.825419068 -0.03228515759
-0.5037427545 1.866951466 0.03305306286
-0.6001929045 2.227506399 0.1186990887
-0.5150985122 1.91568625 0.2384329885
-0.5991042852 2.231214762 0.3592250645
-0.5932639241 2.212542772 0.4370154142
-0.4773885012 1.782883286 0.4161560237
-0.4701369405 1.757028222 0.4757614732
-0.5968363285 2.243075609 -0.6103473902
-0.5165013075 1.94388473 -0.4543977082
-0.5833207965 2.196908474 -0.4335808754
-0.596142292 2.248360872 -0.3617280126
-0.5966549516 2.253469229 -0.2810872495
-0.4842215478 1.830117106 -0.1619099826
-0.4796095788 1.81524837 -0.0961946249
-0.4839349389 1.832914352 -0.03238987178
-0.4943269491 1.859122634 0.03287853673
-0.5960044265 2.243099689 0.1194317937
-0.4834551513 1.822075605 0.1612127423
-0.5187510848 1.957857728 0.2435515076
-0.5822118521 2.198920012 0.3535934091
-0.4590736926 1.736296058 0.3408477008
-0.4641979933 1.758160233 0.4098573923
-0.4580872655 1.736243248 0.4695498049
-0.5899838209 2.248882294 -0.6113826036
-0.510052681 1.945586681 -0.4543977082
-0.5786312222 2.210327148 -0.4358705878
-0.5901835561 2.256058693 -0.3626666367
-0.5841611028 2.236228943 -0.2786498666
-0.4778306782 1.831796169 -0.1619099826
-0.4710679352 1.807165623 -0.09567126632
-0.4775343239 1.834592342 -0.03238987178
-0.5851345658 2.233573914 0.1188037544
-0.4619652033 1.765926361 0.1559834033
-0.5022149086 1.92115581 0.2386767119
-0.4537904263 1.73839736 0.2778791487
-0.4543048441 1.741608262 0.3416109383
-0.4559085965 1.750260949 0.4076078832
-0.4515371025 1.735962272 0.4690321684
-0.5825223923 2.250826597 -0.6113826036
-0.5017949343 1.941695094 -0.4530479908
-0.5703169107 2.208431721 -0.4351073205
-0.5803311467 2.250453949 -0.3614151478
-0.5753620863 2.234409809 -0.27816239
-0.4737391174 1.84108901 -0.1626072377
-0.4642602205 1.806864262 -0.09556659311
-0.4691390991 1.828500271 -0.03225025162
-0.4936771989 1.908908248 0.03371625394
-0.5698427558 2.206595421 0.1172336787
-0.4546125829 1.761660933 0.155460462
-0.4469609857 1.734512448 0.2147903293
-0.4487044215 1.743796825 0.2785048783
-0.4477333128 1.741281986 0.3412292898
-0.4483427703 1.746179104 0.4062581658
-0.4526717663 1.765597582 0.4767967463
-0.5708425045 2.237870693 -0.6072415113
-0.4964575768 1.949100018 -0.4543977082
-0.5587309599 2.195188046 -0.4320543706
-0.5729590654 2.254380226 -0.3617280126
-0.5680478215 2.238328695 -0.2784061432
-0.4633919001 1.827281117 -0.1612127423
-0.4633437395 1.829771399 -0.09671798348
-0.4544197023 1.797169328 -0.03165686876
-0.4549062848 1.784666896 0.03144744039
-0.44094643 1.732426524 0.0914843902
-0.443549782 1.743928075 0.1537173539
-0.4448122978 1.751454234 0.2167402357
-0.4397016168 1.733863831 0.2766276598
-0.4469568431 1.763768554 0.3454271257
-0.4460694194 1.762846947 0.4098573923
-0.4498189986 1.780277848 0.480420202
-0.5592592359 2.224861622 -0.6031004786
-0.4901257455 1.952711344 -0.4548476338
-0.5501090884 2.193316698 -0.431291163
-0.5612477064 2.241036892 -0.3592250645
-0.5563778877 2.224891663 -0.2764562368
-0.4545951188 1.819223046 -0.1603411883
-0.447766453 1.794558525 -0.09472922236
-0.4363636672 1.750158787 -0.03078424931
-0.4369816184 1.739697337 0.03060972318
-0.4381167591 1.745502234 0.09211241454
-0.4369747937 1.743533134 0.1535430402
-0.4358047247 1.741441965 0.2152778059
-0.4382620156 1.752559781 0.2794434726
-0.4446027279 1.780555964 0.3484800458
-0.4469843805 1.7927562 0.4166059196
-0.4471824765 1.794881344 0.4840436578
-0.5528832674 2.232425451 -0.6046533585
-0.4831779897 1.952434421 -0.4543977082
-0.5367985368 2.172352314 -0.4267117381
-0.4340004325 1.760298848 -0.2174714506
-0.434430778 1.764694333 -0.1552861482
-0.4284548461 1.741729259 -0.09179840982
-0.4307291806 1.753613234 -0.03081915528
-0.4288069308 1.731431484 0.03043520078
-0.4310617745 1.74314332 0.09190307558
-0.432318449 1.750850797 0.1540659666
-0.4352586865 1.764077663 0.2179589272
-0.4363940954 1.771341324 0.2822593153
-0.4396347404 1.78583324 0.3492432833
-0.4452229738 1.811260343 0.4206550419
-0.4455187917 1.815193295 0.4892200232
-0.5441020727 2.228616953 -0.6031004786
-0.4745149314 1.946535587 -0.4525981247
-0.4431681037 1.819329381 -0.3557308018
-0.4232013524 1.739997745 -0.2769405246
-0.4222311378 1.738654852 -0.214546591
-0.4257576764 1.754508018 -0.1542402804
-0.4200204313 1.733508825 -0.09127504379
-0.4250750244 1.757049799 -0.03085405752
-0.4260776341 1.746516943 0.03067953512
-0.4254466593 1.746577978 0.09200774878
-0.4298087656 1.765825868 0.1552861482
-0.4305042028 1.771373272 0.218690142
-0.4348678589 1.792050123 0.2853879929
-0.4352484047 1.79498899 0.3507697582
-0.4375233352 1.807121158 0.4193053544
-0.4428108633 1.831759572 0.4933611751
-0.5367726088 2.23238039 -0.6036180854
-0.4599831402 1.915966868 -0.4449497461
-0.4166648388 1.736864924 -0.3389396071
-0.4189651608 1.749148726 -0.2781920135
-0.4143130183 1.732395411 -0.213571623
-0.4205564559 1.759859204 -0.154588908
-0.4162848294 1.744677901 -0.09179840982
-0.4166216254 1.748796701 -0.03067953512
-0.4246505201 1.7674371 0.03102858365
-0.424007684 1.767473578 0.09305446595
-0.4264292717 1.77894032 0.156332016
-0.428014338 1.788309813 0.2206400633
-0.4304458499 1.801242352 0.2866394818
-0.4362752736 1.827050447 0.3568756282
-0.4361836016 1.829489112 0.4242542684
-0.4422304034 1.857725501 0.5000904799
-0.4114755392 1.737951875 -0.4669616222
-0.4142900109 1.752567768 -0.40580827
-0.4096964598 1.734487653 -0.3381763697
-0.4137641788 1.75444591 -0.2788177431
-0.4119026959 1.749289274 -0.2155215442
-0.4130422473 1.755498171 -0.1540659666
-0.4161295891 1.771396875 -0.09315913916
-0.4155387878 1.77165544 -0.03106348589
-0.4203194082 1.776692629 0.03116820008
-0.4205898345 1.780605674 0.09368249774
-0.4247932434 1.799809217 0.1580751389
-0.4281451106 1.816843033 0.2240523994
-0.4250609577 1.806579709 0.2872652113
-0.4361866117 1.85531795 0.3622182906
-0.4346929193 1.851869583 0.4292031825
-0.4366241395 1.863019586 0.5011256933
-0.4049674571 1.737496257 -0.4664439857
-0.4064026773 1.746411204 -0.4040086567
-0.4049728811 1.741643906 -0.3393212259
-0.405403465 1.746258616 -0.2772534192
-0.4102776051 1.77005434 -0.2179589272
-0.4096087217 1.768575549 -0.1551118493
-0.4144437313 1.792297602 -0.09420586377
-0.4147495627 1.796476722 -0.03148234636
-0.4168377221 1.789834142 0.03137762845
-0.4188947082 1.801516652 0.09472922236
-0.4194111824 1.805162191 0.1584237665
-0.4253886342 1.83379662 0.2260023206
-0.4258830249 1.838843465 0.2922711074
-0.4323630631 1.868305683 0.3645080328
-0.4339295626 1.87805891 0.435051918
-0.4335926771 1.879591584 0.5052668452
-0.3993323147 1.740782142 -0.4669616222
-0.3998685777 1.745919704 -0.4035587609
-0.4037089348 1.764098525 -0.343519032
-0.4050248563 1.772697806 -0.2813206911
-0.4054204822 1.777282 -0.218690142
-0.4087454677 1.793305397 -0.15720357
-0.408185333 1.793733239 -0.09420586377
-0.4137929082 1.821313381 -0.0319012031
-0.4141612351 1.806871653 0.03165686876
-0.4179506898 1.826331139 0.09598527849
-0.4184364676 1.829922438 0.1605154872
-0.4225198328 1.850752473 0.2279522121
-0.423851043 1.859578729 0.295399785
-0.4249672592 1.865974903 0.3637447655
-0.4321235716 1.900465012 0.4400008619
-0.4321614802 1.903700709 0.5114784837
-0.3975065947 1.761009932 -0.4721379876
-0.3972003162 1.762513161 -0.4071579874
-0.401429683 1.782734752 -0.3469536006
-0.4023010731 1.789518952 -0.2838236392
-0.4026914239 1.794181705 -0.2206400633
-0.4055354297 1.80832994 -0.1584237665
-0.4062847495 1.814637423 -0.09525258094
-0.4135394394 1.850068331 -0.03238987178
-0.4104908407 1.820010543 0.03186629713
-0.4120113254 1.82972753 0.09608995914
-0.4146698415 1.843034744 0.1615613699
-0.4186668396 1.863837361 0.2294146568
-0.4208157957 1.87646687 0.2979027629
-0.4227434695 1.886604548 0.3675609529
-0.4263383448 1.905765057 0.4409006536
-0.4288819432 1.920281053 0.5156196356
-0.3955453634 1.781245708 -0.477314353
-0.3956847489 1.78481698 -0.4121069014
-0.3977522552 1.795625925 -0.3492432833
-0.3994647563 1.806342483 -0.286326617
-0.3985663056 1.805268407 -0.2218587548
-0.4030838311 1.827244878 -0.1599925607
-0.4042440057 1.835549593 -0.09629929811
-0.4082619548 1.855335474 -0.03245967999
-0.4093335569 1.844859004 0.03228515759
-0.4050772488 1.827183723 0.09588060528
-0.4151231647 1.875595808 0.1643503457
-0.4147275686 1.876917481 0.2308770865
-0.4179982245 1.893283486 0.3004057109
-0.4212259352 1.911075711 0.3721403778
-0.4221965969 1.918660998 0.4436000884
-0.4283188581 1.948107481 0.5228664875
-0.3893247545 1.782615662 -0.477314353
-0.3930872083 1.801350951 -0.4157061279
-0.3931530416 1.804676414 -0.3507697582
-0.3976733983 1.826959014 -0.2894552946
-0.3976354897 1.829858065 -0.2247836143
-0.399237901 1.840323329 -0.1610384285
-0.4023853242 1.856399417 -0.09734601527
-0.4034743607 1.864567161 -0.03259930015
-0.4083331227 1.869649887 0.03270401433
-0.406355679 1.863711953 0.09776470065
-0.4098443985 1.882874012 0.1648732871
-0.41103369 1.889920592 0.2323395163
-0.4130629301 1.902452588 0.3016571999
-0.4198822081 1.935485125 0.3767197728
-0.4187186062 1.93338263 0.4467493892
-0.4231494963 1.957143784 0.5249370933
-0.3842235208 1.787674427 -0.4783496559
-0.3917031884 1.825576425 -0.4211049378
-0.3921051323 1.829005837 -0.3553491533
-0.3937745094 1.839925885 -0.2913325131
-0.3970526457 1.858412743 -0.2281959504
-0.3957202733 1.855345607 -0.1622586101
-0.4000659585 1.877326608 -0.09839273244
-0.4019569755 1.889435172 -0.03301815689
-0.4043239057 1.882794738 0.0329134427
-0.4057084322 1.892459512 0.09923011065
-0.4044332504 1.888119102 0.1652218997
-0.409414798 1.914638519 0.2352643907
-0.4121934772 1.930928946 0.3060373664
-0.4147611856 1.944619536 0.3782462776
-0.4168376625 1.957704544 0.4521481991
-0.417118907 1.962387919 0.5259723663
-0.3840534389 1.819313645 -0.4866318405
-0.3877409101 1.838373542 -0.4238043725
-0.3886352181 1.845799685 -0.3584021032
-0.3870277107 1.841356874 -0.2913325131
-0.3921954632 1.867558241 -0.2291709036
-0.3925113678 1.872315884 -0.1636531055
-0.3940003216 1.88269031 -0.09860207886
-0.399451375 1.91040051 -0.03336720541
-0.3985756934 1.888107538 0.03298325092
-0.4023942947 1.909499049 0.1000674888
-0.4016113281 1.909085989 0.1669650227
-0.4051783383 1.927711844 0.2367268056
-0.4066671729 1.93815589 0.3069759607
-0.4116562903 1.965342283 0.3820624352
-0.4128497839 1.974479198 0.4557474256
-0.4142173529 1.98274219 0.5311487317
-0.3824090064 1.843342185 -0.4928435087
-0.3821862638 1.845506907 -0.4251540601
-0.3869628012 1.870215535 -0.362981528
-0.3857925832 1.867845416 -0.295399785
-0.3877525628 1.880648494 -0.2306333482
-0.3899936378 1.893188596 -0.1653962135
-0.3890347481 1.891879559 -0.09902077168
-0.3951953948 1.923535824 -0.03357663378
-0.396522522 1.913052797 0.03340211138
-0.3981569409 1.922626376 0.1006955206
-0.4001889229 1.935840964 0.1692310721
-0.3997154236 1.936960459 0.2377017736
-0.4050852656 1.96471417 0.3110432625
-0.4071675539 1.978304744 0.3843521178
-0.4083085656 1.98736155 0.4584468603
-0.4142854214 2.01823926 0.540466249
-0.3798306882 1.863595009 -0.4980198741
-0.3803419769 1.867769122 -0.430103004
-0.3819968402 1.879250526 -0.3645080328
-0.3851009905 1.896216631 -0.2997799516
-0.3842742741 1.895542622 -0.2323395163
-0.3885195553 1.919924974 -0.1676622629
-0.3883004487 1.920566201 -0.1004861742
-0.3916428685 1.940585256 -0.03385587409
-0.3929723203 1.928072929 0.033646442
-0.3914428055 1.924004674 0.1006955206
-0.3962053061 1.950893641 0.1704512537
-0.3996053934 1.969402671 0.2416016012
-0.3990093768 1.969988346 0.311668992
-0.4044984579 1.998887062 0.388168335
-0.4032597542 1.996344924 0.4602464437
-0.4106739163 2.0367167 0.545124948
-0.3763058484 1.878103852 -0.5016433597
-0.3764946759 1.882461786 -0.4332523048
-0.3788408339 1.895908237 -0.3675609529
-0.3823429644 1.916921496 -0.302908659
-0.3823070228 1.920235038 -0.2352643907
-0.3821510971 1.92120266 -0.1676622629
-0.3847061396 1.937581897 -0.101323545
-0.3859840631 1.945796013 -0.03392568231
-0.3913419247 1.954923391 0.03410020471
-0.3905445635 1.952710748 0.1021609232
-0.3905132711 1.956104517 0.1707998663
-0.3981611729 1.998040557 0.2450139225
-0.3951739073 1.984862208 0.3138590753
-0.4028774202 2.027244806 0.3935109675
-0.4008383751 2.02067852 0.4656452537
-0.4061704874 2.049437523 0.5482307673
-0.370865941 1.885092497 -0.5031962991
-0.3758872747 1.912382364 -0.4400008619
-0.3767557144 1.920337558 -0.3721403778
-0.3786433637 1.93174839 -0.3050987422
-0.3789868057 1.937077284 -0.2372142822
-0.3777341843 1.934257627 -0.1687081307
-0.3821038008 1.95844996 -0.1023702696
-0.3845414817 1.974610925 -0.03441435099
-0.3867874742 1.966020823 0.03427473083
-0.386035502 1.965820909 0.102788955
-0.3859817982 1.96918726 0.171845749
-0.3953476548 2.018831015 0.2474513054
-0.3939267397 2.015310049 0.3185521066
-0.3999149501 2.047838211 0.3973271549
-0.403082937 2.067902565 0.4764429033
-0.4012292325 2.062220335 0.5513366461
-0.3694111705 1.912930965 -0.5104432106
-0.3707200885 1.92331481 -0.442250371
-0.3745045662 1.944775105 -0.3767197728
-0.3719339371 1.935063124 -0.305411607
-0.3767471313 1.963797569 -0.2403829098
-0.3751050234 1.957088947 -0.1706255525
-0.3771752417 1.971607089 -0.1029982939
-0.3806490898 1.991654515 -0.03469358757
-0.3848829567 1.994913816 0.03476339579
-0.3837068081 1.990690708 0.104045026
-0.3828711212 1.990087152 0.1735888571
-0.3886937797 2.024165392 0.2479388118
-0.3880075216 2.022492409 0.319490701
-0.3946213722 2.06085968 0.3996168673
-0.3984280825 2.084678888 0.4800421298
-0.3991002738 2.090174198 0.5585835576
-0.3670480251 1.936985612 -0.5166548491
-0.3661529124 1.934107065 -0.4444998801
-0.3706302643 1.961503386 -0.3797727227
-0.3699124157 1.959578872 -0.309166044
-0.3717024922 1.972839117 -0.241357848
-0.3734256923 1.98579967 -0.1730659306
-0.3757973313 2.000328064 -0.1044637039
-0.3788534701 2.020487309 -0.03518225253
-0.3834771812 2.023685455 0.03525206819
-0.3808379769 2.013605118 0.1051964089
-0.3822043836 2.024694681 0.1765521467
-0.3834502399 2.03324604 0.248913765
-0.3875221312 2.058777809 0.3251223564
-0.3917756677 2.083380938 0.4038146436
-0.3951080143 2.105141401 0.4845411479
-0.3992719054 2.131429911 0.5694539547
-0.3648636639 1.960983038 -0.5228664875
-0.3633135855 1.956449389 -0.4494488239
-0.3648402691 1.966582298 -0.3805359602
-0.3666667938 1.980281472 -0.3122947216
-0.3662561476 1.981932998 -0.2423328161
-0.3679385185 1.994927883 -0.1737631559
-0.3717073798 2.017341375 -0.1053010821
-0.3739697635 2.033597469 -0.03539168462
-0.3778721094 2.032876015 0.03539168462
-0.3767227829 2.030632019 0.1060337871
-0.3802077174 2.051418304 0.1788181961
-0.3835734427 2.073611736 0.2537885308
-0.3871466517 2.097026587 0.3310668468
-0.3905559182 2.117557287 0.410302192
-0.3926957846 2.133339643 0.490839839
-0.3946213722 2.148011208 0.573595047
-0.3576733172 1.962307334 -0.5228664875
-0.36032179 1.978794932 -0.4543977082
-0.3607887626 1.985291004 -0.3839705288
-0.3636360168 2.004936218 -0.3160491586
-0.3642908931 2.010545254 -0.2457451522
-0.3645174801 2.015806198 -0.1755062789
-0.3685679436 2.042276144 -0.1065571457
-0.370416373 2.054570198 -0.03574073315
-0.3718498945 2.040084362 0.03549639881
-0.3728488088 2.049619913 0.1069758385
-0.3733985722 2.056718588 0.1791668236
-0.3791663647 2.090564013 0.2557384372
-0.3798247576 2.098365068 0.3310668468
-0.3876776397 2.14602232 0.4156447947
-0.3869490623 2.146271229 0.4935392141
-0.3888325989 2.158881903 0.5761832595
-0.3545593917 1.984462857 -0.5285605788
-0.3554617167 1.993531585 -0.4575470686
-0.3572999239 2.005866528 -0.3877867162
-0.3576729298 2.012027979 -0.3169877529
-0.359692961 2.02750349 -0.2476950586
-0.3581746221 2.020990133 -0.1758549064
-0.3663061857 2.071084738 -0.1080225557
-0.3667221367 2.075542688 -0.03608977795
-0.3647210002 2.043402433 0.03553130478
-0.3667442501 2.056807518 0.1072898433
-0.3707541823 2.083509922 0.181432873
-0.3777496815 2.127120733 0.2601257265
-0.3783632219 2.132743359 0.3363856375
-0.381210506 2.153162241 0.4167896807
-0.3828459382 2.16679883 0.4980382323
-0.3866675198 2.190665245 0.5844655037
-0.348295927 1.989494205 -0.5295957923
-0.3505269587 2.004297495 -0.4597965777
-0.3543459177 2.030309677 -0.3923661113
-0.354391098 2.032663107 -0.3201164305
-0.3584123254 2.059976816 -0.2515948713
-0.357252419 2.05756259 -0.1789925247
-0.3597779572 2.074255943 -0.1081272215
-0.3642491102 2.104395866 -0.03657845035
-0.354150027 2.022933245 0.03514735028
-0.3605930507 2.06397748 0.1076038629
-0.3682704866 2.112270594 0.1838732362
-0.3727369606 2.140095711 0.261588186
-0.3746376038 2.155458927 0.3398271799
-0.3774271905 2.173757553 0.4206058383
-0.387635082 2.237181425 0.5142346621
-0.3921848238 2.268145561 0.6051709652
-0.3462725878 2.017294645 -0.5368427634
-0.3451740444 2.015112877 -0.4620460868
-0.3515841961 2.054695606 -0.3969455659
-0.3502865136 2.051412821 -0.3229322731
-0.3522201777 2.067085505 -0.2523260713
-0.3544386327 2.08230567 -0.1810842454
-0.355545789 2.093220472 -0.1090692729
-0.3615790606 2.133256435 -0.03706711531
-0.3477628231 2.028098822 0.0352171585
-0.3520382643 2.057349205 0.1071851775
-0.366299808 2.142938614 0.1864879131
-0.3679339886 2.15703845 0.2635380626
-0.3730772436 2.191806316 0.3454588354
-0.3777348697 2.221513271 0.429764688
-0.3839430809 2.267595768 0.6046533585
-0.3424300253 2.037542105 -0.5420191288
-0.3429729044 2.045133829 -0.4687945843
-0.3444102407 2.05591011 -0.3969455659
-0.346380949 2.072106361 -0.3260609806
-0.3479415178 2.085924864 -0.2545197308
-0.3530627191 2.118905306 -0.1842218637
-0.3534775972 2.125972271 -0.1107440144
-0.3547854424 2.138451099 -0.03713692725
-0.3416740298 2.035217047 0.03532187641
-0.3432051539 2.048716545 0.1066618189
-0.3644070327 2.177610397 0.1894512028
-0.3656339645 2.189637184 0.2674378753
-0.377112776 2.263241768 0.3567221165
-0.3780370057 2.27123332 0.4393051267
-0.3761579096 2.26482439 0.5200834274
-0.3763406277 2.270828247 0.6051709652
-0.339078337 2.06159997 -0.5482307673
-0.3399341702 2.071317911 -0.4746433198
-0.3404071927 2.076473951 -0.4007617235
-0.3442474902 2.104494333 -0.3310668468
-0.3454551697 2.116514206 -0.2581758201
-0.3495119214 2.143721819 -0.1863135844
-0.3505447209 2.154791832 -0.1122094318
-0.3498812914 2.155467272 -0.03741616011
-0.3345681727 2.036397219 0.03532187641
-0.33669734 2.053843975 0.1068711653
-0.3674292266 2.243753433 0.1952034831
-0.3723931015 2.279060602 0.2784061432
-0.3708000779 2.274292231 0.3582864404
-0.3729462624 2.289978981 0.4427397251
-0.3688755035 2.269970417 0.5209832191
-0.3637731075 2.243524075 0.5974064469
-0.3324941099 2.066585541 -0.5492660403
-0.3394966424 2.114822149 -0.4845411479
-0.3393751681 2.116418839 -0.4083940983
-0.3393954039 2.121287584 -0.3335697949
-0.3430714309 2.149071693 -0.2620756328
-0.3423399925 2.146896362 -0.1864879131
-0.3474137783 2.183616638 -0.1136748269
-0.352702558 2.221849203 -0.03856801987
-0.3261879981 2.029655218 0.03518225253
-0.3323734701 2.07275486 0.1078132018
-0.3605395555 2.250924349 0.1957264096
-0.3644369543 2.280346394 0.2784061432
-0.3625474572 2.273622274 0.3579736054
-0.3597021699 2.258306503 0.4362521768
-0.3377037942 2.124975681 0.486790657
-0.3293162882 2.076874733 0.5518542528
-0.3294807673 2.094451189 -0.5565130115
-0.3345302343 2.131395817 -0.4881403744
-0.3356337547 2.140865564 -0.4129734933
-0.335347116 2.143927336 -0.3370113671
-0.3380158246 2.165947199 -0.264025569
-0.3394472897 2.177607536 -0.1891025752
-0.3477690518 2.236128092 -0.1163963005
-0.3548478484 2.284262419 -0.03965007141
-0.3169278204 2.016953468 0.03493792191
-0.3320010006 2.115281105 0.1100113168
-0.3554537594 2.269884825 0.1972952038
-0.3552485108 2.273759365 0.2774311602
-0.3513501287 2.251390934 0.3542191386
-0.3255386651 2.090778828 0.4030514061
-0.3249001205 2.091479778 0.4786924124
-0.3200580478 2.062683105 0.5477131605
-0.3283326924 2.135686159 -0.5673834085
-0.327460885 2.132493258 -0.4881403744
-0.3317257166 2.165311337 -0.4175528884
-0.3333157301 2.178222895 -0.342330128
-0.3413172066 2.235738516 -0.2725563943
-0.3480431736 2.285141706 -0.1985154003
-0.3474716842 2.289441824 -0.03971988335
-0.3108466566 2.021945953 0.03500773013
-0.3200727403 2.086814404 0.1084412411
-0.3493380249 2.282928705 0.1983410865
-0.3444066644 2.253339291 0.2747500539
-0.32026425 2.100284815 0.3298153877
-0.3165337443 2.078260899 0.4003801048
-0.3144501448 2.069426298 0.4732936025
-0.313434571 2.067608118 0.5487484336
-0.3252701163 2.163508415 -0.5746303201
-0.3240612149 2.160603762 -0.4944390059
-0.3283261955 2.191640139 -0.422513932
-0.3385567665 2.265334845 -0.3560963869
-0.3407573402 2.288253784 -0.1986896992
-0.336943537 2.268077135 -0.1179663762
