# .PCD v0.7 - Point Cloud Data file format
VERSION 0.7
FIELDS x y z
SIZE 4 4 4
TYPE F F F
COUNT 1 1 1
WIDTH 1284
HEIGHT 1
VIEWPOINT 0 0 0 1 0 0 0
POINTS 1284
DATA ascii
8.112963676 2.186009169 -1.324113011
9.166754723 2.457941771 -0.1649583578
9.171671867 2.478143215 0.1651328802
9.171100616 2.474554539 0.4956226349
9.158989906 2.469571829 0.8262110353
9.118926048 2.455355406 1.15440309
9.096531868 2.445920229 1.485240459
9.087138176 2.44169426 1.820762396
8.07281971 2.166128159 1.919728994
6.880970001 1.843748808 1.897195697
8.460916519 2.254441738 -2.334599733
9.018527985 2.401329041 -2.144680023
9.057449341 2.408311844 -1.81351161
8.115194321 2.154736042 -1.323174357
8.646269798 2.294135809 -1.093224645
8.719010353 2.310174704 -0.7854222059
9.088474274 2.404672623 -0.4904937446
9.163680077 2.422859192 -0.164748922
9.168672562 2.443025827 0.1649234444
9.166172981 2.438928843 0.4948899448
9.160279274 2.433937073 0.8255138397
9.110174179 2.418921947 1.152209401
9.097377777 2.412125111 1.48398912
9.088434219 2.406363726 1.819235802
8.092008591 2.139511585 1.92242837
6.896701813 1.822190523 1.899783969
8.461261749 2.222928286 -2.332529306
8.94998455 2.347985506 -2.126234055
8.957554817 2.348300457 -1.791759372
8.107378006 2.122395039 -1.320671439
8.620052338 2.253386974 -1.088837385
8.676900864 2.266634703 -0.7808901072
9.108409882 2.375955343 -0.491121769
9.150795937 2.385310888 -0.1643649638
9.154353142 2.403312922 0.1645045877
9.13599205 2.39678359 0.4927965105
9.155226707 2.398414135 0.8242936134
9.097853661 2.379991055 1.149528265
9.086631775 2.375356436 1.480860353
9.085382462 2.371646881 1.816946149
6.908629417 1.799564481 1.901336908
8.454008102 2.189506292 -2.328387976
8.997339249 2.32854867 -2.135681868
8.108633995 2.094018698 -1.319732904
8.625553131 2.224299431 -1.088593483
8.734926224 2.249248028 -0.7854222059
9.120106697 2.346735239 -0.4913311005
9.149382591 2.350863695 -0.1641904563
9.158402443 2.371937752 0.1644347906
9.148172379 2.365876436 0.4930059016
9.153897285 2.363953114 0.8234221339
9.096086502 2.347325802 1.148309588
9.071910858 2.337714911 1.477105856
9.08178997 2.338565588 1.814656377
8.025227547 2.063517809 1.903082728
6.901771069 1.77207315 1.897713423
8.438760757 2.155723572 -2.322176695
9.01296711 2.299052 -2.137481689
9.030403137 2.301825762 -1.803207994
8.100580215 2.061801195 -1.317229986
8.629417419 2.193196774 -1.088106155
8.742722511 2.218749762 -0.7854222059
9.132113457 2.31586957 -0.491540432
9.143961906 2.31548214 -0.163946107
9.147251129 2.335005999 0.1640857309
9.137018204 2.329001665 0.4919591546
9.126932144 2.324729919 0.8202844858
9.10229969 2.315077543 1.148065925
9.060871124 2.301168919 1.473977327
9.074672699 2.302993059 1.811603546
8.121167183 2.057988644 1.924228072
6.902296066 1.746550441 1.896160483
8.433492661 2.121474504 -2.318552971
8.998257637 2.261878014 -2.132082701
9.027355194 2.265837908 -1.800918221
8.085087776 2.026336432 -1.31347549
9.128913879 2.279482126 -0.4909124672
9.142288208 2.281126738 -0.1637715995
9.130135536 2.296717405 0.1636319607
9.148966789 2.298064232 0.4921684861
9.127660751 2.289325476 0.8195872307
9.081441879 2.276048899 1.144409776
9.065013885 2.268568993 1.473351479
9.06019783 2.263998985 1.807024002
6.910225868 1.722911716 1.89667809
8.437094688 2.091099501 -2.317517757
8.968654633 2.219517469 -2.123084784
9.027584076 2.232433796 -1.799391747
8.090194702 1.997626066 -1.313162684
8.951455116 2.205316067 -0.8028533459
9.105784416 2.239966393 -0.4892376661
9.111357689 2.239650965 -0.163073495
9.122963905 2.259394884 0.1633527279
9.11815834 2.256515741 0.4900750518
9.123991966 2.254580021 0.818541348
9.066595078 2.237044096 1.141484857
9.063288689 2.234545708 1.471787214
9.056606293 2.229549646 1.804734349
8.18678093 2.012381792 1.93637538
6.923701286 1.700624704 1.898748636
8.434959412 2.059342623 -2.314929485
8.968391418 2.187918425 -2.121284962
8.091016769 1.969383121 -1.312223911
9.026125908 2.193659544 -1.135391474
9.009439468 2.18627429 -0.8073854446
9.084047318 2.202700138 -0.4876676202
9.107458115 2.205011368 -0.1628640592
9.112921715 2.224862814 0.1630385816
9.092991829 2.216634274 0.4882956445
9.12793541 2.221772909 0.8181927204
9.052747726 2.201802969 1.13880384
9.055677414 2.199163437 1.469284177
9.05632019 2.197650433 1.803207994
6.925839901 1.675539136 1.897713423
8.421082497 2.026386023 -2.309235573
8.972184181 2.15569067 -2.120385408
8.097840309 1.941133738 -1.312223911
9.041449547 2.163989305 -1.136366367
9.070895195 2.16936326 -0.812266171
9.09750843 2.172366619 -0.4879816175
9.09370327 2.168103218 -0.162480101
9.112854958 2.191171169 0.1628989726
9.092905045 2.183012724 0.4878769517
9.115878105 2.186850071 0.8164496422
9.062308311 2.170649529 1.139047503
9.038322449 2.161573172 1.465216875
9.06584549 2.166478395 1.803589582
7.980407238 1.904145241 1.884186625
6.924129486 1.649560571 1.895642757
8.964484215 2.120767355 -2.116786242
6.27017498 1.482207417 -1.244137526
8.089187622 1.90922296 -1.309720993
8.93108654 2.104638577 -1.121498346
8.91550827 2.09932518 -0.797623992
9.101147652 2.139684916 -0.4877722859
9.085640907 2.132693052 -0.1622008681
9.099043846 2.154277802 0.1625150144
9.088809013 2.148504496 0.4872488976
9.096309662 2.148601532 0.8140092492
9.065965652 2.138093472 1.138560057
9.016970634 2.123216629 1.460523844
9.044686317 2.128076792 1.797865391
7.996490002 1.87850678 1.886436224
6.922321796 1.623617649 1.893572211
6.13225317 1.430407166 -1.675646544
6.27913475 1.461202741 -1.244900823
8.086181641 1.878741264 -1.30815661
8.909373283 2.066719532 -1.117842317
8.911135674 2.065494061 -0.7965781093
9.089102745 2.103397369 -0.486725539
9.08134079 2.098261833 -0.1619914472
9.087034225 2.117961645 0.1621659696
9.080690384 2.113146067 0.4864115417
9.095993042 2.115029335 0.8133120537
9.052103043 2.101493835 1.135878921
9.024327278 2.091730356 1.460523844
9.036759377 2.092945576 1.794812441
8.096031189 1.872096658 1.908481359
6.93547678 1.601180792 1.895642757
6.137209415 1.408991218 -1.675646544
6.259015083 1.434656024 -1.472526193
8.088839531 1.849621058 -1.307530999
8.901051521 2.032074928 -1.11589241
8.906637192 2.031714916 -0.7955322266
9.067177773 2.065006971 -0.4851554632
9.078860283 2.064334393 -0.1618169099
9.076828957 2.082206964 0.1618518233
9.06854248 2.076974154 0.4853647947
9.091665268 2.080600262 0.812266171
9.040031433 2.065463543 1.133441448
9.020018578 2.057578564 1.458646655
9.024868011 2.057027817 1.790996194
8.11961937 1.847714543 1.912530541
6.929720879 1.574395299 1.892536998
6.032796383 1.362870574 -1.645623565
6.26208353 1.412371755 -1.472076416
8.095247269 1.82137239 -1.307530999
8.89453125 1.997943878 -1.114186168
8.909788132 1.99973762 -0.795183599
9.056792259 2.029411316 -0.4842134416
9.068447113 2.02870369 -0.1615027785
9.068437576 2.046985149 0.1615725756
9.064047813 2.042674065 0.4847368002
9.102760315 2.049724579 0.8126147389
9.033628464 2.030849457 1.131735325
9.021364212 2.024780035 1.45770812
9.024329185 2.023795843 1.7894696
8.053756714 1.803179026 1.89543426
6.946486473 1.55272305 1.895642757
6.041288853 1.342640519 -1.646658897
8.941853523 1.983998775 -2.104638815
6.389928341 1.416613102 -1.2639817
8.13627243 1.800788999 -1.313162684
8.878190994 1.961750746 -1.111261368
8.901148796 1.965189934 -0.7937891483
9.052117348 1.995207429 -0.4835853875
9.052038193 1.991877198 -0.1610839218
9.059909821 2.011856318 0.1612933427
9.061372757 2.008858204 0.4842134416
9.090407372 2.013635159 0.8108716607
9.036786079 1.9984442 1.131247878
9.005228996 1.988168955 1.453953624
9.02367115 1.990588903 1.787943244
8.010520935 1.764159679 1.883736849
6.948090553 1.52763772 1.894607544
6.045708656 1.322597861 -1.646658897
8.954094887 1.955584764 -2.105988503
9.003230095 1.964665294 -1.78298223
8.084294319 1.761185408 -1.303776503
8.880767822 1.931452513 -1.110773802
8.88035965 1.929740548 -0.791348815
9.056732178 1.964756966 -0.4834807515
9.052731514 1.960576296 -0.1609792113
9.062623978 1.980944991 0.1612235457
9.054326057 1.975815296 0.4834807515
9.061995506 1.975836635 0.8077340722
9.043364525 1.968463659 1.131247878
9.000190735 1.955780387 1.452076435
9.007200241 1.955653071 1.783363819
8.027752876 1.740064502 1.886436224
6.953117847 1.504589915 1.894607544
6.050287724 1.301490426 -1.646658897
8.947529793 1.921450734 -2.102839231
7.877487659 1.690228701 -1.557827592
7.943594933 1.70150888 -1.279998422
8.883574486 1.899608731 -1.110286355
8.881196022 1.897479296 -0.7908258438
9.038142204 1.92771256 -0.4821200073
9.049738884 1.926888347 -0.1608046889
9.046024323 1.944253683 0.1608046889
9.06116581 1.944203973 0.4834807515
9.061044693 1.942519307 0.8070367575
9.028826714 1.932320714 1.128566742
9.003100395 1.92352438 1.451450706
8.990931511 1.919288039 1.778784394
8.029967308 1.711217523 1.885536551
6.946990013 1.477896094 1.891501665
6.0925951 1.288354993 -1.657011628
8.914140701 1.88175571 -2.09339118
7.860287666 1.657856584 -1.553248048
7.899227619 1.663190126 -1.271863818
8.870724678 1.864501953 -1.107848883
8.878016472 1.864421248 -0.7899543047
9.031133652 1.893280864 -0.4813872874
9.050538063 1.894055605 -0.1606999636
9.044930458 1.911009431 0.1606650501
9.052264214 1.909262896 0.4826433659
9.063872337 1.910054564 0.8066881895
9.000552177 1.893434644 1.124179482
8.992360115 1.888433814 1.448634744
8.986047745 1.885470748 1.776494622
8.043519974 1.684776902 1.887336016
6.967234612 1.456798792 1.895642757
6.165146828 1.281232119 -1.675646544
8.922563553 1.851021528 -2.093841076
7.854491711 1.628019929 -1.550958395
7.874035358 1.629200459 -1.266857982
8.857737541 1.829516888 -1.10541153
8.890324593 1.834625244 -0.7904772162
9.027905464 1.859736204 -0.4808639288
9.035550117 1.858019233 -0.1603160203
9.04371357 1.877805114 0.1605254412
9.035405159 1.872790694 0.4813872874
9.062679291 1.876794219 0.805990994
9.003217697 1.861198902 1.123691916
8.987290382 1.854635477 1.446757674
8.988729477 1.853296995 1.775731444
8.022629738 1.65118742 1.881037354
6.960922718 1.430141807 1.892536998
8.91942215 1.817924857 -2.091591597
7.82934761 1.594322681 -1.544852614
7.844830036 1.594623923 -1.261226296
8.856287956 1.797005057 -1.104436517
8.871289253 1.798436999 -0.7882111669
9.018681526 1.825040102 -0.4800265729
9.01845932 1.821718454 -0.1598971486
9.046293259 1.845423222 0.1604556292
9.030144691 1.838846087 0.480759263
9.0496521 1.84117353 0.8042478561
9.005768776 1.82897222 1.12320447
8.968541145 1.818152547 1.442690372
8.991295815 1.821131587 1.774968266
8.045536041 1.626646519 1.885086417
6.971553802 1.406979561 1.894089818
8.910427094 1.783716679 -2.08799243
7.78866148 1.557740569 -1.535693645
7.858097076 1.568779349 -1.262477875
8.858613014 1.765305877 -1.10394907
8.861880302 1.764348984 -0.7868167162
9.024996758 1.793549776 -0.4800265729
9.00907135 1.787111878 -0.1596179157
9.029150963 1.809122205 0.1600367725
9.036509514 1.807311416 0.480759263
9.032577515 1.804890156 0.8021560907
9.000418663 1.795192957 1.12174201
8.963209152 1.784522891 1.440813184
8.978342056 1.785902381 1.77115202
8.051163673 1.598557949 1.885086417
6.959367275 1.379257202 1.889431238
6.193389893 1.219585776 -1.679787755
8.901302338 1.749593616 -2.084393263
7.809463501 1.53357172 -1.538746595
7.859648228 1.540577888 -1.261852145
8.864722252 1.734370351 -1.10394907
8.866030693 1.733019948 -0.7866423726
9.00963974 1.757826209 -0.4788751602
9.017217636 1.756037593 -0.1596528292
9.021677017 1.774889231 0.1597924381
9.031002998 1.773449779 0.4801312387
9.02709198 1.771045685 0.801110208
8.985199928 1.759570122 1.119060874
8.96744442 1.752843022 1.44050014
8.961399078 1.75003767 1.766572595
8.052869797 1.569696784 1.884186625
6.967932224 1.355692148 1.890466332
6.227956772 1.203826666 -1.68806982
8.888220787 1.714821815 -2.079894066
7.841758251 1.5115062 -1.544089437
7.861097813 1.512388349 -1.261226296
8.85122776 1.699670315 -1.101511836
8.866153717 1.700936675 -0.7861194015
9.003951073 1.724109888 -0.4782471359
9.011507034 1.72230041 -0.1594433933
9.014074326 1.740730166 0.1595481038
9.017526627 1.738136649 0.4790844917
9.033219337 1.73952198 0.801110208
8.973742485 1.724824667 1.116867304
8.957987785 1.718554735 1.437997222
8.961668015 1.717639089 1.765427828
8.050644875 1.540114641 1.882387161
6.980212688 1.332808614 1.892536998
8.027639389 1.522647023 -2.177755356
8.141664505 1.54132688 -1.903082728
7.846986294 1.484125733 -1.544089437
7.881858349 1.48786819 -1.263729334
8.841208458 1.667367935 -1.09956181
8.866164207 1.668869734 -0.7855965495
8.994211197 1.689721465 -0.4774097502
9.01127243 1.691298604 -0.159338668
9.020095825 1.709256649 0.1595481038
9.00361824 1.704506397 0.4780378044
9.031405449 1.706501961 0.8004130125
8.968004227 1.691280365 1.115404844
8.942285538 1.684813857 1.434555769
8.963750839 1.685618639 1.76466465
8.040385246 1.510528326 1.878787756
6.994087696 1.311435699 1.895125151
8.88052845 1.650720358 -2.075395107
7.849933624 1.4577353 -1.543707609
7.886748791 1.461724281 -1.263729334
8.834978104 1.635873437 -1.098099351
8.848138809 1.635116339 -0.7835047841
8.984051704 1.656990051 -0.4765723944
8.98929882 1.656335711 -0.1588499993
9.019816399 1.678239942 0.1594433933
9.001364708 1.673181534 0.4776190817
9.021342278 1.673637629 0.7990184426
8.96575737 1.660088301 1.114429951
8.922571182 1.65048182 1.430488467
8.963499069 1.654816985 1.763519645
8.053015709 1.485272646 1.880587459
7.0002985 1.28858304 1.895642757
8.818609238 1.612157822 -2.390504837
8.874451637 1.619161248 -2.072695732
7.858588219 1.432401776 -1.544471025
7.887666225 1.434853554 -1.263103485
8.8328228 1.603603125 -1.097124457
8.838109016 1.601380706 -0.7821102738
8.981636047 1.625763059 -0.4761536717
8.991090775 1.624238014 -0.1587802023
8.997792244 1.643287659 0.1589547247
8.997325897 1.639961958 0.4770957232
9.003322601 1.639427066 0.7969267964
8.965353012 1.629284739 1.113698721
8.920503616 1.617913485 1.429237008
8.953482628 1.622285366 1.760466814
8.06198597 1.457844615 1.88148725
6.981939793 1.260023952 1.889431238
8.805441856 1.5764184 -2.385328293
8.868538857 1.586117148 -2.069996357
7.87538147 1.405656695 -1.546760678
7.900651455 1.407321692 -1.264355063
8.985567093 1.592486501 -0.476049006
8.980952263 1.590052009 -0.1585009694
8.98378849 1.608347297 0.158605665
9.004962921 1.608894467 0.4772004187
9.001423836 1.605020285 0.7962294817
8.957304955 1.595540524 1.111992478
8.918316841 1.58538413 1.42798543
8.93230629 1.584650517 1.755124092
8.074951172 1.429646969 1.883286953
6.990099907 1.236315727 1.890466332
8.808988571 1.54534018 -2.384810686
8.851258278 1.549566746 -2.064597368
7.893778324 1.380527258 -1.549432039
8.918386459 1.553299189 -1.106386542
8.963521957 1.556325316 -0.4745836258
8.982778549 1.556443572 -0.1584311426
8.977805138 1.573335767 0.158396244
8.995059967 1.573128223 0.4763630033
8.995197296 1.571529865 0.795183599
8.93962574 1.558610201 1.109067678
8.920175552 1.552006841 1.4273597
8.937782288 1.553467512 1.755124092
8.072212219 1.40011704 1.88148725
7.004101753 1.212336421 1.893054605
8.814330101 1.514579296 -2.384810686
8.850851059 1.517674565 -2.063247919
8.295816422 1.418030739 -1.326303124
8.696762085 1.483437419 -1.078112841
8.716908455 1.485312581 -0.7699084878
8.964962959 1.524355412 -0.4743742943
8.976329803 1.523069024 -0.1582217366
8.979300499 1.541317582 0.1583264321
8.972935677 1.536996603 0.4748976231
8.99669838 1.539455295 0.794835031
8.939142227 1.52639091 1.108336449
8.923591614 1.520530343 1.427046895
8.919926643 1.518303871 1.750544667
8.061680794 1.3693223 1.877888083
7.029242992 1.191429377 1.898748636
8.798605919 1.480278492 -2.379116535
8.85417366 1.486445069 -2.062798023
8.886820793 1.490335584 -1.743293881
8.351371765 1.3975389 -1.334437728
8.692095757 1.451442122 -1.076894164
8.706317902 1.452250957 -0.7685139775
8.962347984 1.491747141 -0.4739555717
8.961863518 1.488447666 -0.1578726768
8.976737976 1.508636355 0.1581868082
8.966427803 1.503685713 0.4742695689
8.982366562 1.504747272 0.7930918932
8.938540459 1.494197965 1.107605219
8.911309242 1.486444354 1.424231172
8.925171852 1.487160087 1.750544667
8.066411972 1.341171265 1.877888083
7.029547215 1.166258097 1.897713423
8.790376663 1.447357178 -2.375493288
8.851614952 1.454271436 -2.060998201
8.874533653 1.456441998 -1.739859462
8.410780907 1.377322793 -1.343197942
8.685355186 1.419169188 -1.075431705
8.687736511 1.418005943 -0.7664222121
8.959614754 1.459166884 -0.4735368788
8.959109306 1.455874681 -0.157733053
8.962218285 1.4740448 0.1578377783
8.967680931 1.471728802 0.4740602374
8.967905045 1.470158219 0.791348815
8.945661545 1.463305712 1.107848883
8.900845528 1.452789426 1.421728015
8.91480732 1.453466654 1.747491717
8.078737259 1.314263463 1.879687786
7.020227432 1.139544606 1.894089818
8.787747383 1.415433288 -2.373422861
8.841245651 1.420888782 -2.057399035
8.867933273 1.423585653 -1.73756969
8.392131805 1.344204068 -1.339443564
8.682415009 1.387591839 -1.074456811
8.684763908 1.38641274 -0.765724957
8.944930077 1.424743533 -0.4724901915
8.952037811 1.424273729 -0.1575236171
8.947566032 1.439577341 0.1574887186
8.964622498 1.440716743 0.4736415446
8.961177826 1.436954618 0.7903029323
8.931114197 1.428932071 1.10541153
8.901713371 1.422639251 1.421102405
8.892684937 1.418008924 1.742149115
8.0909729 1.287277818 1.88148725
7.033507347 1.117772579 1.89667809
8.784999847 1.383553624 -2.371352196
8.822809219 1.387925744 -2.052000284
8.872847557 1.392628312 -1.73756969
8.435574532 1.322484016 -1.34570086
8.667356491 1.355726242 -1.072019339
8.677739143 1.354243279 -0.7646790743
8.923951149 1.39107585 -0.4711294472
8.953004837 1.392399669 -0.1574538201
8.940438271 1.40803349 0.1572792828
8.957759857 1.407553077 0.47301355
8.962203026 1.405046105 0.7899543047
8.904424667 1.39439559 1.101511836
8.902722359 1.390945554 1.420476675
8.889578819 1.387302756 1.74062264
8.087496758 1.25923872 1.879687786
7.041183949 1.09380877 1.897713423
8.789540291 1.354411364 -2.371352196
8.817968369 1.355641246 -2.049750566
8.8618927 1.360810757 -1.734516621
8.432329178 1.291835666 -1.34444952
8.656337738 1.323061585 -1.070069432
8.686122894 1.326058507 -0.7650277615
8.928751945 1.35991466 -0.4711294472
8.941757202 1.360294342 -0.1571745723
8.945298195 1.376814604 0.1572792828
8.930792809 1.372986317 0.4713387787
8.962873459 1.374716163 0.7896056175
8.905312538 1.362706184 1.10102427
8.89361763 1.359328151 1.418286562
8.89048481 1.35567379 1.739859462
8.084136009 1.229825974 1.877888083
7.048591614 1.071035147 1.898748636
8.775110245 1.320843935 -2.366175652
8.814707756 1.325235248 -2.047951221
8.847173691 1.326954246 -1.730700493
8.420937538 1.261526227 -1.341946602
8.643008232 1.291705728 -1.067875862
8.667050362 1.292206287 -0.7629359961
8.931238174 1.330001712 -0.4710247815
8.930627823 1.326724648 -0.1568953395
8.941905975 1.345950246 0.1571396738
8.927630424 1.340619206 0.4709200561
8.955795288 1.341652274 0.7885597944
8.903892517 1.332288027 1.10029304
8.872908592 1.324485779 1.41421926
8.894931793 1.326182008 1.739859462
8.092024803 1.203590035 1.878787756
7.048466206 1.045855522 1.897713423
8.43310833 1.233265162 -1.343197942
8.645499229 1.261243343 -1.067632079
8.643906593 1.257929683 -0.7604956627
8.934075356 1.296973109 -0.4709200561
8.919372559 1.293249249 -0.1566161066
8.934679031 1.312986374 0.1569302529
8.928303719 1.308866143 0.4707107544
8.928652763 1.307325602 0.7857708335
8.910453796 1.301484227 1.100536823
8.875523567 1.293218374 1.413906455
8.880303383 1.29074955 1.736043096
8.096177101 1.175334215 1.878787756
7.055897236 1.021800518 1.898748636
7.816496849 1.120807052 -2.104250669
7.880631447 1.127196193 -1.827948928
7.937133312 1.132447124 -1.550195217
8.374991417 1.193432212 -1.33318615
8.642203331 1.228428006 -1.066657186
8.644514084 1.225678205 -0.7601470947
8.922947884 1.261983871 -0.4700827003
8.920091629 1.259987712 -0.1565462947
8.915677071 1.276826262 0.1565113813
8.936995506 1.276695967 0.4709200561
8.937329292 1.275152206 0.7861194015
8.901407242 1.26685679 1.098830581
8.876292229 1.260125875 1.413280606
8.86553669 1.25543797 1.732227087
8.115866661 1.1478374 1.882387161
7.05576992 0.9953911304 1.897713423
7.94874382 1.110050678 -2.138932705
8.7957201 1.225202084 -2.040302753
8.375396729 1.162183166 -1.33256042
8.630917549 1.194569111 -1.064707279
8.641052246 1.192898154 -0.75944978
8.907729149 1.226544499 -0.4690360129
8.920687675 1.226742625 -0.1564764827
8.920296669 1.244142056 0.1565113813
8.921833038 1.241181731 0.4698733687
8.937995911 1.241840243 0.7857708335
8.878461838 1.230410099 1.095418334
8.87302494 1.226500034 1.412029266
8.870078087 1.222937703 1.732227087
8.112298012 1.117017984 1.880587459
7.078509331 0.9721538424 1.902889729
8.758659363 1.190446496 -2.356858253
8.788565636 1.191382885 -2.037603378
8.832392693 1.194188952 -1.724212885
8.363940239 1.129361272 -1.330057502
8.615563393 1.160279512 -1.062269807
8.637467384 1.160155892 -0.7587525249
8.902266502 1.1925596 -0.4685126543
8.921159744 1.193505764 -0.1564066708
8.918851852 1.210634232 0.1564066708
8.910489082 1.206331611 0.4690360129
8.93459034 1.20800674 0.7850735188
8.869141579 1.196001291 1.093712091
8.869628906 1.192914844 1.410777688
8.862826347 1.188855052 1.729937315
8.104747772 1.085722923 1.877888083
7.085854053 0.9467163682 1.903924942
8.743406296 1.158858538 -2.351681709
8.78087616 1.16070199 -2.034904003
8.818583488 1.164124727 -1.720778465
8.348053932 1.099042416 -1.326928735
8.603420258 1.131138921 -1.060319901
8.621315956 1.130426288 -0.7570094466
8.900028229 1.163811326 -0.468198657
8.897104263 1.161849737 -0.1559180021
8.918852806 1.18052423 0.1563368589
8.90235424 1.176759601 0.4684079885
8.92669487 1.176807046 0.7840276957
8.873058319 1.166589618 1.093712091
8.832202911 1.159645796 1.404207468
8.862623215 1.160497546 1.729174018
8.111983299 1.060762763 1.878787756
7.090709686 0.924695313 1.904442668
8.726126671 1.127133489 -2.345988035
8.778879166 1.130827904 -2.033554316
8.818500519 1.1343714 -1.720015287
8.339897156 1.069842815 -1.325051546
8.611063004 1.103104711 -1.060807347
8.607229233 1.099556088 -0.7554405928
8.903838158 1.134293199 -0.468198657
8.896942139 1.13183248 -0.1558481902
8.908835411 1.149152756 0.1560925245
8.910169601 1.147739768 0.4686172903
8.910787582 1.144661903 0.7822846174
8.869002342 1.136147618 1.092737198
8.828162193 1.129349947 1.40295589
8.854738235 1.129608631 1.726884246
8.123188972 1.034843326 1.880587459
7.084154606 0.8999640942 1.901854515
8.722148895 1.097227573 -2.34391737
8.774846077 1.100741386 -2.031754494
8.818317413 1.104635596 -1.719251871
8.300274849 1.036796093 -1.318168521
8.59910202 1.071074605 -1.058857441
8.600943565 1.069779634 -0.7545691133
8.895658493 1.103283286 -0.4675706029
8.892900467 1.099793792 -0.1557085812
8.892757416 1.117108941 0.1557434797
8.906194687 1.11564362 0.468198657
8.910580635 1.114609361 0.7819359899
8.856962204 1.104766846 1.090787292
8.824210167 1.097549438 1.40170455
8.846746445 1.098788977 1.724594712
8.130619049 1.006958485 1.88148725
7.09875679 0.8766490817 1.904960275
8.720173836 1.066069365 -2.342364311
8.755421638 1.067276955 -2.026355743
8.814325333 1.072896242 -1.717725515
8.339141846 1.012102127 -1.323800206
8.598847389 1.040572405 -1.058369994
8.614514351 1.04094708 -0.7554405928
8.891523361 1.07126677 -0.4671519101
8.892713547 1.068265676 -0.1556387544
8.886675835 1.08485508 0.1555689573
8.892190933 1.082374096 0.4672565758
8.902550697 1.082054019 0.7808901072
8.823321342 1.069303393 1.086156249
8.829947472 1.066979289 1.402017355
8.838832855 1.066487908 1.72230494
8.130215645 0.978107512 1.880587459
7.10752821 0.8525528312 1.906513214
8.720004082 1.035169959 -2.341329098
8.757159233 1.03647697 -2.025905848
8.806318283 1.040741205 -1.715435863
8.432866096 0.9936177135 -1.338192105
8.687202454 1.020515323 -1.068850756
8.711278915 1.020256996 -0.7636333108
8.881321907 1.038605452 -0.4664191902
8.88447094 1.035825849 -0.1554293334
8.89040947 1.053825855 0.1555689573
8.868145943 1.048048019 0.4657911658
8.90231514 1.050510883 0.78054142
8.827000618 1.038499594 1.086156249
8.815961838 1.034077048 1.399201512
8.838602066 1.035168886 1.721541643
8.129709244 0.9492675662 1.879687786
7.123892307 0.8293061852 1.9101367
8.716195107 1.00079155 -2.015558243
8.693043709 0.9950591922 -1.692538738
8.530658722 0.9734551311 -1.353209853
8.751853943 0.9971489906 -1.076406717
8.786054611 0.9979393482 -0.7699084878
8.891022682 1.006718516 -0.4667331874
8.886045456 1.004584312 -0.1553944349
8.907939911 1.024382949 0.1558132917
8.883656502 1.018448591 0.4664191902
8.894227982 1.016515493 0.7794955373
8.814793587 1.005878568 1.084206343
8.799890518 1.001066446 1.396072865
8.842335701 1.002768874 1.721541643
8.13700676 0.9199039936 1.880587459
7.119065285 0.8035655022 1.908066154
8.57167244 0.9554105997 -2.299400568
8.788173676 0.9748840928 -1.71047473
8.775504112 0.9703737497 -1.391692758
8.840294838 0.974419117 -1.08688736
8.860779762 0.9751076698 -0.7761836648
8.878600121 0.9739364982 -0.4658958316
8.891486168 0.9737753272 -0.1554293334
8.901698112 0.9906228781 0.1556387544
8.891127586 0.9878713489 0.4666285217
8.881879807 0.9837099314 0.7781010866
8.830259323 0.9748728275 1.085668802
8.815112114 0.9716433287 1.397950053
8.830170631 0.9701837897 1.718488693
8.151790619 0.8927656412 1.883286953
7.106463432 0.7770320773 1.903924942
8.680592537 0.9368830323 -2.327870369
8.701656342 0.9376201034 -2.01060915
8.833668709 0.9471662641 -1.400452971
8.829661369 0.9436193109 -1.085181236
8.858186722 0.9435406327 -0.7756607533
8.877809525 0.9440639019 -0.4656865001
8.87295723 0.9404159784 -0.1550453901
8.873124123 0.957662642 0.1550802886
8.890550613 0.9564042091 0.4664191902
8.881299019 0.9522732496 0.7777525187
8.817652702 0.9438924193 1.083718777
8.802736282 0.9391880035 1.395447135
8.809913635 0.9383987784 1.713909268
8.154706001 0.8657300472 1.883286953
7.120659828 0.7534389496 1.907030821
8.687494278 0.908495605 -2.328905582
8.730072975 0.9098678827 -2.016458035
8.700876236 0.9052898884 -1.692157149
8.807449341 0.9132710695 -1.395760059
8.844748497 0.9140142202 -1.086643696
8.853338242 0.9133445024 -0.7749634385
8.861182213 0.9110236764 -0.4646397531
8.881994247 0.911601305 -0.1551501006
8.878400803 0.9268932939 0.1551151872
8.877780914 0.925262332 0.4655818343
8.872516632 0.9215789437 0.776706636
8.799174309 0.9108608365 1.08103776
8.807767868 0.9101926088 1.395760059
8.805323601 0.906838119 1.712382913
8.157678604 0.8372613192 1.883286953
7.130805492 0.7306109071 1.909101367
8.675235748 0.8766131401 -2.324764729
8.74273777 0.8818884492 -2.018707514
8.827978134 0.8827099204 -1.084206343
8.852508545 0.8820376396 -0.7746148705
8.860179901 0.8812404275 -0.4644304216
8.877162933 0.8798004985 -0.1550104916
8.835665703 0.892824173 0.1543123722
8.861083984 0.8922639489 0.4645350873
8.87964344 0.8910021186 0.7770552039
8.796220779 0.8810807467 1.080306411
8.801062584 0.8784630299 1.394195676
8.804375648 0.8772418499 1.711619496
8.148775101 0.809047401 1.880587459
7.137157917 0.7060937285 1.9101367
8.681941986 0.8482135534 -2.325799942
8.739943504 0.8508005142 -2.017357588
8.759595871 0.8511704206 -1.702460885
8.799696922 0.8519667387 -1.393569946
8.803343773 0.8492183089 -1.080793977
8.542179108 0.8210157156 -0.7470736504
8.857237816 0.8497369885 -0.4641164243
8.830767632 0.8611978292 0.1541727632
8.856193542 0.8605568409 0.4641164243
8.866684914 0.8600143194 0.7756607533
8.793314934 0.8497998714 1.0795753
8.782445908 0.8456555009 1.390754104
8.799567223 0.8457540274 1.710093141
8.167068481 0.782081902 1.884186625
7.145348072 0.681728065 1.911689639
8.656141281 0.8136727214 -2.318035364
8.721517563 0.8182867169 -2.012408972
8.711131096 0.8035112023 -0.4562660158
8.681970596 0.7992892265 -0.1514850855
8.519154549 0.8007960916 0.1486577988
8.855166435 0.8292629123 0.463907063
8.8499403 0.8256617785 0.773917675
8.798205376 0.8192820549 1.079818964
8.781410217 0.8146307468 1.390128374
8.790878296 0.8124101162 1.707803488
8.181523323 0.7532165051 1.88688612
7.134218693 0.6555427313 1.908066154
8.457322121 0.7577689886 -1.338192105
8.815126419 0.7867306471 -1.081525207
8.829271317 0.7833337188 -0.4623369873
8.84220314 0.7813705802 -0.1542425752
8.852636337 0.7994229794 0.1544519961
8.854166985 0.7964456081 0.4636977315
8.848799706 0.7944059968 0.7735689878
8.777421951 0.7849097252 1.076894164
8.780403137 0.7820828557 1.389502645
8.774105072 0.779982686 1.703987241
8.18798542 0.7249946594 1.887785792
7.155817032 0.6310888529 1.913242579
8.653913498 0.7525522709 -2.315964937
8.699969292 0.7535018921 -2.006110191
8.721672058 0.7507812381 -1.379803658
8.817818642 0.7559529543 -1.081525207
8.822273254 0.7547880411 -0.7709543705
8.83394146 0.7526762486 -0.462441653
8.854841232 0.7513437867 -0.1544170976
8.837443352 0.7669625282 0.1541378647
8.840974808 0.7641556263 0.4628603756
8.843579292 0.7628300786 0.7728717923
8.75835228 0.7523946762 1.074212909
8.783079147 0.751434803 1.389502645
8.776774406 0.7493482828 1.703987241
8.198232651 0.6970748901 1.889585495
7.194550514 0.6092015505 1.923077583
7.865523815 0.653575182 -1.812202454
7.868787289 0.6524674296 -1.526534915
8.804576874 0.7238690257 -1.0795753
8.816910744 0.7233340144 -0.7702570558
8.824570656 0.7208616138 -0.4618136287
8.841338158 0.7206779718 -0.1541378647
8.850030899 0.7369366884 0.1543123722
8.837489128 0.7343392968 0.4625463188
8.850159645 0.7322818041 0.7732204199
8.743120193 0.720356822 1.072019339
8.773710251 0.721331358 1.387625456
8.771510124 0.7180724144 1.702460885
8.204500198 0.6687678099 1.890485287
7.150319099 0.581579566 1.910654306
7.782756329 0.622086525 -2.080439329
7.799658775 0.6220638752 -1.79645586
8.791096687 0.6934210658 -1.077625394
8.82691288 0.6915960908 -0.4618136287
8.82186985 0.6881029606 -0.1537539065
8.848438263 0.7072679996 0.1542425752
8.832034111 0.7028543353 0.4621276557
8.840744019 0.700437963 0.7721745372
8.749417305 0.6916699409 1.072506785
8.754512787 0.688993752 1.384183884
8.773842812 0.6889786124 1.702460885
8.19890213 0.6409473419 1.888685822
7.138823509 0.5555723906 1.907030821
8.211497307 0.6188673377 -1.005966187
8.215769768 0.6163054705 -0.7170920968
8.825289726 0.660479784 -0.4616042972
8.82022953 0.6570052505 -0.1536840945
8.838891029 0.675460279 0.1540331393
8.832442284 0.671866715 0.46202299
8.827125549 0.6699127555 0.7707800269
8.731985092 0.6596270204 1.070069432
8.752924919 0.6581404805 1.383558154
8.756616592 0.6568770409 1.698644519
8.212749481 0.6132001877 1.891385198
7.16961813 0.5327954888 1.914795518
5.501932621 0.3982457519 -1.064013839
8.215587616 0.5903440714 -1.00620985
8.223833084 0.5880474448 -0.7176150084
8.811714172 0.6269969344 -0.4607669413
8.818479538 0.6259272695 -0.1536142826
8.827233315 0.6435866356 0.153788805
8.832741737 0.6408846974 0.4619182944
8.825546265 0.6372702122 0.7704313397
8.728294373 0.6287124753 1.069338202
8.757138252 0.6277219653 1.383870959
8.751132011 0.6242212653 1.697118163
8.226605415 0.5839166045 1.894084692
8.21373558 0.5599563718 -1.005722523
8.237762451 0.5601499677 -0.7186608911
8.801893234 0.5954233408 -0.4601388872
8.824601173 0.5954123735 -0.1536840945
8.823548317 0.6108165979 0.1536840945
8.822969437 0.6092293262 0.4612902403
8.81579113 0.6056419611 0.7693855762
8.698852539 0.5945536494 1.06543839
8.749422073 0.5964758396 1.382306576
8.745422363 0.5931364894 1.695591688
8.236370087 0.5557233095 1.895884156
7.365911484 0.4957004786 1.966559172
5.409958363 0.3555365503 -1.241726518
8.21752739 0.5328456759 -1.005966187
8.251596451 0.5321625471 -0.7197067142
8.799833298 0.565977335 -0.4599295557
8.814652443 0.5638411045 -0.1534746736
8.823531151 0.5814194083 0.153649196
8.805113792 0.577119112 0.4602435529
8.821827888 0.5751222968 0.7697341442
8.684929848 0.5646752715 1.063488483
8.741594315 0.5652955174 1.380742192
8.747341156 0.5641341209 1.695591688
8.234278679 0.528159678 1.894984365
7.417723656 0.4731812775 1.980017781
8.701665878 0.5398424268 -1.686432719
8.118227959 0.5007981658 -1.281562805
8.225280762 0.5045202971 -1.006697297
8.253315926 0.5047940612 -0.7197067142
8.797766685 0.5350118279 -0.4597201943
8.796607018 0.5318638086 -0.1531256139
8.825507164 0.5506178737 0.153649196
8.811060905 0.5466291308 0.4604528844
8.81175518 0.5451242924 0.7686882615
8.68288517 0.534113884 1.063001037
8.733656883 0.5341729522 1.379178047
8.741417885 0.5331205726 1.694065094
8.239961624 0.4996471107 1.895884156
7.401975155 0.4462409616 1.975359082
7.95285511 0.465523243 -1.54027307
8.06470871 0.4692461193 -1.272802472
8.242847443 0.4767243266 -1.008647323
8.251049995 0.4757539034 -0.7193581462
8.795593262 0.5040719509 -0.4595108628
8.786429405 0.500469923 -0.1529161781
8.811404228 0.5188649297 0.1533699483
8.804940224 0.5154003501 0.4600342214
8.801669121 0.5136675835 0.7676424384
8.686677933 0.5039142966 1.06324482
8.727579117 0.5032304525 1.377926469
8.739305496 0.5023764372 1.693301916
8.257219315 0.4717722237 1.899483323
7.426632881 0.421716392 1.981570721
8.607209206 0.4736820757 -1.667351961
7.961758137 0.4353734851 -1.25622046
8.252388954 0.4483810365 -1.009622216
8.258627892 0.4472704828 -0.7198810577
8.787327766 0.4728318453 -0.4589874744
8.792118073 0.4700077772 -0.1529860049
8.797188759 0.4872214496 0.1530907154
8.798707962 0.4842208624 0.4596155286
8.795451164 0.4825061858 0.7669451237
8.660634041 0.4720741808 1.059832454
8.709557533 0.4716919363 1.374797821
8.725324631 0.4710185826 1.690249085
8.266600609 0.4433615804 1.901283026
7.429987907 0.3958943784 1.982088327
7.77161026 0.4004929662 -1.504401088
7.848806858 0.4017280936 -1.238074064
8.257868767 0.4197713733 -1.010109663
8.282027245 0.4195503294 -0.7217984796
8.770971298 0.4412499666 -0.4580454528
8.79370594 0.439316541 -0.1529860049
8.796839714 0.4564045668 0.1530558169
8.780399323 0.452478677 0.4585688412
8.793102264 0.4515946805 0.7665965557
8.648351669 0.4411340058 1.058126211
8.711151123 0.4412888587 1.374797821
8.722993851 0.4403625131 1.689485908
8.287560463 0.4154805243 1.905781865
7.352217197 0.3660162389 1.960865259
5.318015575 0.2563742995 -1.219231367
7.767077923 0.3730778992 -1.503256202
7.759397507 0.3699980974 -1.223682046
8.251353264 0.3905698657 -1.009134769
8.287421227 0.3908275366 -0.7221471071
8.76048851 0.4100724161 -0.4574174285
8.775137901 0.4092233479 -0.1526369452
8.792387009 0.4254070818 0.1529511064
8.771876335 0.4228802323 0.4580454528
8.798604965 0.4210906029 0.7669451237
8.637942314 0.4103754461 1.056663871
8.704674721 0.4120273888 1.373546362
8.716632843 0.4095400274 1.687959313
8.259760857 0.3851890564 1.899033427
5.338304043 0.2396100461 -1.223730445
4.094798565 0.1823650599 -0.7884855866
4.121565819 0.1828344613 -0.6467516422
8.761799812 0.3810210824 -0.4574174285
8.764526367 0.3780704737 -0.1524275243
8.785758018 0.3958897889 0.1528114825
8.771304131 0.3921665549 0.4579407871
8.784098625 0.3896664679 0.765550673
8.647187233 0.3820809424 1.057638764
8.68632412 0.3807724416 1.370417595
8.721865654 0.3808053732 1.688722491
8.266834259 0.3580472767 1.900383234
7.381558418 0.3171270788 1.968112111
4.069615841 0.168431744 -0.9303941131
4.081650257 0.1682181954 -0.7858142853
4.110336304 0.1679613888 -0.6448744535
4.114327908 0.1666879803 -0.5004521012
4.119226456 0.1661643982 -0.3569645286
8.767066956 0.3505916297 -0.45762676
8.761795998 0.3473177254 -0.1523577124
8.783091545 0.3650509715 0.1527416706
8.770623207 0.3614661694 0.4578360915
8.769416809 0.3598833978 0.7641561627
8.638550758 0.3514925539 1.056420088
8.685626984 0.3503672481 1.370104671
8.711371422 0.3498871326 1.686432719
8.279716492 0.3296514153 1.903082728
7.432810307 0.2933374941 1.981570721
4.058495522 0.1537851989 -0.9276947975
4.103792191 0.1547823995 -0.7900120616
4.103002071 0.153320387 -0.6436229944
8.284692764 0.3066815436 -1.012790799
8.28901577 0.3053969443 -0.7219727635
8.752270699 0.3194016814 -0.4567893744
8.762955666 0.3167288899 -0.1523577124
8.764328957 0.3336311877 0.1523926109
8.767840385 0.3306958973 0.45762676
8.758673668 0.3288194239 0.7631103396
8.631791115 0.3210389018 1.055445194
8.686796188 0.3200526237 1.370104671
8.692920685 0.3187549114 1.682616711
8.288606644 0.3010364175 1.904882193
7.427996635 0.2671800256 1.980017781
7.658150673 0.2634149492 -1.759113908
7.730278969 0.2645452321 -1.495242238
7.690714359 0.2605037093 -1.21210587
8.737362862 0.288323462 -0.4559520185
8.770003319 0.2863319814 -0.1524624228
8.75344944 0.3026190698 0.15218319
8.762953758 0.2998853624 0.4573127627
8.759768486 0.2982457876 0.7631103396
8.618970871 0.290440172 1.053738952
8.67798996 0.289396584 1.368540287
8.693980217 0.2884067297 1.682616711
8.285712242 0.2719718814 1.903982401
7.421160698 0.2410006225 1.977947354
7.649284363 0.2363820523 -1.756864429
7.717460632 0.2357889116 -1.492570877
7.685694218 0.2321368903 -1.211167336
8.260838509 0.2480614632 -1.009622216
8.312894821 0.2467244714 -0.723890245
8.738360405 0.2562994361 -0.4559520185
8.750961304 0.2551404536 -0.152113378
8.760448456 0.2722460032 0.1522879153
8.745978355 0.2687448561 0.4563706815
8.764784813 0.2662605643 0.7634589076
8.61397934 0.2601746023 1.053007722
8.667100906 0.2587511241 1.366663218
8.694978714 0.2565416694 1.682616711
8.267172813 0.2410352677 1.899483323
7.418094635 0.2149805427 1.976912022
7.646203995 0.2082363814 -1.755964637
7.702536583 0.2084252983 -1.489517927
7.686457634 0.2053053528 -1.211167336
8.26367569 0.2178364247 -1.009865999
8.3097229 0.2175990343 -0.723541677
8.735208511 0.2256897986 -0.4557426572
8.735805511 0.2241796106 -0.1518341452
8.759388924 0.2400826663 0.1522530019
8.742871284 0.2381029725 0.45616135
8.745744705 0.2351263613 0.7617158294
8.61487484 0.228598848 1.053007722
8.652152061 0.2280769497 1.36416018
8.695821762 0.2261907756 1.682616711
8.271861076 0.2122738063 1.900383234
7.416868687 0.1890376061 1.976394415
7.654644966 0.1830637604 -1.75776422
7.697329044 0.181400016 -1.48837316
7.681171894 0.1796742976 -1.210228682
8.294496536 0.1882314682 -0.7221471071
8.735909462 0.1967233121 -0.4557426572
8.732536316 0.1935977936 -0.1517643183
8.748142242 0.2107469589 0.152043581
8.743649483 0.2075850368 0.45616135
8.73456192 0.2043146938 0.7606699467
8.617569923 0.2000774145 1.053251386
8.670670509 0.1982780844 1.366976142
8.680823326 0.1969985962 1.679563761
8.280312538 0.1850139797 1.902182698
7.297737598 0.1605144739 1.944300771
7.637701988 0.1559864283 -1.753715038
7.697888374 0.1558716297 -1.48837316
7.669901848 0.1526267231 -1.208351493
8.284814835 0.1619702429 -1.012303352
8.299059868 0.1607998163 -0.7224957943
8.724561691 0.1659978181 -0.4551146626
8.729160309 0.1630373597 -0.1516945213
8.734829903 0.179922536 0.1517992467
8.736332893 0.176898703 0.4557426572
8.727223396 0.1751905084 0.7599726915
8.612261772 0.1698755324 1.052520275
8.653533936 0.167667985 1.36416018
8.657902718 0.1662410647 1.674984336
8.284805298 0.1561843753 1.903082728
7.354267597 0.1360741109 1.95931232
7.63040638 0.1291945726 -1.751915455
7.698385239 0.1290016472 -1.48837316
7.666438103 0.1257896423 -1.207725763
8.281359673 0.1329878569 -1.011815906
8.303554535 0.1318947375 -0.7228443623
8.705118179 0.1352339834 -0.4540679157
8.733675003 0.1326243132 -0.1517643183
8.727406502 0.1492920518 0.1516596228
8.728909492 0.1462701112 0.4553239942
8.727781296 0.1447275877 0.7599726915
8.592954636 0.1394916922 1.050082803
8.65011692 0.1373995841 1.363534451
8.662355423 0.1360776871 1.675747514
8.281402588 0.1272019893 1.902182698
7.654193401 0.102874577 -1.757314324
7.694862366 0.1020743474 -1.487609863
7.670780659 0.099080652 -1.208351493
8.273833275 0.1039777026 -1.010841012
8.305955887 0.1029355526 -0.7230186462
8.701541901 0.1047962159 -0.4538585842
8.726086617 0.1020455882 -0.1516247094
8.727874756 0.1188244894 0.1516596228
8.717384338 0.1156383604 0.45469594
8.724247932 0.1142065749 0.759624064
8.585449219 0.1093923897 1.049107909
8.652518272 0.1072304994 1.363847375
8.662777901 0.105841428 1.675747514
8.270103455 0.09816063941 1.899483323
7.411058426 0.08537366241 1.974323869
7.65840292 0.07619256526 -1.758214116
7.687319279 0.07513850182 -1.486083388
7.682931423 0.07241368294 -1.210228682
8.705849648 0.07445751876 -0.4540679157
8.706393242 0.07141887397 -0.1512756646
8.726236343 0.08833939582 0.1516247094
8.713741302 0.08517110348 0.4544866085
8.71662426 0.08367789537 0.7589268088
8.571884155 0.07929210365 1.047401786
8.637038231 0.07688394934 1.361344457
8.659168243 0.07556547225 1.674984336
8.28208828 0.06938774884 1.902182698
7.405515671 0.05945875496 1.972770929
7.693424702 0.04834292457 -1.487228274
7.671285629 0.04552243277 -1.208351493
8.143336296 0.04690627754 -0.9947541952
8.161030769 0.04415565729 -0.7102939487
8.710050583 0.04408587515 -0.4542772472
8.706582069 0.04254879057 -0.1512756646
8.716493607 0.05780996755 0.151450187
8.713974953 0.05627241731 0.4544866085
8.704910278 0.05317535251 0.7578809857
8.582034111 0.04943321645 1.048620462
8.639221191 0.04825071245 1.361657262
8.647600174 0.0452831462 1.672694564
8.284221649 0.0419305414 1.902632594
7.401808739 0.03488412127 1.971735597
7.709248543 0.02287481539 -1.490281105
7.673369884 0.02008632757 -1.208664417
8.137491226 0.01988494024 -0.9940229058
8.153162003 0.01707351208 -0.7095966339
8.690176964 0.01516894531 -0.4532305598
8.710676193 0.01368036121 -0.1513454765
8.704639435 0.02886667103 0.1512407511
8.714114189 0.02738142386 0.4544866085
8.701053619 0.02429914847 0.7575323582
8.566268921 0.02093271166 1.046670556
8.625506401 0.01957211085 1.359467149
8.628068924 0.01656633057 1.668878317
8.29600811 0.0144809112 1.905332088
7.386428833 0.01031501498 1.967594504
1.015189171 0.0001774798293 -0.2604240179
7.758363247 -0.002708179876 -1.499821663
7.811670303 -0.005453575402 -1.23056519
8.129571915 -0.00709439069 -0.9930480123
8.16711998 -0.00997802522 -0.7108168602
8.686183929 -0.01364423521 -0.4530211687
8.704673767 -0.01519253571 -0.1512407511
8.700687408 -0 0.1511709541
8.702173233 -0.001518815756 0.4538585842
8.697101593 -0.004553792067 0.7571837306
8.556367874 -0.007466840558 1.04545188
8.637375832 -0.009045041166 1.361344457
8.628076553 -0.01204707474 1.668878317
8.299907684 -0.01303747483 1.906231999
7.349717617 -0.01411046181 1.95775938
1.015184164 -0.003189305542 -0.2604240179
8.606431961 -0.03154436126 -1.664680719
8.117592812 -0.03400309384 -0.9915856123
8.161066055 -0.03703399748 -0.7102939487
8.678103447 -0.04240954667 -0.4526025057
8.700575829 -0.04403794929 -0.1511709541
8.696640015 -0.02883925661 0.1511011273
8.686141968 -0.03032047488 0.4530211687
8.697038651 -0.03339439258 0.7571837306
8.546369553 -0.0357991606 1.044233203
8.627421379 -0.03764446452 1.359780073
8.627989769 -0.04065874219 1.668878317
8.288126945 -0.04050375149 1.903532505
7.367016315 -0.03857395798 1.962418199
1.015165687 -0.006910119671 -0.2604240179
8.588589668 -0.06295877695 -1.661245942
8.11740303 -0.06517207623 -0.9915856123
8.14095211 -0.06678210944 -0.7085508108
8.67788887 -0.07421609014 -0.4526025057
8.686346054 -0.07732076198 -0.1509266198
8.694476128 -0.06069987267 0.1510662287
8.679969788 -0.06362864375 0.4527071714
8.692873955 -0.06524050236 0.7568351626
8.558091164 -0.06721647084 1.045695662
8.60153389 -0.07056036592 1.355712771
8.627781868 -0.07228162885 1.668878317
8.291807175 -0.07236150652 1.904432297
1.015135407 -0.01045366749 -0.2604240179
8.125066757 -0.09359817952 -0.9925606251
8.142662048 -0.09522222728 -0.7087251544
8.681571007 -0.1045552269 -0.4528118372
8.678024292 -0.1075421721 -0.1507869959
8.692212105 -0.09102795273 0.1510313302
8.675701141 -0.09388379008 0.4524978399
8.668685913 -0.09532101452 0.7547433972
8.56375885 -0.09715692699 1.046426773
8.609136581 -0.1006772891 1.356964231
8.615698814 -0.1022579893 1.666588664
8.295401573 -0.1013524905 1.905332088
7.385852814 -0.09281824529 1.967594504
1.015092611 -0.01399708632 -0.2604240179
7.925392151 -0.1162006408 -1.248711586
8.128659248 -0.1220189631 -0.9930480123
8.138273239 -0.1250047386 -0.7083764672
8.665177345 -0.1346107572 -0.4519744813
8.673598289 -0.1377699822 -0.1507171839
8.677845001 -0.1211734414 0.1507869959
8.685304642 -0.1243099645 0.4530211687
8.668299675 -0.1255797893 0.7547433972
8.54550457 -0.1267844141 1.044233203
8.608732224 -0.1307281703 1.356964231
8.611364365 -0.1322714537 1.665825486
8.306687355 -0.1304918677 1.908031464
7.37968874 -0.1185060591 1.966041565
0.9454984069 -0.01650373451 -0.2417890429
8.587432861 -0.1543919742 -1.661245942
7.92491293 -0.1452478617 -1.248711586
8.116274834 -0.150172174 -0.9915856123
8.145756721 -0.1535620689 -0.709073782
8.648650169 -0.1660625786 -0.4511371255
8.677062035 -0.1681230962 -0.1507869959
8.665372849 -0.151254639 0.1505775601
8.674835205 -0.1544488221 0.4524978399
8.667780876 -0.1573498547 0.7547433972
8.533101082 -0.1563947499 1.042770743
8.612174034 -0.1608512402 1.35758996
8.602970123 -0.1636834294 1.66429913
8.302257538 -0.1608610302 1.907131791
7.367641926 -0.144038707 1.962935805
1.014966488 -0.02126051672 -0.2604240179
8.575064659 -0.1841139048 -1.658956289
7.924357414 -0.1729100943 -1.248711586
8.103762627 -0.1796548367 -0.9901231527
8.145170212 -0.1819951236 -0.709073782
8.648018837 -0.1962509751 -0.4511371255
8.670425415 -0.1982735395 -0.1506822854
8.670758247 -0.1831404865 0.1506822854
8.65427494 -0.1843034774 0.451451093
8.671162605 -0.1876913309 0.7550919652
8.526515007 -0.1875381023 1.042039514
8.599709511 -0.1906496435 1.355712771
8.598420143 -0.1936239898 1.663535714
8.293851852 -0.1896621436 1.905332088
7.372888088 -0.1698891968 1.964488745
1.014886141 -0.02480328269 -0.2604240179
8.566519737 -0.2138493806 -1.657429934
8.099153519 -0.2064257413 -0.9896357059
8.136518478 -0.2102201283 -0.7083764672
8.651312828 -0.2250316143 -0.4513464272
8.653687477 -0.2281161696 -0.1504030377
8.670103073 -0.2118927687 0.1506822854
8.64958477 -0.2144123912 0.4512417912
8.666471481 -0.2178580612 0.7547433972
8.529816628 -0.215912506 1.04252696
8.581220627 -0.2202110142 1.352896929
8.601656914 -0.222237736 1.66429913
8.289281845 -0.2170624882 1.904432297
7.391561985 -0.1961367875 1.969665051
1.014798284 -0.02816862985 -0.2604240179
8.555951118 -0.2419783026 -1.65552175
8.098383904 -0.2346958071 -0.9896357059
8.131793976 -0.2370845079 -0.7080278993
8.650474548 -0.2552289665 -0.4513464272
8.646887779 -0.2566336095 -0.1502983272
8.663313866 -0.2419882566 0.1505775601
8.654815674 -0.2432626337 0.4515557587
8.645785332 -0.2460291833 0.7530002594
8.52702713 -0.245628655 1.042283297
8.582417488 -0.2487233877 1.353209853
8.589054108 -0.2519164085 1.662009358
8.309900284 -0.2466320843 1.90938127
7.369630337 -0.2200128883 1.963971138
0.964490056 -0.03014182113 -0.2469654083
8.11541748 -0.2621264756 -0.9918293357
8.134899139 -0.2655983567 -0.7083764672
8.63760376 -0.2835204601 -0.4507184029
8.643940926 -0.2867490649 -0.1502634287
8.650471687 -0.2703407407 0.1503681391
8.655910492 -0.273535192 0.4516604841
8.636909485 -0.2759526074 0.7523030639
8.516244888 -0.2735852003 1.04106462
8.579522133 -0.2786159813 1.352896929
8.576397896 -0.2800129652 1.659719586
8.31682682 -0.2744444013 1.911180735
0.9450777769 -0.03267255053 -0.2417890429
7.604474545 -0.2668829858 -1.470818639
7.589614868 -0.2690140009 -1.196149588
8.102549553 -0.2900269032 -0.9903668761
8.133973122 -0.2925731838 -0.7083764672
8.620594025 -0.3130896688 -0.449881047
8.648881912 -0.3171400726 -0.1503681391
8.6414814 -0.3002571166 0.1502285302
8.638934135 -0.3031878769 0.4508230686
8.643910408 -0.3048730493 0.7530002594
8.503334999 -0.3028868437 1.03960216
8.578497887 -0.3085624278 1.352896929
8.575367928 -0.3099484742 1.659719586
8.311923027 -0.3033317327 1.910281062
7.408455372 -0.2729505002 1.974841475
1.014454484 -0.03861678019 -0.2604240179
7.595649719 -0.2931230962 -1.469292164
7.588629246 -0.2955050766 -1.196149588
8.087603569 -0.3177628219 -0.9886606932
8.14086628 -0.3212785721 -0.709073782
8.619448662 -0.3431792557 -0.449881047
8.633735657 -0.3467666507 -0.1501238048
8.640380859 -0.3304197192 0.1502285302
8.62784481 -0.3329564631 0.4502997398
8.646776199 -0.3351984322 0.753348887
8.496274948 -0.3323343992 1.038870811
8.571445465 -0.3382713497 1.351958275
8.574234009 -0.3398801982 1.659719586
