# .PCD v0.7 - Point Cloud Data file format
VERSION 0.7
FIELDS x y z
SIZE 4 4 4
TYPE F F F
COUNT 1 1 1
WIDTH 1258
HEIGHT 1
VIEWPOINT 0 0 0 1 0 0 0
POINTS 1258
DATA ascii
5.164987564 -3.659722567 0.9959135056
5.162873745 -3.660932302 1.222003698
5.157339096 -3.659713984 1.450031161
5.156718254 -3.66062665 1.682893515
2.386560678 -1.699176788 -0.7734034061
2.706518412 -1.92769134 -0.7571818829
3.126744032 -2.228638411 -0.7381119728
3.71138525 -2.646327734 -0.7152699828
4.526622772 -3.230000973 -0.6776501536
4.5564785 -3.253705502 -0.4861293435
5.184514046 -3.706274986 -0.110541746
5.210114479 -3.712224245 0.3330671489
5.201155186 -3.708577871 0.5551567078
5.168776512 -3.686852455 0.7744144201
5.155396938 -3.680024624 0.9965391159
5.153900623 -3.680314541 1.222766995
5.127733707 -3.664332867 1.445082188
5.140766621 -3.676357508 1.681858301
2.382482767 -1.70820713 -0.7739210129
2.704522848 -1.940535307 -0.7585315704
3.119336605 -2.238994837 -0.7381119728
3.692498684 -2.652352333 -0.7133927941
4.392819405 -3.157723188 -0.6591259837
4.523017883 -3.252512455 -0.4836890101
5.134202957 -3.694736242 -0.3292989731
5.129355431 -3.693966627 -0.1096342281
5.178685665 -3.714414358 0.110541746
5.211728573 -3.740869999 0.3340092301
5.196919918 -3.731615782 0.5560283065
5.191340446 -3.730356693 0.7797766924
5.174595356 -3.721063375 1.002796531
5.153772354 -3.707454205 1.225819826
5.141798496 -3.701565266 1.452730656
5.113794804 -3.684116364 1.677199483
2.37963748 -1.718775511 -0.7749563456
2.704050064 -1.954530239 -0.7603311539
3.121047497 -2.256771803 -0.7404017448
3.68801856 -2.668699503 -0.7143313885
4.42357254 -3.203309298 -0.6654632092
4.482593536 -3.247241735 -0.480551362
5.23446846 -3.794694901 -0.3366260231
5.207071304 -3.777607679 -0.1115888953
5.095991611 -3.682109594 0.109040834
5.218060017 -3.77308321 0.3352652788
5.200006008 -3.76141119 0.5577713847
5.184720039 -3.753110886 0.7807516456
5.175972462 -3.749533415 1.005612373
5.15669632 -3.73694253 1.229636073
5.168284893 -3.748092175 1.463978052
5.127483368 -3.721233845 1.685999393
2.379871845 -1.731618047 -0.7770268321
2.684608221 -1.954780459 -0.7567319274
3.105216265 -2.261873007 -0.7384936213
3.685066223 -2.686211109 -0.7155828476
4.450853825 -3.246808529 -0.6713129282
4.420776367 -3.227232456 -0.4751477242
5.234215736 -3.825257778 -0.1124615073
5.208086014 -3.79362607 0.3354746103
5.20294714 -3.791272879 0.5595145226
5.171587467 -3.771186113 0.7807516456
5.175618172 -3.776893854 1.008115411
5.153134823 -3.761865139 1.231925726
5.150449753 -3.762661219 1.462628365
5.140974522 -3.758491993 1.694799185
2.367277384 -1.735759735 -0.7749563456
2.680911064 -1.96644485 -0.7576317191
3.103235722 -2.277885914 -0.7400200963
3.676787615 -2.700869083 -0.7158957124
4.437893867 -3.261149406 -0.6710692048
4.415904522 -3.247365475 -0.4758449793
4.406089783 -3.242517948 -0.2844994068
4.405983448 -3.243625879 -0.09479967505
4.413815975 -3.236343861 0.09483458102
5.160996437 -3.786970377 0.3332765102
5.19222784 -3.812675714 0.5598630905
5.177589893 -3.803317785 0.7836764455
5.16876936 -3.799616814 1.00936687
5.151963711 -3.790034056 1.234978795
5.133485317 -3.779202938 1.461728692
5.141823292 -3.786725283 1.699458003
2.364312172 -1.746308088 -0.775991559
2.675252914 -1.977415919 -0.7580816746
3.103158712 -2.294540644 -0.7419282198
3.686392307 -2.727787018 -0.7196501493
4.516843796 -3.344729424 -0.6849622726
4.407743931 -3.265131712 -0.4761935771
4.404371262 -3.265014648 -0.2851274312
4.39888382 -3.263327122 -0.09490438551
4.406749249 -3.256064653 0.09493929893
5.055544853 -3.738176107 0.3273102343
5.042734623 -3.730065107 0.5450466871
5.173188686 -3.829355001 0.785138905
5.159570217 -3.822063208 1.010305405
5.15763092 -3.822021723 1.239558101
5.14687252 -3.816832066 1.469376922
5.134115219 -3.810150385 1.70152843
2.348902464 -1.747631311 -0.7728857398
2.676149368 -1.992561221 -0.7603311539
3.10142827 -2.310049772 -0.7434546947
3.65625906 -2.725291491 -0.7155828476
4.505141258 -3.360475779 -0.6849622726
5.21868515 -3.894140005 -0.5659640431
5.237911701 -3.911334276 -0.3403942287
4.377854824 -3.271480083 -0.09469495714
4.380919456 -3.260681391 0.09462515265
5.004022121 -3.727166653 0.3247980773
4.999328136 -3.725027084 0.541734755
5.175703526 -3.859256029 0.7875762582
5.157279968 -3.848320007 1.012495518
5.147405148 -3.842350245 1.240321398
5.142885208 -3.841772795 1.472076416
5.123878479 -3.830361843 1.702563763
2.358246326 -1.767405272 -0.7780621052
2.659823656 -1.994875312 -0.7576317191
3.093345642 -2.320861816 -0.7434546947
3.662520409 -2.749897718 -0.718711555
4.515602589 -3.392875195 -0.6883746386
5.224172115 -3.926698208 -0.5680558085
5.219438076 -3.92599225 -0.3400802016
5.224350929 -3.932543278 -0.1134388521
4.377510071 -3.281951189 0.09479967505
4.866369247 -3.651118279 0.3166337013
4.906620026 -3.682655811 0.5330191851
5.162200451 -3.877298832 0.7875762582
5.164342403 -3.881728172 1.016562819
5.133961678 -3.860294819 1.240321398
5.140343666 -3.867902994 1.475225687
5.122822762 -3.857521057 1.706704855
2.361313581 -1.782610297 -0.781167984
2.654399157 -2.005322218 -0.7580816746
3.091490746 -2.336380005 -0.7449811101
3.654474735 -2.763857603 -0.7190243602
4.513228416 -3.415804863 -0.6898370385
5.245378971 -3.971368313 -0.5718905926
5.213661671 -3.950217724 -0.3406035304
5.213778496 -3.953172207 -0.1135086566
5.173485756 -3.907001495 0.1124615073
5.158133984 -3.902481079 0.7890387177
5.160210609 -3.906885862 1.018440008
5.128280163 -3.884118795 1.242229462
5.133023262 -3.890531301 1.47702527
5.124718189 -3.887054205 1.71188128
2.35507679 -1.790842056 -0.781167984
2.658238411 -2.022836208 -0.7612309456
3.083316326 -2.347157001 -0.7449811101
3.651090384 -2.781385422 -0.7202759385
4.501277447 -3.431538105 -0.6898370385
5.233068943 -3.99086237 -0.5720649362
5.214130402 -3.979298353 -0.3415456116
5.199947357 -3.971347809 -0.1135086566
5.182097912 -3.941985846 0.112950176
4.720695496 -3.594904423 0.5154137015
5.153953075 -3.927681684 0.7905011773
5.148112774 -3.926072598 1.018752933
5.13186121 -3.915095091 1.246427298
5.122509003 -3.910790682 1.477925062
5.12032938 -3.911956072 1.71498704
2.339609146 -1.792003632 -0.7780621052
2.652708054 -2.033288479 -0.7616809011
3.062640905 -2.348348856 -0.7419282198
3.641359091 -2.794113159 -0.7202759385
4.476675987 -3.437557936 -0.6878871918
5.212786674 -4.004249573 -0.571367681
5.214459896 -4.008430004 -0.342487663
5.189223766 -3.991913557 -0.1135784686
5.177830219 -3.967348337 0.1131596044
4.72009182 -3.619236708 0.3095159829
4.717603683 -3.618636131 0.5164595842
5.155958176 -3.957735777 0.7929385304
5.14220953 -3.950035095 1.020317197
5.130616665 -3.942554474 1.249480128
5.122729778 -3.939338684 1.481974125
5.115828991 -3.93687439 1.718092918
2.333339691 -1.800159216 -0.7780621052
2.642509222 -2.04015398 -0.7607811093
3.06996274 -2.371025562 -0.7457444072
3.628457546 -2.804390669 -0.7196501493
4.486632824 -3.470165491 -0.6912994981
5.21138382 -4.032175541 -0.5727621913
5.219386101 -4.041280746 -0.3437437117
5.198090076 -4.026242733 -0.1140671298
5.163949966 -3.985398054 0.1131596044
4.663797855 -3.600693703 0.3065851629
4.660797596 -3.600974321 0.5115788579
5.154675007 -3.98542285 0.7948884368
5.135333061 -3.971899748 1.021568775
5.123034 -3.965246677 1.251006722
5.121273041 -3.966742754 1.485573411
5.108853817 -3.958550692 1.720163465
2.330092669 -1.810664058 -0.7790973783
2.648037672 -2.058473825 -0.7643802762
3.063217163 -2.382932425 -0.7461259961
3.620697021 -2.817620993 -0.7199630141
4.484497547 -3.492343426 -0.6927619576
5.184704781 -4.04054451 -0.571367681
5.199655533 -4.053654671 -0.3433250189
5.193464279 -4.051743031 -0.1142765582
5.139652729 -3.993911505 0.11291527
4.665390968 -3.627985954 0.3075272143
4.659205914 -3.62578702 0.5127990246
5.144563675 -4.004933357 0.7953759432
5.138577938 -4.003155231 1.025010228
5.112953186 -3.984627008 1.2517699
5.124994278 -3.996886492 1.490522265
5.096528053 -3.977547884 1.72068119
2.333204508 -1.825523734 -0.7822031975
2.631630182 -2.06049633 -0.7616809011
3.053752899 -2.391867161 -0.7457444072
3.610839367 -2.830242395 -0.7199630141
4.466032505 -3.503075361 -0.6917870045
5.202626705 -4.082313538 -0.5748539567
5.191757679 -4.076713562 -0.3437437117
5.191867828 -4.079730988 -0.1145557985
4.898921967 -3.834346771 0.1078889817
4.651126385 -3.643017769 0.3074225485
4.653429985 -3.646132946 0.5134962797
5.130552769 -4.022867203 0.7953759432
5.137005806 -4.030823231 1.027513146
5.111367702 -4.012147427 1.25482285
5.112543583 -4.015955448 1.490972281
5.100838184 -4.009640694 1.72689271
2.332887173 -1.838439703 -0.7842737436
2.629012108 -2.07329011 -0.7630305886
3.045384884 -2.402512312 -0.7457444072
3.600938082 -2.842829227 -0.7199630141
4.466238022 -3.528487921 -0.6937369108
5.21960783 -4.125156879 -0.5783401728
5.200993538 -4.113396168 -0.3453137875
5.180731297 -4.100311756 -0.1146256104
4.620111465 -3.6422019 0.1019900665
4.638381481 -3.659231424 0.3074225485
4.65631485 -3.674697161 0.5152394176
5.135173321 -4.055515289 0.7983008027
5.126003742 -4.051179886 1.028138995
5.121973038 -4.049446583 1.26092875
5.104607105 -4.038613319 1.492771864
5.098927498 -4.037014961 1.731033921
2.309811354 -1.833360791 -0.7785797715
2.612603188 -2.075181961 -0.7603311539
3.033905745 -2.410684824 -0.7449811101
3.6095469 -2.870134592 -0.7237174511
4.44768095 -3.539112806 -0.6927619576
5.207570553 -4.146742344 -0.5786887407
5.185041428 -4.130281925 -0.3452091217
5.175769329 -4.125849247 -0.1148350388
4.560387135 -3.621002913 0.1009429246
4.639653683 -3.686582327 0.3083645999
4.634100437 -3.683489561 0.5141935349
5.139627934 -4.088244915 0.8012256622
5.113377094 -4.070278645 1.0284518
5.117021561 -4.074638844 1.263218403
5.10571909 -4.068552017 1.497270942
5.096888065 -4.064424515 1.735175014
2.310619593 -1.847847104 -0.781167984
2.623603821 -2.098897696 -0.7657299638
3.0373106 -2.431604385 -0.74803406
3.583586693 -2.870994568 -0.7205887437
4.447691917 -3.564547777 -0.6947118044
5.20238924 -4.172373772 -0.5797346234
5.185444832 -4.161759377 -0.3462558389
5.176928997 -4.156410217 -0.115184091
4.532103062 -3.624409914 0.1005938798
4.632994175 -3.707746744 0.3087832928
4.628344536 -3.706677198 0.515065074
5.136170387 -4.114849091 0.8029317856
5.116091728 -4.101694584 1.031893373
5.108178616 -4.098280907 1.264744997
5.099890232 -4.094557762 1.499970317
5.08116293 -4.080981731 1.734657407
2.313182116 -1.863172293 -0.7842737436
2.608307362 -2.102384806 -0.7634804845
3.031861067 -2.444656372 -0.7487972975
3.573543549 -2.883485794 -0.7205887437
4.450041771 -3.593296528 -0.6971492171
5.187793255 -4.190508366 -0.5797346234
5.177098751 -4.184856892 -0.3466745317
5.171719074 -4.18200016 -0.1153935194
4.489202499 -3.617158175 0.09993068129
4.62779808 -3.730163336 0.3093066514
4.620029926 -3.726563215 0.5155879855
5.119509697 -4.132399082 0.8026880622
5.117111683 -4.131938457 1.03502214
5.093841553 -4.116086483 1.264744997
5.102235317 -4.125813961 1.504919171
5.083408833 -4.112057209 1.740351319
2.303663969 -1.868801236 -0.7832384706
2.592242241 -2.103654861 -0.7607811093
3.023308992 -2.455224752 -0.7487972975
3.579293489 -2.90777564 -0.7237174511
4.416537285 -3.590502739 -0.6937369108
5.194771767 -4.226194382 -0.5821749568
5.166291237 -4.204523087 -0.3468838632
5.178796768 -4.217706203 -0.1158821806
4.458547592 -3.616907358 0.09951182455
4.627154827 -3.756365538 0.310144037
4.617818356 -3.751461029 0.5168081522
5.115021229 -4.156864643 0.8041505218
5.117982388 -4.162238598 1.038150787
5.095393658 -4.145345211 1.268561125
5.100615025 -4.152553558 1.508518338
5.08100605 -4.139538765 1.744492531
2.298950672 -1.877652287 -0.7837561369
2.595445395 -2.121323347 -0.7639303803
3.009070873 -2.460266352 -0.7472708225
3.575237274 -2.925256014 -0.7249689102
4.416265011 -3.615958214 -0.6956868172
5.195399284 -4.256929398 -0.5839180946
5.173208237 -4.240256786 -0.3483492732
5.16249609 -4.234489918 -0.1158472821
4.421118259 -3.612205029 0.09895334393
4.614014149 -3.772494316 0.310144037
4.620775223 -3.779367685 0.51855129
5.115841389 -4.18726778 0.8065879345
5.111063004 -4.186336994 1.039715052
5.096077919 -4.17554903 1.272377372
5.089103222 -4.172803879 1.509418249
5.081459522 -4.169503689 1.749668956
2.289069653 -1.883610964 -0.7827208638
2.586520195 -2.129131556 -0.7634804845
3.003064156 -2.47377491 -0.74803406
3.56753993 -2.940853119 -0.7255946994
4.431183338 -3.654084206 -0.7000740767
5.18972826 -4.28264761 -0.5849639773
5.165332317 -4.265547276 -0.3488726318
5.14768362 -4.252484322 -0.1158472821
4.399217606 -3.619992495 0.09874392301
4.617777824 -3.802542448 0.3112954199
4.606892109 -3.796278238 0.51855129
5.111916065 -4.213938713 0.8082940578
5.099466801 -4.20666647 1.0403409
5.094365597 -4.205447674 1.275811791
5.085793495 -4.201356888 1.513017416
5.072830677 -4.192138672 1.751739383
2.28396821 -1.892822146 -0.7832384706
2.589199305 -2.147305489 -0.7666297555
3.008009195 -2.495524406 -0.7514686584
3.552693367 -2.949502707 -0.7246560454
4.420814037 -3.672838211 -0.700561583
5.190849781 -4.315651417 -0.5868813992
5.168838024 -4.298877239 -0.3501287103
5.150506973 -4.286673546 -0.1162661314
4.342815399 -3.600356102 0.09776658565
4.619180679 -3.832194805 0.3123421371
4.595145702 -3.813608646 0.5187256336
5.110180855 -4.244060516 0.8104877472
5.097687244 -4.236692429 1.043156743
5.090222836 -4.231990337 1.278483152
5.0815835 -4.227808952 1.516166806
5.060400963 -4.21317482 1.752774596
2.282946825 -1.906133533 -0.7853090763
2.575705528 -2.151333332 -0.7648301721
2.995829821 -2.504014015 -0.7507053614
3.555495739 -2.973910332 -0.7274718881
4.398832321 -3.680603743 -0.6990991235
5.145201206 -4.308163166 -0.5833951831
5.14998579 -4.315227509 -0.349919349
5.155435085 -4.321325302 -0.1167198941
4.302591801 -3.592424631 0.09713830054
4.61343956 -3.85469842 0.3128654957
4.590308666 -3.838093758 0.5197715163
5.104471207 -4.269514561 0.8119502068
5.101044178 -4.269675255 1.04691112
5.074677467 -4.250618935 1.278483152
5.082482338 -4.260175705 1.521115661
5.061946869 -4.244467735 1.758468747
2.279905319 -1.915781617 -0.7863443494
2.574523211 -2.16487956 -0.7666297555
3.004475117 -2.52731514 -0.7549031973
3.549157619 -2.987609863 -0.7280976176
4.377493382 -3.687497616 -0.6976367235
5.165924072 -4.354736805 -0.5874043703
5.157779694 -4.349411488 -0.3513847589
5.150246143 -4.346135616 -0.1169293299
4.272285938 -3.591231585 0.0967194438
4.596045971 -3.86611867 0.3125514686
4.594996929 -3.866605997 0.5216889381
5.090285301 -4.286417961 0.8119502068
5.091389179 -4.2903862 1.047849655
5.076309204 -4.279193878 1.28229928
5.07056284 -4.277378082 1.521565557
5.064082146 -4.274938107 1.76416266
2.275817156 -1.926621556 -0.7873796225
2.562489271 -2.170075178 -0.7652801275
2.987703085 -2.531964064 -0.7529951334
3.544210434 -3.005708456 -0.7293490767
4.373677731 -3.710460424 -0.6990991235
5.170436382 -4.38950491 -0.5896703601
5.153980255 -4.378631115 -0.3522221446
5.14113903 -4.369267464 -0.1170689464
4.241409779 -3.590618372 0.09630057961
5.093459606 -4.319567204 0.8148750067
5.083912849 -4.314523697 1.049414039
5.078548431 -4.313021183 1.286878705
5.059306145 -4.299720287 1.522915244
5.057959557 -4.300096512 1.767268538
2.269078016 -1.934553981 -0.7873796225
2.561930895 -2.185776711 -0.7675296068
2.968393564 -2.533455849 -0.7503237724
3.551721811 -3.033456802 -0.7331035137
4.357030392 -3.723886728 -0.6986116767
5.165683746 -4.416590214 -0.5908905864
5.149287701 -4.405684471 -0.3529548347
5.131933212 -4.392387867 -0.1172085702
4.209963322 -3.590568304 0.09588173032
5.092685223 -4.351101398 0.8173124194
5.079332829 -4.341227531 1.051604152
5.081365585 -4.34603548 1.291458249
5.060551643 -4.331292629 1.527864218
5.054658413 -4.327777386 1.771409631
2.253517389 -1.934911489 -0.7842737436
2.520667791 -2.165056467 -0.7571818829
2.96846509 -2.551480532 -0.7526135445
3.53115797 -3.036202669 -0.7309134603
4.353685856 -3.746083021 -0.7000740767
5.144196033 -4.429394722 -0.5901933312
5.154322624 -4.439681053 -0.3543155789
5.134745598 -4.425941467 -0.1176274195
4.176793098 -3.586271524 0.09539305419
5.099298 -4.386088371 0.8207247853
5.079119682 -4.371817112 1.0547328
5.069901466 -4.365423679 1.292221427
5.060923576 -4.360771179 1.532363176
5.048299789 -4.352964401 1.77451551
2.252934694 -1.947427392 -0.7863443494
2.468879223 -2.135595322 -0.7436847687
2.9718647 -2.571587324 -0.7556664944
3.519045115 -3.047217607 -0.7306005955
4.343583584 -3.763857126 -0.700561583
5.129478931 -4.446429253 -0.5901933312
5.137284756 -4.456337452 -0.3542109132
5.131346226 -4.454325199 -0.1179066673
4.137021542 -3.577286005 0.09476476908
4.618644714 -3.99656415 0.31788975
5.09341526 -4.408943176 0.5856612325
5.083956718 -4.403861523 0.8207247853
5.078754425 -4.402459145 1.057861567
5.060565472 -4.388239861 1.293747902
5.061861515 -4.392459869 1.53731215
5.041825771 -4.378159523 1.777621269
2.254865885 -1.962890387 -0.7894501686
2.465817928 -2.148040295 -0.7450344563
2.968790293 -2.587104559 -0.7571929097
3.517319441 -3.067272663 -0.7324778438
4.330419064 -3.778996229 -0.700561583
5.140943527 -4.487892151 -0.5933309197
5.130723 -4.482126713 -0.3548389375
5.130821228 -4.485371113 -0.1182557121
4.097364902 -3.568067551 0.09413649142
5.103068829 -4.446987152 0.3525361419
5.097517967 -4.443715572 0.5879272819
5.077528954 -4.429410458 0.8221871853
5.075261116 -4.430552959 1.060364485
5.057047367 -4.416208267 1.296800852
5.053834915 -4.416513443 1.539561629
5.039600849 -4.407177925 1.782280087
2.248000145 -1.970749259 -0.7894501686
2.450980186 -2.150208712 -0.742784977
2.950887918 -2.589682102 -0.7549031973
3.521434069 -3.09256649 -0.7356064916
4.335094452 -3.809813976 -0.7034864426
5.131231785 -4.511072159 -0.5940281749
5.133040905 -4.515839577 -0.3560949862
5.124138355 -4.511182308 -0.1184651405
4.069850445 -3.569162846 0.09378743172
5.095450878 -4.473312378 0.5894960761
5.076949596 -4.460208893 0.8246245384
5.061247826 -4.449546814 1.060677409
5.062240601 -4.451984882 1.302143455
5.042776585 -4.437990189 1.540911317
5.040133476 -4.43878746 1.787974119
2.238210917 -1.976027131 -0.7884148359
2.456603527 -2.170363665 -0.7468340993
2.941830158 -2.599966764 -0.7549031973
3.498779774 -3.094370365 -0.7331035137
4.330688477 -3.832817316 -0.7049488425
5.051309109 -4.472165108 -0.5865327716
5.105286598 -4.523134708 -0.3552576303
5.100879192 -4.522407532 -0.1182906181
4.036383152 -3.564815283 0.09329877049
5.024008751 -4.440180302 0.3491866291
5.091746807 -4.501629829 0.5908905864
5.076217651 -4.491057873 0.8270620108
5.064913273 -4.484209061 1.064744711
5.058426857 -4.480041504 1.305196404
5.04621315 -4.472368717 1.546760082
5.033280373 -4.464044571 1.791079879
2.228412151 -1.981260538 -0.7873796225
2.530543327 -2.251464844 -0.772028625
2.944469213 -2.620661736 -0.7579562068
3.493857384 -3.111819744 -0.7343549728
4.317283154 -3.847910643 -0.7049488425
4.495139122 -4.009246826 -0.5232577324
5.028364658 -4.486410141 -0.3509660661
5.00749588 -4.470931053 -0.1164755672
4.000007629 -3.557619572 0.09274028987
5.100979328 -4.540017128 0.3556762934
5.076002121 -4.519375801 0.5908905864
5.073848724 -4.520634651 0.8292555809
5.055127144 -4.507119656 1.06599617
5.051548958 -4.505512714 1.307486176
5.046564102 -4.504230499 1.551709056
5.021989346 -4.485447407 1.792632818
2.221135378 -1.989414811 -0.7873796225
2.519766331 -2.257683516 -0.7711288333
2.934844255 -2.631436348 -0.7579562068
3.488310337 -3.129881382 -0.7356064916
4.306779861 -3.865609169 -0.7054363489
4.449989319 -3.996954918 -0.5195971727
5.070669651 -4.559245586 -0.1183255166
3.971179485 -3.556885004 0.0923563391
5.094023705 -4.565793991 0.3563043475
5.078685284 -4.555243969 0.5931566358
5.068380356 -4.547597408 0.8309617639
5.058471203 -4.541894913 1.070063472
5.037921906 -4.526621342 1.308249354
5.043063164 -4.534423351 1.555758119
5.027846813 -4.522328377 1.800397396
2.228522778 -2.010094881 -0.7925559878
2.521600723 -2.276043892 -0.7742781639
2.733297348 -2.467990875 -0.707582593
3.471500397 -3.136741161 -0.7343549728
4.301417351 -3.889356852 -0.7068988085
4.415324211 -3.993752241 -0.5171568394
5.053242207 -4.575575352 -0.1182906181
4.007110119 -3.615623236 0.09350819886
5.085468292 -4.590239048 0.3568276763
5.076060295 -4.584963322 0.59472543
5.064932346 -4.578124046 0.8331553936
5.066029549 -4.580721855 1.075069308
5.030824661 -4.552082539 1.310539126
5.035871506 -4.559847355 1.558457494
5.020620823 -4.547633171 1.803503156
2.215772629 -2.012666225 -0.7904854417
2.506827831 -2.277840614 -0.772028625
3.488843918 -3.173491001 -0.7402995229
4.288496494 -3.903599262 -0.7068988085
4.40135622 -4.009140491 -0.5171568394
5.070278645 -4.613598347 0.8365677595
5.061694145 -4.609017849 1.077572227
5.043278217 -4.593859673 1.317789793
5.029364109 -4.584397793 1.561156988
5.026125431 -4.5846591 1.811267853
2.209086418 -2.020002842 -0.7904854417
2.507487297 -2.294470549 -0.7747280002
3.476288795 -3.18431592 -0.7399866581
4.26606369 -3.91049695 -0.7054363489
4.343287945 -3.984075546 -0.5119274855
4.373212337 -4.00450325 0.515065074
5.036580563 -4.615175724 0.8336429
5.012087822 -4.595952034 1.070376277
5.030105591 -4.614089966 1.31855309
5.021944523 -4.609833241 1.563856363
5.014359474 -4.606096745 1.812820792
2.200247049 -2.026777029 -0.7899677753
2.493730545 -2.297926903 -0.7729284167
3.450076818 -3.183639288 -0.7368579507
3.785623074 -3.494496107 -0.6274399161
4.305937767 -3.977581024 -0.5091384649
2.463579416 -2.269347906 0.05776567012
4.346789837 -4.009697437 0.5136705637
4.991262436 -4.605804443 0.8287681341
4.980050564 -4.598677635 1.066934705
4.979996681 -4.601849556 1.309775829
4.997861385 -4.621592999 1.561606884
4.998250484 -4.623571873 1.812820792
2.191742659 -2.033131361 -0.7894501686
2.488147974 -2.309703112 -0.7738282084
3.450519323 -3.206420183 -0.7393608689
3.762614012 -3.498884678 -0.6257337928
3.763941288 -3.501344681 -0.4460377097
4.33276701 -4.024846554 0.5136705637
4.936545849 -4.588927269 0.8224309683
4.94660902 -4.599891186 1.063180327
4.929409504 -4.587106705 1.30061698
4.963158131 -4.621745586 1.555758119
4.962290764 -4.622555256 1.805573702
2.19310236 -2.048681974 -0.7925559878
2.479051352 -2.316610813 -0.7733783722
3.460063457 -3.236737728 -0.7437410355
3.753888845 -3.514056206 -0.6262212992
3.748788357 -3.511737347 -0.4456890821
2.395823956 -2.239620447 0.169674322
4.288135529 -4.011363029 0.510010004
4.841581821 -4.530672073 0.8090252876
4.854102612 -4.545568466 1.046598196
4.83966589 -4.533634186 1.280772805
4.910839558 -4.603527069 1.544060707
4.920763969 -4.61605835 1.796256304
2.191926241 -2.061237335 -0.794626534
2.466692209 -2.321243763 -0.772028625
2.344088793 -2.206641436 -0.61752069
3.441554546 -3.242023468 -0.7421767116
3.721377611 -3.508074999 -0.6228089333
3.750999928 -3.538473368 -0.4474321902
2.387991667 -2.247969866 0.169674322
4.266107559 -4.017365456 0.5089641809
4.801177979 -4.524400711 0.8048817515
4.809463501 -4.53537941 1.0403409
4.795248985 -4.523556232 1.27314055
4.808299065 -4.539040565 1.516616702
4.865299702 -4.596062183 1.781762362
2.181551456 -2.066599846 -0.7935912609
2.478377342 -2.34860611 -0.7783272266
2.387269735 -2.263851404 -0.6312589645
3.439679384 -3.264133692 -0.7443668246
3.645762444 -3.460908651 -0.6120843887
3.657732964 -3.474700451 -0.4376707375
2.33374691 -2.212321758 0.1663248241
4.231118202 -4.013777256 0.506523788
4.763756275 -4.520635605 0.8012256622
4.770683765 -4.530375957 1.035334945
4.76155901 -4.524873257 1.268561125
4.770448208 -4.53648901 1.509868145
4.784841061 -4.551767349 1.757951021
2.170131207 -2.070202112 -0.7920383811
2.481029272 -2.368438959 -0.7819264531
2.348116398 -2.242341042 -0.6228634119
3.441117525 -3.288403511 -0.7471826077
3.644530773 -3.48522377 -0.6140343547
3.63694334 -3.479183912 -0.4366248548
2.299623013 -2.196032047 0.1644407213
4.202674389 -4.014759541 0.5047807097
4.76006937 -4.550410748 0.803419292
4.741200447 -4.535541534 1.032519102
4.724459171 -4.521105289 1.262836814
4.74332428 -4.542331219 1.506268978
4.737440109 -4.539868355 1.746563077
2.168464184 -2.083117962 -0.7941089272
2.458698273 -2.363579512 -0.7774274349
2.320463419 -2.231472015 -0.61752069
3.41680789 -3.288067579 -0.7443668246
3.652360916 -3.517201662 -0.617446661
3.633386135 -3.500151873 -0.4376707375
2.366896152 -2.281696558 -0.1700929999
2.306339502 -2.217889786 0.1654874384
4.171404839 -4.012830257 0.5026890039
4.742726326 -4.56562233 0.8031755686
4.736721039 -4.563027859 1.03502214
4.715717316 -4.544381618 1.264744997
4.721828461 -4.553450108 1.504469395
4.704882622 -4.540279388 1.740351319
2.166733265 -2.096047163 -0.7961794138
2.450432777 -2.372147799 -0.7774274349
2.298556566 -2.225900888 -0.6137045622
3.408147097 -3.302723885 -0.7449925542
4.2264781 -4.097172737 -0.7176232934
3.62400651 -3.515587568 -0.4380193949
2.353823185 -2.277828932 0.05647419393
2.284621716 -2.211633921 0.1644407213
4.144492149 -4.014890194 0.5011201501
4.702530384 -4.558660984 0.7990320325
4.700291634 -4.558082104 1.030328989
4.702643394 -4.563548565 1.265508175
4.710897446 -4.573155403 1.505819082
4.705042839 -4.570662975 1.746045351
2.161154747 -2.104568481 -0.7966970801
2.439761639 -2.377540588 -0.7765276432
2.31224966 -2.254067659 -0.6194288135
3.414143801 -3.330559969 -0.7487469316
4.215709686 -4.113938808 -0.7181107998
4.608719349 -4.500603199 -0.5598630905
2.279887915 -2.227959156 -0.1648593992
2.274637461 -2.215853453 0.05472895131
2.265831947 -2.208046436 0.1636033505
4.131155491 -4.02861166 0.5011201501
4.66607666 -4.553433418 0.7953759432
4.662534237 -4.55156517 1.025323153
4.662205696 -4.554424286 1.258639097
4.662256241 -4.556064129 1.495021343
4.6967659 -4.592994213 1.748633623
2.151404619 -2.109019041 -0.7956618071
2.442993164 -2.396535635 -0.7801268697
2.290749788 -2.247972012 -0.6156126261
3.388985872 -3.32802248 -0.7456182837
4.190715313 -4.11676693 -0.7161608338
4.580982685 -4.503290653 -0.5582943559
2.272487402 -2.23550725 -0.1648593992
2.299025536 -2.262403011 -0.05560157076
2.255854845 -2.212183475 0.05444971099
2.247091055 -2.204359055 0.1627659649
4.092181206 -4.017165661 0.4979825318
4.631125927 -4.549406052 0.7919635773
4.630507946 -4.550387383 1.021568775
4.630279064 -4.553340435 1.254059672
4.64295435 -4.567399502 1.493671656
4.648468971 -4.576017857 1.736210346
2.13477397 -2.106643438 -0.7920383811
2.440578938 -2.410100698 -0.7819264531
2.273505926 -2.245898008 -0.6129413247
3.383550882 -3.34479785 -0.7468698025
4.196801186 -4.150182247 -0.7195731997
4.540532589 -4.493231297 -0.5551567078
2.231001854 -2.209301949 -0.162347272
2.231843233 -2.210907221 -0.05413556844
2.25989151 -2.230890512 0.05472895131
2.24261117 -2.214605093 0.1629753113
4.041991234 -3.994302511 0.493450433
4.593430042 -4.542405128 0.7880637646
4.598540783 -4.549046993 1.017814279
4.590040684 -4.543809414 1.247190595
4.607013226 -4.56220293 1.486923099
4.609941006 -4.568291187 1.727410436
2.142735243 -2.131545305 -0.7982500196
2.425360203 -2.414378881 -0.7801268697
2.272818804 -2.263318062 -0.6152310371
3.361701488 -3.34998703 -0.7449925542
4.193436623 -4.181742191 -0.7220105529
4.494247913 -4.483279705 -0.5516704917
2.220701456 -2.216829062 -0.1622426063
2.214074373 -2.211756706 -0.05392614007
2.23107338 -2.220196962 0.05424028635
2.241806507 -2.232435465 0.1636033505
4.014631748 -3.999246359 0.4920559227
4.551258564 -4.536983013 0.7839202285
4.561264992 -4.550132751 1.013746977
4.545359135 -4.535849094 1.239939809
4.56304121 -4.55667448 1.478824854
4.574367046 -4.571174145 1.721198797
2.143470764 -2.14721489 -0.8013558388
2.408659697 -2.41455245 -0.7774274349
2.263518095 -2.269847631 -0.6148493886
3.366719246 -3.37849164 -0.7487469316
4.185817719 -4.203387737 -0.7232292891
4.467326164 -4.487644196 -0.5502759814
2.186187029 -2.197663784 -0.1602538377
2.220438242 -2.233653784 -0.0542751886
2.223309994 -2.227971077 0.05424028635
2.21707654 -2.223276138 0.162347272
4.000647545 -4.013235569 0.4920559227
4.511577606 -4.528934002 0.7797766924
4.527236938 -4.547827244 1.009679675
4.512879848 -4.534987926 1.235360384
4.529244423 -4.554610729 1.472976089
4.539318562 -4.567929745 1.713951826
2.133242369 -2.151939869 -0.8003205657
2.41393137 -2.436789989 -0.7819264531
2.25143671 -2.273550034 -0.6137045622
4.432024479 -4.483373165 -0.5478355885
2.2056036 -2.234275341 -0.05410066247
2.218334436 -2.238559484 0.05431009457
2.209302187 -2.231001616 0.162347272
3.958581209 -3.99885726 0.4885697067
4.483176708 -4.531953335 0.777583003
4.483560085 -4.535506248 1.00342226
4.477702618 -4.531163216 1.230017662
4.488670826 -4.545434952 1.464877963
4.498920918 -4.558995724 1.704634309
2.123007059 -2.156620026 -0.7992852926
2.416343689 -2.456315041 -0.7855256796
2.232474327 -2.270196676 -0.6106516123
4.3870368 -4.468958855 -0.5441750884
2.263102293 -2.306973219 -0.1671621799
2.243986368 -2.289084673 -0.05525252223
2.207701921 -2.243438482 0.05424028635
2.218306065 -2.255788803 0.1636033505
3.916663647 -3.984234333 0.4850834906
4.447854519 -4.527750015 0.7741706967
4.441407681 -4.524345398 0.9974777699
4.446733475 -4.531352043 1.225819826
4.455039978 -4.542987823 1.459029198
4.455937386 -4.547076702 1.694281578
2.112765551 -2.161254406 -0.7982500196
2.414563656 -2.471704483 -0.7877752185
2.234137774 -2.28780818 -0.6133229136
2.40956068 -2.469168663 -0.5397504568
2.263397694 -2.323442936 -0.1677902192
2.224823475 -2.285440683 -0.05497328192
2.190073729 -2.241119623 0.05399594828
2.199254751 -2.252087116 0.1627659649
3.908298969 -4.003584385 0.4857807159
4.412615299 -4.523354053 0.7707583308
4.403525829 -4.517189503 0.9924718738
4.404855251 -4.520131588 1.21856916
4.422839642 -4.541757584 1.453630328
4.41309166 -4.534913063 1.683928847
2.101171255 -2.164457798 -0.7966970801
2.393709183 -2.467529535 -0.7837260962
2.234338999 -2.304048777 -0.6156126261
2.384431124 -2.460541964 -0.5359960794
2.38533926 -2.463198662 -0.4158747792
2.374065399 -2.452413797 -0.294909656
2.246941566 -2.322716475 -0.1671621799
2.215442657 -2.291755199 -0.05493837968
2.173882008 -2.240140676 0.05378652364
2.183037758 -2.251146793 0.1621379405
3.869338036 -3.991452932 0.4826431274
4.371937752 -4.513065815 0.7663710117
4.383608818 -4.52827549 0.9915332794
4.365840435 -4.511496067 1.212081671
4.392057896 -4.541759014 1.448681474
4.383810043 -4.536397934 1.678752422
2.107010841 -2.185687542 -0.8018734455
2.393193245 -2.4842906 -0.7864254713
2.226282835 -2.311834335 -0.6156126261
2.391725302 -2.487976313 -0.2982215583
2.233285666 -2.32478404 -0.166743502
2.214756012 -2.306300879 -0.0551129058
2.17833209 -2.261250734 0.162347272
3.83880043 -3.987710476 0.480551362
4.328633308 -4.499687195 0.7614962459
4.348030567 -4.521429539 0.9868402481
4.329660892 -4.505474567 1.20635736
4.349181175 -4.528950691 1.439683437
4.351350784 -4.532793045 1.672023177
2.104712248 -2.198611021 -0.8039440513
2.212771893 -2.31391573 -0.6140861511
3.325859308 -3.479096651 -0.7556300759
4.254049301 -4.45627737 -0.5352852345
2.225564241 -2.332177401 -0.166743502
2.202551842 -2.309676409 -0.05500818789
2.190388203 -2.288109303 0.05458933115
2.178709269 -2.277500153 0.1629753113
3.805582762 -3.980923176 0.4781110287
4.298601627 -4.498229504 0.7588151097
4.311757565 -4.515150547 0.9821472168
4.303851604 -4.50844717 1.203304529
4.311272144 -4.519377708 1.432035089
4.324838638 -4.536768913 1.667882085
2.088090897 -2.195778847 -0.8003205657
2.165469408 -2.278740406 -0.7157908678
2.201030016 -2.316970825 -0.6129413247
3.316414833 -3.493550301 -0.7562558651
3.911846876 -4.123667717 -0.6927619576
4.21868372 -4.448674202 -0.5326705575
2.222904921 -2.345730305 -0.1671621799
2.186629057 -2.308257103 -0.05479875952
2.212698698 -2.327626467 0.05535723642
2.162889719 -2.276025772 0.162347272
3.76492095 -3.964626551 0.4746247828
4.267843246 -4.497367859 0.7561339736
4.266851902 -4.497895718 0.975264132
4.262425423 -4.496371269 1.196053743
4.280727863 -4.518836975 1.427086115
4.283203602 -4.523030758 1.657529235
2.079087019 -2.201649666 -0.799802959
2.187330723 -2.317084312 -0.7256886959
2.198317289 -2.33035183 -0.6144677401
3.296679974 -3.495905876 -0.7543786168
3.830080032 -4.064382553 -0.6805750132
4.186738491 -4.445966721 -0.5305787921
2.208268881 -2.345817804 -0.1666388214
2.184039354 -2.321702003 -0.05493837968
2.180254698 -2.308781147 0.05472895131
2.160414934 -2.289372206 0.1627659649
3.6936481 -3.916863918 0.4673036933
4.237927437 -4.495606899 0.7534528971
4.240288734 -4.501259327 0.9727611542
4.22595644 -4.487613201 1.189947844
4.249693394 -4.515977383 1.421687365
4.242244244 -4.51121521 1.64769423
2.079705 -2.216985703 -0.8029087186
2.149908543 -2.293427467 -0.7157908678
2.194605112 -2.341926813 -0.6156126261
3.284457207 -3.50739193 -0.7543786168
3.569011688 -3.813928843 -0.6362145543
4.158361435 -4.445276737 -0.5288356543
2.193247557 -2.346216679 -0.1661154628
2.181381941 -2.335156679 -0.0550779961
2.195436239 -2.341175079 0.05532233045
2.1633358 -2.308558702 0.1636033505
3.687449694 -3.936361074 0.4681752324
4.207286358 -4.494431496 0.7507717013
4.201610088 -4.491509438 0.9674423933
4.191492558 -4.482261658 1.184605122
4.224590302 -4.520817757 1.418538094
4.211966991 -4.510464191 1.642000079
2.070636749 -2.222818375 -0.8023911119
2.319813967 -2.492052555 -0.7760777473
2.177054882 -2.339512348 -0.6129413247
3.285645485 -3.533301353 -0.7575073242
3.793505192 -4.082297325 -0.6791125536
4.127902985 -4.443707466 -0.5269182324
2.18368578 -2.352394342 -0.166010797
2.167777777 -2.336892843 -0.05493837968
2.179073811 -2.340043783 0.0551129058
2.130773544 -2.289777279 0.1617192477
4.170357704 -4.483129978 0.5319733024
4.163189888 -4.478558064 0.7456532121
4.177839279 -4.49746418 0.965565145
4.159789562 -4.479601383 1.180025697
4.172994137 -4.496967793 1.406390548
4.180434227 -4.508141041 1.63578856
2.074671745 -2.242795944 -0.8070498109
2.352108002 -2.544496059 -0.7900246978
2.190193892 -2.370167732 -0.6190472245
3.297414064 -3.57087183 -0.7631388903
3.771154165 -4.086760998 -0.6776501536
4.100782871 -4.447089672 -0.5255237818
2.183583021 -2.368813515 -0.1666388214
2.158252239 -2.342974663 -0.05490347371
2.179038286 -2.356444836 0.05532233045
2.109212875 -2.282532454 0.1606725305
4.143867493 -4.485951424 0.5305787921
4.130027294 -4.474100113 0.7424846292
4.135327339 -4.482980728 0.9593077898
4.133480549 -4.482548714 1.176972866
4.146706581 -4.500042439 1.402791381
4.148969173 -4.505652428 1.629576802
2.063824177 -2.247538805 -0.8060145974
2.345847368 -2.555562019 -0.7909244895
2.168220997 -2.363711596 -0.6152310371
3.276295424 -3.5741961 -0.7612617612
3.772959471 -4.117462635 -0.6805750132
4.052942276 -4.426110744 -0.5213403106
2.178931236 -2.381221533 -0.1669528484
2.15141058 -2.351969719 -0.05493837968
2.162684202 -2.355199337 0.0551129058
2.11473608 -2.304597139 0.1617192477
4.104506969 -4.476145267 0.5276154876
4.09426403 -4.466539383 0.7388285398
4.099639893 -4.475539207 0.9546146989
4.10641861 -4.486083031 1.173919797
4.114401817 -4.497955322 1.397392631
4.118876457 -4.504425526 1.62388289
2.044251442 -2.241882086 -0.8013558388
2.344340086 -2.572785616 -0.7936239243
2.165244818 -2.377071142 -0.6167575121
3.258480072 -3.579767704 -0.7600102425
3.760514498 -4.134200573 -0.6810624599
4.013340473 -4.413697243 -0.5182027221
2.182694197 -2.402116299 -0.1678948998
2.157562494 -2.376124144 -0.05532233045
2.140566587 -2.34833169 0.05476385728
2.114344835 -2.321191549 0.162347272
4.063370228 -4.46245575 0.5243035555
4.064505577 -4.466833591 0.7363911271
4.071248055 -4.477381229 0.9517989159
4.064323425 -4.471334457 1.166287422
4.081642151 -4.493537903 1.391543865
4.073773861 -4.488022327 1.612494707
2.041599989 -2.25473237 -0.8034263849
2.330115318 -2.57517314 -0.7918243408
2.178005695 -2.407911062 -0.6228634119
3.243315458 -3.588189125 -0.7593845129
3.762027264 -4.164979458 -0.6839873195
3.983221531 -4.411413193 -0.5162852407
2.175633907 -2.411203623 -0.1679995656
2.134525061 -2.367304564 -0.05493837968
2.151143312 -2.376545191 0.05525252223
2.133025408 -2.358182669 0.1644407213
4.027724743 -4.454444408 0.5216889381
4.03824234 -4.469210625 0.7344412804
4.023821831 -4.456377983 0.9442900419
4.019751072 -4.453431606 1.15789187
4.051574707 -4.491840363 1.386595011
4.046442032 -4.489299774 1.607836008
2.044050455 -2.273337364 -0.8075674772
2.315902233 -2.577492714 -0.7900246978
2.169587374 -2.415498972 -0.6228634119
3.247924089 -3.618599653 -0.7634518147
3.28355813 -3.66087079 -0.5986788273
3.95582819 -4.411939144 -0.5147164464
2.143213749 -2.392008066 -0.1661154628
2.12799716 -2.375859022 -0.05497328192
2.190958023 -2.437579632 0.05650909618
2.143881798 -2.38604188 0.1659061313
4.001502514 -4.456616402 0.5202944279
4.000080109 -4.458161831 0.7302976847
4.015616894 -4.477049828 0.9458544254
3.993698359 -4.455740452 1.15483892
4.017668247 -4.485632896 1.38029635
4.023800373 -4.494057655 1.604730129
2.036102533 -2.28045845 -0.8075674772
2.306044817 -2.58370471 -0.7895748615
2.161142349 -2.423057556 -0.6228634119
3.246423244 -3.641145468 -0.7659547329
3.243668556 -3.640613794 -0.5935602784
3.924504757 -4.407864571 -0.5126247406
2.119335413 -2.381198883 -0.1648593992
3.961622477 -4.454246998 -0.1033513546
2.126926422 -2.38218236 0.05504309386
3.90933013 -4.3815732 0.3055384457
3.968684673 -4.451224327 0.5180283785
3.966783285 -4.450654984 0.7268853784
3.972374678 -4.460062027 0.9392842054
3.969762087 -4.458695889 1.152167678
3.984636068 -4.478549004 1.373997688
3.988835096 -4.486420631 1.596965671
2.020837784 -2.278526306 -0.804461658
2.316400051 -2.613614559 -0.796323359
2.171322346 -2.450783491 -0.6282060146
3.217979908 -3.634707451 -0.7622002959
3.2138412 -3.632586718 -0.5903916955
2.931214809 -3.315466881 -0.3834598958
2.195659637 -2.484361649 -0.1715584099
3.8878057 -4.402099609 -0.1018155366
2.121251106 -2.392584801 0.0551129058
3.884740591 -4.384727955 0.3048057556
3.935408592 -4.443479538 0.5155879855
3.940698147 -4.452582359 0.7249354124
3.938460112 -4.453185081 0.9349039793
3.934668303 -4.450462818 1.146443367
3.941884279 -4.461761475 1.364549756
3.951414824 -4.475697041 1.58816576
2.012472868 -2.285917521 -0.804461658
2.30983758 -2.624609709 -0.7972231507
2.208999872 -2.511798143 -0.6419442892
3.174644232 -3.61234951 -0.7550042868
3.193280458 -3.634834766 -0.5889292359
2.907793283 -3.312202692 -0.3818910718
3.861867905 -4.403616428 -0.1015363038
3.854899883 -4.381767273 0.3036543727
3.904624939 -4.441413879 0.5136705637
3.910717487 -4.449908733 0.7222543359
3.908553362 -4.450579166 0.9314624667
3.907970428 -4.453049183 1.143390417
3.920364618 -4.470319271 1.362750173
3.912844181 -4.463314533 1.578848243
2.001938581 -2.290019751 -0.8034263849
2.292509794 -2.624252558 -0.794523716
2.200218678 -2.51949358 -0.6419442892
2.954203606 -3.385274172 -0.7049453259
2.960748911 -3.395166397 -0.547981143
2.885740042 -3.310317516 -0.3804965615
3.837824345 -4.408691406 -0.1013268754
2.926491737 -3.348796368 0.0769284144
3.877305984 -4.441507816 0.5121017694
3.873502016 -4.440278053 0.7183545232
3.883128405 -4.454451084 0.9292723536
3.871765137 -4.44298172 1.137284517
3.881700277 -4.457523346 1.354651809
3.882509232 -4.461595058 1.57315433
2.007863045 -2.31304121 -0.8091204166
2.270565987 -2.617518425 -0.7900246978
2.933313608 -3.3851161 -0.7027552724
2.930686951 -3.38447094 -0.5445687771
2.861127615 -3.305306673 -0.3787534535
3.805411577 -4.402393818 -0.1008731127
2.912163019 -3.35597086 0.07685860246
3.481933594 -4.015403271 0.2763349712
3.844812632 -4.435443401 0.5098357201
3.843681812 -4.43726778 0.7156733871
3.854627609 -4.453043461 0.9261437058
3.838248014 -4.435685158 1.131941915
3.848272562 -4.450408459 1.348353267
3.856806993 -4.463427067 1.569013119
2.00608325 -2.327352285 -0.8117086291
2.271589994 -2.637240171 -0.7936239243
2.909883976 -3.38185811 -0.6999394298
2.908501625 -3.382638693 -0.5426189303
2.840481281 -3.304697037 -0.3775332868
3.778299093 -4.401994228 -0.1005589664
2.887377501 -3.35096693 0.07650955766
3.500475883 -4.065371037 0.2789517939
3.813709974 -4.430717468 0.5077440143
3.81263566 -4.432597637 0.7127485275
3.819745302 -4.444000721 0.9214506149
3.809946775 -4.434165478 1.128125668
3.825097084 -4.454943657 1.345653772
3.831139803 -4.46513319 1.564872026
1.992922187 -2.32847023 -0.8096380234
2.267436743 -2.651077271 -0.7954235077
2.604939222 -3.046760082 -0.7709311843
2.8929286 -3.385987282 -0.6986879706
2.878630877 -3.371634722 -0.5392065048
2.812114239 -3.294891119 -0.3752672374
3.746048689 -4.39537096 -0.1001052111
2.871762753 -3.35646677 0.07640483975
3.349983215 -3.918170214 0.2679612339
3.784247637 -4.430784702 0.7103111148
3.783691645 -4.43326664 0.9164447188
3.781702757 -4.43250227 1.12430954
3.795615673 -4.451956272 1.340704918
3.782956123 -4.440245628 1.551413417
1.983094096 -2.331776142 -0.8086027503
2.261621237 -2.66115737 -0.796323359
2.655822277 -3.127209902 -0.7892487645
2.861821651 -3.370964527 -0.6936820149
2.865456104 -3.377634525 -0.5387191176
2.789577246 -3.290520668 -0.3736984432
3.684405565 -4.350655556 -0.0988137275
2.84695673 -3.348713398 0.07602088898
3.344123125 -3.936285496 0.2684845924
3.348315954 -3.942615747 0.4488267004
3.758749247 -4.429029942 0.708117485
3.762079954 -4.436092854 0.9145675302
3.749213219 -4.424049854 1.118966818
3.767755032 -4.447502613 1.335756063
3.770235777 -4.453582764 1.551931024
1.982011557 -2.347886324 -0.8117086291
2.260648012 -2.679855585 -0.7994726896
2.662058353 -3.157938004 -0.7945914865
2.830353737 -3.358772516 -0.6889889836
2.845385313 -3.379003286 -0.5372566581
2.772366524 -3.294624567 -0.373001188
3.622112989 -4.309023857 -0.09755715728
2.814028978 -3.334673166 0.07546240836
3.324522972 -3.942408562 0.2680658996
3.318433523 -3.936580658 0.446734935
3.719470501 -4.415448666 0.7037302256
3.733074665 -4.434738636 0.9114388824
3.712751865 -4.413722992 1.112860918
3.743903637 -4.452332973 1.333056569
3.732760191 -4.442228317 1.543131232
1.968429804 -2.349211693 -0.8096380234
2.165738583 -2.586522341 -0.768879354
2.653538704 -3.170222044 -0.7953546643
2.805350065 -3.353971481 -0.6858602762
2.80879283 -3.360470533 -0.5326256156
2.758294582 -3.301223993 -0.3726525903
3.638035774 -4.357219696 -0.2952806056
3.630114079 -4.349275112 -0.09818544239
2.799220085 -3.341898918 0.07539259642
3.199189186 -3.82076335 0.2589594424
3.301425457 -3.94566083 0.4463863075
3.690529108 -4.413822651 0.7012928128
3.707436323 -4.435617447 0.9089358449
3.684737682 -4.411588192 1.10904479
3.707580328 -4.44208765 1.325858116
3.708567619 -4.444847584 1.539507747
1.967630744 -2.364979029 -0.8127439022
2.150918722 -2.58619833 -0.7666297555
2.652495623 -3.191544771 -0.7984076738
2.784114361 -3.35110116 -0.683357358
2.781149864 -3.349910975 -0.5294569731
2.737849474 -3.300098658 -0.3714323938
3.621016979 -4.366185188 -0.295071274
3.62639451 -4.375777721 -0.09849958867
2.772775173 -3.332716465 0.07497374713
3.171787262 -3.815013409 0.2578080595
3.282539606 -3.951031208 0.4456890821
3.661920547 -4.409238338 0.6986116767
3.662915468 -4.413569927 0.9017398953
3.6625669 -4.414717197 1.106755137
3.670441628 -4.427353859 1.317759871
3.681937218 -4.444376469 1.534849048
1.954854965 -2.365534544 -0.8106733561
2.143118858 -2.595193624 -0.767079711
2.638147831 -3.195780993 -0.7972627878
2.767371655 -3.354703665 -0.6821058989
2.761863232 -3.350407839 -0.5279945731
2.709844828 -3.289643764 -0.3691663444
3.515611649 -4.269330502 -0.2876395583
3.564085007 -4.33127594 -0.09720810503
2.766219378 -3.348541498 0.07511336356
3.244057417 -3.931159973 0.4422028363
3.603567123 -4.369922161 0.6903245449
3.606031656 -4.376021385 0.8914152384
3.637147903 -4.415352821 1.103702068
3.643818855 -4.426598072 1.313710809
3.65044713 -4.437806129 1.528119683
1.943721414 -2.36969614 -0.8096380234
2.138989449 -2.608686447 -0.768879354
2.623928547 -3.202391148 -0.7964995503
2.7450459 -3.352596521 -0.679602921
2.746379137 -3.355420113 -0.5272633433
2.689515829 -3.288286924 -0.3679461777
3.504996538 -4.288372993 -0.2880582511
3.499600649 -4.283297539 -0.0958468169
2.740563631 -3.341169596 0.07472940534
3.219527245 -3.930693388 0.4408083558
3.604640007 -4.402441025 0.6934931874
3.59323597 -4.391640186 0.8920409679
3.584902048 -4.384576797 1.092635155
3.599211454 -4.405214787 1.303363085
3.61049366 -4.420597553 1.517766953
1.940317512 -2.38245821 -0.8117086291
2.168776035 -2.664875031 -0.7832762003
2.627601624 -3.229806185 -0.8010789752
2.718373299 -3.343764782 -0.675848484
2.727138758 -3.355743408 -0.5258009434
2.667972803 -3.285282373 -0.3665516675
3.529020309 -4.348658085 -0.2913030684
3.506044626 -4.321887493 -0.09644020349
2.701786518 -3.318625927 0.07399640977
2.842961788 -3.493278265 0.2338382006
3.183159113 -3.914083958 0.4376707375
3.585976124 -4.412542343 0.693005681
3.582866669 -4.410288811 0.8932924271
3.567100763 -4.394014835 1.091871977
3.587039232 -4.420152187 1.304262877
3.55975318 -4.389659882 1.502755404
1.937266111 -2.394887209 -0.8137791157
2.202804327 -2.725095749 -0.7990227342
2.625514269 -3.249191284 -0.8037503362
2.701065302 -3.345076323 -0.6742841601
2.703527212 -3.349321365 -0.5233635902
2.64330411 -3.277052879 -0.3646342456
3.509567022 -4.35411644 -0.2908844054
3.515531778 -4.363075256 -0.09710339457
2.68950963 -3.326012373 0.0739615038
2.837639809 -3.510452509 0.2343615443
3.162650347 -3.915318727 0.4366248548
3.546387196 -4.393516064 0.6881309152
3.555817127 -4.406772137 0.8901637793
3.548813343 -4.401235104 1.090727091
3.558909655 -4.415332794 1.299313903
3.559719086 -4.419494152 1.508967161
1.929313779 -2.401298285 -0.8137791157
2.207175732 -2.749100924 -0.8039717078
2.604894161 -3.245630741 -0.8006973863
2.685014248 -3.347851515 -0.673032701
2.679404974 -3.343247652 -0.5209261179
2.633095026 -3.287814856 -0.3648085594
3.4826262 -4.350139141 -0.2898376882
3.4877882 -4.359705925 -0.09675434232
2.662186384 -3.314644575 0.07350774109
3.137181044 -3.910244226 0.4348817468
3.521864414 -4.39286232 0.6861810088
3.521886587 -4.396033287 0.8854706883
3.523153782 -4.399187088 1.087292552
3.530081511 -4.410993099 1.294365048
3.544270754 -4.431892872 1.508967161
1.922908425 -2.411374092 -0.8148143888
2.201210499 -2.761360168 -0.8053213954
2.58319521 -3.242871523 -0.7976444364
2.665343761 -3.348396778 -0.6711554527
2.657830238 -3.340153933 -0.5189762115
2.603001833 -3.273594141 -0.3621939123
3.452991247 -4.345673561 -0.2886862755
3.455136776 -4.349931717 -0.09626568109
2.65558672 -3.330170631 0.07364735752
2.706020117 -3.395846605 0.2253597677
3.114140749 -3.910805941 0.4336615801
3.49167347 -4.386491299 0.6832561493
3.48807478 -4.385110855 0.8807777166
3.493567944 -4.395165443 1.083094835
3.499346018 -4.405590534 1.288966179
3.505954266 -4.415492058 1.499131918
1.912081242 -2.415042639 -0.8137791157
2.195911169 -2.77552247 -0.8071209788
2.586473942 -3.270347357 -0.8022238612
2.638941526 -3.339082479 -0.6674010158
2.638188362 -3.340525627 -0.5175138116
2.577978373 -3.265458107 -0.3602764606
3.432853222 -4.351428032 -0.2882675827
3.429266214 -4.350003719 -0.09598644078
2.618543148 -3.308521509 0.07294926792
2.683644056 -3.393209457 0.2245224118
3.08934927 -3.907586336 0.432092756
3.465728283 -4.386798382 0.6813062429
3.468307018 -4.393214226 0.8798390627
3.458745003 -4.382675171 1.076988935
3.474292517 -4.405536652 1.285366893
3.47061491 -4.404035091 1.490849733
1.906027198 -2.424739599 -0.8148143888
2.18620944 -2.783170462 -0.8071209788
2.565342426 -3.267002821 -0.7991708517
2.613856554 -3.331178904 -0.6639595032
2.620387554 -3.341903925 -0.516295135
2.561647415 -3.268165112 -0.3595792055
3.405327082 -4.347660542 -0.2872208655
3.404201031 -4.349349022 -0.09570720047
2.597094059 -3.305062771 0.07267002016
3.065848827 -3.905808449 0.4306982756
3.435692549 -4.380125999 0.6783813238
3.440764427 -4.38974762 0.8767104149
3.426473856 -4.373086452 1.071646214
3.452886343 -4.409965992 1.283117414
3.445698023 -4.403951168 1.486708641
1.902305961 -2.437470198 -0.8168849945
2.164496899 -2.775418282 -0.8026219606
2.568408251 -3.294517994 -0.8037503362
2.594928741 -3.330932856 -0.6620822549
2.584317684 -3.319702148 -0.5114203691
2.545982122 -3.272814274 -0.3590562642
3.366835117 -4.329564571 -0.2852320969
3.384089947 -4.354889393 -0.09556758404
