# .PCD v0.7 - Point Cloud Data file format
VERSION 0.7
FIELDS x y z
SIZE 4 4 4
TYPE F F F
COUNT 1 1 1
WIDTH 1164
HEIGHT 1
VIEWPOINT 0 0 0 1 0 0 0
POINTS 1164
DATA ascii
0.5726405978 -0.7006273866 -0.04521939531
0.5718862414 -0.6999538541 -0.01507708151
0.577033639 -0.7034929395 0.01518179569
0.5822074413 -0.7108120918 0.07667167485
0.5726166368 -0.7003487349 0.1675930917
0.5562208295 -0.6807802916 0.1930045784
0.5676344037 -0.6949973106 0.2288480848
0.558123827 -0.685303688 -0.2252246141
0.5659834743 -0.6954499483 -0.1970536858
0.5696647167 -0.7002228498 -0.1672114879
0.5713605285 -0.7028082609 -0.1367752552
0.5711584091 -0.703060925 -0.1060828716
0.570191443 -0.702622056 -0.04521939531
0.5845514536 -0.7180091739 0.015461036
0.5699112415 -0.700276196 0.0451147221
0.5797227025 -0.7128400207 0.07667167485
0.57264328 -0.705391705 0.1683563292
0.5587518811 -0.6887712479 0.1948041767
0.5603377223 -0.6909725666 0.2267775238
0.5484400988 -0.6782346368 -0.22211878
0.5636742115 -0.6973230243 -0.1970536858
0.5635160804 -0.6976253986 -0.1660666317
0.5615807772 -0.6954776645 -0.1348980367
0.5713169575 -0.7080408335 -0.1065703481
0.571618557 -0.709174037 -0.0455334112
0.5695935488 -0.7043943405 0.01511198562
0.5649527907 -0.6991543174 0.04490537941
0.5647140741 -0.6993579865 0.07492855936
0.5678363442 -0.7042301297 0.1675930917
0.5589101315 -0.6936552525 0.1957039833
0.5530760884 -0.6869053841 0.2247069776
0.5534462333 -0.6890867949 -0.2252246141
0.5539180636 -0.6901675463 -0.1943542808
0.5624281764 -0.7010215521 -0.1664482504
0.5566783547 -0.6943513155 -0.1342722923
0.5713242292 -0.7131292224 -0.1070578173
0.5691395402 -0.7111650705 -0.0455334112
0.5675082803 -0.7073535323 0.04532406852
0.562391758 -0.7012268305 0.07492855936
0.5555588603 -0.6939470768 0.1645401567
0.5540506244 -0.6925585866 0.1948041767
0.5482624173 -0.6858139038 0.2236716896
0.5485085249 -0.6880894303 -0.2241893411
0.5478622317 -0.6875247955 -0.1930045784
0.561078012 -0.7046140432 -0.1668298692
0.5541297197 -0.6963869929 -0.1342722923
0.5589455366 -0.7026907802 -0.1051079109
0.5620576739 -0.7078703642 -0.01507708151
0.5598178506 -0.7032834291 0.07492855936
0.5530116558 -0.6959787011 0.1645401567
0.549085021 -0.6915322542 0.193904385
0.5434631109 -0.68469733 0.2226364315
0.5532967448 -0.6990888119 -0.2272951603
0.5453386307 -0.6895282269 -0.1930045784
0.5500918627 -0.6957877278 -0.164158538
0.5529201031 -0.6998670101 -0.1345851719
0.5539061427 -0.7016185522 -0.1046204343
0.5573595166 -0.7052332759 0.07492855936
0.5481469631 -0.6948220134 0.1637769192
0.5482441187 -0.6956940889 0.2257422507
0.5424978137 -0.6903828979 -0.2236716896
0.5430490971 -0.6913327575 -0.1930045784
0.548871994 -0.6992480755 -0.1645401567
0.551815629 -0.7032508254 -0.1348980367
0.5542718172 -0.707651794 -0.04490537941
0.5609387159 -0.7138507962 0.01514689159
0.5548944473 -0.70717448 0.07492855936
0.5531050563 -0.7059082389 0.1660666317
0.5386698246 -0.6884746552 0.2226364315
0.5406326056 -0.6932241917 -0.1930045784
0.5491176248 -0.7053725719 -0.1046204343
0.5517983437 -0.7095822692 -0.04490537941
0.5458157063 -0.7016363144 0.1645401567
0.5467754602 -0.7071896195 -0.1046204343
-0.7710912824 -0.4522155225 -0.1046204343
-0.7828806639 -0.45564726 -0.1060828716
-0.7678315043 -0.4440230131 -0.164158538
-0.7775897384 -0.4489417076 -0.1051079109
-0.7580378056 -0.4353632927 -0.2226364315
-0.7843198776 -0.4491842389 -0.1058391258
-0.768134594 -0.4395588338 0.1637769192
-0.7607010603 -0.4346004725 0.223154068
-0.7595530748 -0.4327143729 -0.2226364315
-0.7807049751 -0.4435021281 -0.1051079109
-0.7887539864 -0.4475285411 -0.04532406852
-0.783708632 -0.4462948442 0.0150421774
-0.7764938474 -0.4407514632 0.1653033942
-0.7588520646 -0.4300375283 0.22211878
-0.7706111073 -0.4351033866 -0.1943542808
-0.7891660333 -0.4446724057 -0.1060828716
-0.7921296954 -0.4456138015 -0.045428738
-0.7922262549 -0.4474903643 0.01518179569
-0.7828098536 -0.4418111444 0.04490537941
-0.7746821046 -0.4359769225 0.1645401567
-0.7603485584 -0.4273859859 0.22211878
-0.7722005844 -0.4322762191 -0.1943542808
-0.7808848619 -0.4369587004 -0.1656850129
-0.8011885881 -0.4475856423 -0.1075452939
-0.7936803102 -0.44284603 -0.045428738
-0.7851375341 -0.4396980405 0.01500727143
-0.7844238877 -0.4389390349 0.04490537941
-0.7761993408 -0.433269918 0.1645401567
-0.7619099021 -0.4245963097 0.22211878
-0.7708713412 -0.4283567071 -0.2247069776
-0.7858387232 -0.4361354411 -0.1664482504
-0.7992732525 -0.4428622127 -0.1070578173
-0.7962549925 -0.4402818978 -0.01518179569
-0.7866674662 -0.4369548559 0.01500727143
-0.78951931 -0.4379981458 0.07527717948
-0.7742717862 -0.4286559522 0.1637769192
-0.770968318 -0.4264755845 0.1934544742
-0.7718411088 -0.4266068637 0.2247069776
-0.7774376273 -0.4284608066 -0.2262599021
-0.776906848 -0.4278145432 -0.1948041767
-0.7907961011 -0.4352832735 -0.1672114879
-0.7867196202 -0.4326814711 -0.1355237812
-0.7972584367 -0.4382966459 -0.1065703481
-0.7896009088 -0.4337278008 -0.0751028657
-0.8037560582 -0.4411383867 -0.0458474271
-0.8012170196 -0.4395626187 -0.01525160577
-0.802200079 -0.4419253469 0.01528651174
-0.7980257869 -0.439081341 0.07597442716
-0.7860887647 -0.43162027 0.1660666317
-0.7868025899 -0.4314762652 0.2288480848
-0.7822442055 -0.4277339876 -0.2272951603
-0.785161674 -0.4289735854 -0.1966037899
-0.7887890935 -0.4307764769 -0.1664482504
-0.7985540628 -0.4357475638 -0.1374009848
-0.7987074852 -0.4356504083 -0.1065703481
-0.7927842736 -0.4320603907 -0.07527717948
-0.8122307658 -0.4422911704 -0.0462661162
-0.8044266701 -0.437859267 -0.01528651174
-0.8106799126 -0.4430989921 0.01542613003
-0.7905797362 -0.4319337308 0.04501005262
-0.8029750586 -0.438341856 0.07632304728
-0.7978599668 -0.4346462488 0.1683563292
-0.7806255221 -0.4250808656 0.1952540725
-0.7882291675 -0.4288647175 0.2288480848
-0.7785640359 -0.4223741889 -0.2257422507
-0.7985725999 -0.432867974 -0.1997531056
-0.7971933484 -0.4317603409 -0.1679747254
-0.8017318845 -0.4340375066 -0.1377138644
-0.8176835775 -0.442304343 -0.1090077311
-0.8172845244 -0.4413513243 -0.04647545889
-0.8024306893 -0.4331490397 -0.01521670166
-0.8174184561 -0.4432680011 0.01553084422
-0.80261904 -0.4348801076 0.04563808069
-0.8009203672 -0.4337789416 0.07597442716
-0.7993722558 -0.4318585396 0.1683563292
-0.7855339646 -0.424205333 0.1961538792
-0.7812205553 -0.421523869 0.2262599021
-0.7886141539 -0.4240924418 -0.2283304334
-0.8018704057 -0.4308604896 -0.2002030015
-0.7987703085 -0.4288357794 -0.1679747254
-0.7998362184 -0.4292279482 -0.13708812
-0.8227980733 -0.4411804676 -0.1094952077
-0.7993680835 -0.4282582998 -0.0756257996
-0.8153749704 -0.4364676774 -0.0462661162
-0.811065495 -0.4339787066 -0.01535631996
-0.8155148029 -0.4383755624 0.015461036
-0.8077266216 -0.4338254929 0.0458474271
-0.8060156107 -0.4327255487 0.07632304728
-0.7877349257 -0.4225568175 0.1046204343
-0.7940269709 -0.4252184629 0.1668298692
-0.7973919511 -0.4268414378 0.198853299
-0.7895742655 -0.4223021269 0.2283304334
-0.7952775955 -0.42392537 -0.2298833728
-0.7948440909 -0.4233383834 -0.1979534924
-0.817592144 -0.4352706969 -0.1717908978
-0.8048918843 -0.4281490445 -0.1377138644
-0.8208276033 -0.4364418089 -0.1090077311
-0.8078960776 -0.4292045534 -0.07632304728
-0.8133652806 -0.4317459464 -0.04605676979
-0.8267070055 -0.4386430085 -0.01563555934
-0.8224106431 -0.4382044375 0.01556575019
-0.8074731231 -0.4300646484 0.04574275389
-0.8146317005 -0.433512181 0.07702029496
-0.798974216 -0.4242857099 0.1675930917
-0.7988770604 -0.4240553975 0.198853299
-0.8029903173 -0.4258795679 0.231953904
-0.8086333275 -0.4276075065 -0.2335068285
-0.7979665995 -0.4216105938 -0.1984033883
-0.8120869994 -0.428889662 -0.1702644229
-0.8150425553 -0.4300870597 -0.1392782032
-0.8240261674 -0.434643507 -0.1092514694
-0.8163653016 -0.4302387536 -0.07702029496
-0.8218615055 -0.4327686429 -0.04647545889
-0.8210787773 -0.4321736991 -0.01549594011
-0.8256271482 -0.4364092648 0.0156006543
-0.805363059 -0.4255185127 0.0455334112
-0.823112607 -0.4345289171 0.0777175352
-0.8073247671 -0.425293982 0.1691195667
-0.7864845395 -0.414140135 0.1952540725
-0.8095272183 -0.4259128869 0.2335068285
-0.8032038808 -0.4213339686 -0.2314362824
-0.8097165823 -0.4243899882 -0.2011028081
-0.8135046959 -0.4261944592 -0.1702644229
-0.8199645877 -0.4292141199 -0.1399039477
-0.8290565014 -0.433604449 -0.109738946
-0.8213188648 -0.4293753207 -0.07736892253
-0.8268326521 -0.4318902194 -0.04668480158
-0.8172641397 -0.4265291095 -0.01539122593
-0.8270697594 -0.4336689413 0.0156006543
-0.8209967613 -0.4301195741 0.04637078568
-0.8280791044 -0.4336455464 0.07806616277
-0.7955620289 -0.4162636399 0.1051079109
-0.8191707134 -0.4280700088 0.1714092791
-0.7948350906 -0.4150002003 0.1970536858
-0.8110089302 -0.4230844975 0.2335068285
-0.7995280623 -0.4158533812 -0.2298833728
-0.8163805604 -0.4242568016 -0.2024525106
-0.8254408836 -0.4287820458 -0.1725541353
-0.8144446015 -0.4227092862 -0.1386524588
-0.8376138806 -0.4343634248 -0.1107138991
-0.8139682412 -0.4219212234 -0.07649736106
-0.8407498002 -0.435431242 -0.04741750658
-0.8258520365 -0.4273498058 -0.01553084422
-0.8285784721 -0.4307794869 0.0156006543
-0.8189485073 -0.4254095256 0.04616143927
-0.8225147724 -0.427080065 0.07736892253
-0.8111069202 -0.4207970798 0.1070578173
-0.8206599355 -0.4252079427 0.1714092791
-0.8083930612 -0.4184944928 0.2002030015
-0.8039012551 -0.4158134162 0.230918631
-0.8009747863 -0.4130599797 -0.2298833728
-0.8213211894 -0.42318964 -0.2033523172
-0.8304232359 -0.4276961386 -0.1733173728
-0.8317233324 -0.4279984832 -0.1414682865
-0.8567791581 -0.4405138195 -0.1131512895
-0.8207523823 -0.4218093455 -0.07702029496
-0.8404878378 -0.4315814376 -0.04731283337
-0.8326762319 -0.4272030592 -0.01563555934
-0.8300771117 -0.4278845489 0.0156006543
-0.8275308609 -0.4262064695 0.04658012837
-0.8364005089 -0.4305899739 0.07858909667
-0.8108055592 -0.417055428 0.106814079
-0.7950518131 -0.4086010158 0.1348980367
-0.8186464906 -0.4205467105 0.1706460416
-0.8150501251 -0.4183394611 0.201552704
-0.81394279 -0.4174124599 0.2335068285
-0.8178923726 -0.418176502 -0.2345421165
-0.8210579753 -0.4194335938 -0.2029024214
-0.8389050961 -0.4283660948 -0.1748438478
-0.8244142532 -0.4206040204 -0.1399039477
-0.8512373567 -0.4339143336 -0.1121763363
-0.8310958743 -0.4234645963 -0.07789184898
-0.8348697424 -0.4250204861 -0.04689414427
-0.8412919044 -0.4279202521 -0.01577517949
-0.8351268768 -0.4268044233 0.01567046531
-0.8290135264 -0.423315227 0.04658012837
-0.8396730423 -0.428573519 0.07876341045
-0.8104880452 -0.4133208096 0.1065703481
-0.8105537295 -0.4129978418 0.1374009848
-0.8236083388 -0.4194684923 0.1714092791
-0.8199789524 -0.4172596335 0.2024525106
-0.8136729598 -0.413692981 0.232989192
-0.8245165348 -0.4179392457 -0.2360950261
-0.827732563 -0.4192063808 -0.2042521238
-0.8438984752 -0.4272085726 -0.1756070852
-0.8329283595 -0.4212899804 -0.1411554217
-0.8456599712 -0.4273589253 -0.1112013832
-0.8432393074 -0.4259509146 -0.07893772423
-0.8399143219 -0.4239034355 -0.04710348696
-0.8445660472 -0.4258812964 -0.0158100836
-0.8437467813 -0.4275020957 0.0158100836
-0.8251402974 -0.417712599 0.0462661162
-0.8447194695 -0.4274390042 0.07911203057
-0.8119258881 -0.4104891121 0.1065703481
-0.8084641099 -0.4083846807 0.1367752552
-0.8285726309 -0.4183607697 0.1721725166
-0.8231704235 -0.4152725637 0.2029024214
-0.8340881467 -0.4204149246 0.2386832088
-0.8294225931 -0.4167936146 -0.2371302992
-0.8361570835 -0.4198120534 -0.2060517371
-0.8453844786 -0.4242604077 -0.1756070852
-0.8379254937 -0.4201507866 -0.1417811513
-0.8506962061 -0.4261826873 -0.1116888598
-0.8447210193 -0.4230048358 -0.07893772423
-0.8521059752 -0.4263309836 -0.04773152247
-0.8424702883 -0.4211421311 -0.01574027352
-0.8666772842 -0.4353248179 0.0162289422
-0.8426590562 -0.4228926301 0.04720816389
-0.8533298969 -0.4280611575 0.07980927825
-0.8257763982 -0.4138788879 0.1082765162
-0.8045858145 -0.4029065967 0.135836646
-0.8475840688 -0.4242533147 0.1759886891
-0.8263578415 -0.4132682383 0.2033523172
-0.8355505466 -0.4175010324 0.2386832088
-0.8222265244 -0.4095889032 -0.2345421165
-0.8498295546 -0.4229690731 -0.2092010528
-0.8398293853 -0.4178087711 -0.1740806103
-0.8464624882 -0.4207404256 -0.1430326253
-0.8628461957 -0.4285083115 -0.1131512895
-0.8390539289 -0.4165102541 -0.07824047655
-0.871481657 -0.4322282076 -0.04877823964
-0.8582692742 -0.4253020585 -0.01601951383
-0.8538711071 -0.4251662791 0.01594970375
-0.8459182978 -0.4208379686 0.04731283337
-0.8494669199 -0.4224184453 0.07928634435
-0.8307716846 -0.4127601385 0.1087639853
-0.8148340583 -0.4044874012 0.1374009848
-0.8420251012 -0.4178017676 0.1744622141
-0.8312872648 -0.4121125042 0.2042521238
-0.8266159892 -0.4094370902 0.2355773747
-0.8271156549 -0.4084267318 -0.2355773747
-0.8460578918 -0.4174133539 -0.2078513354
-0.8518474102 -0.4200845957 -0.1763703078
-0.8443821669 -0.4160370231 -0.1424068958
-0.8750225902 -0.4307544231 -0.1146137193
-0.8494412303 -0.417976886 -0.07911203057
-0.8711926937 -0.4283025563 -0.04867357016
-0.8669281006 -0.4258300066 -0.01615913212
-0.8589361906 -0.4239534438 0.01601951383
-0.8563386202 -0.4222994149 0.04783619195
-0.8509361744 -0.4194508493 0.07928634435
-0.8357690573 -0.4116117656 0.1092514694
-0.8339654207 -0.4103618264 0.1405296773
-0.8452400565 -0.4157264531 0.1748438478
-0.8432147503 -0.4143648446 0.2069515437
-0.8315083385 -0.408251971 0.2366126478
-0.842417419 -0.4123315811 -0.2397184968
-0.8440087438 -0.4127451181 -0.2069515437
-0.8638913631 -0.4222817719 -0.1786600202
-0.8493793011 -0.4148205817 -0.1430326253
-0.8765208721 -0.4276973903 -0.1146137193
-0.8562672734 -0.4176294208 -0.07963496447
-0.8601145148 -0.4191344976 -0.04794086516
-0.8666113019 -0.4219259024 -0.01612422802
-0.8604108691 -0.4209525883 0.01601951383
-0.8542187214 -0.4175536036 0.04762684926
-0.8667162657 -0.4234752357 0.08068083972
-0.8300651908 -0.4052087665 0.1082765162
-0.8513718843 -0.4152417779 0.143345505
-0.8484507203 -0.4136339724 0.1752254516
-0.8481599092 -0.4131256044 0.2078513354
-0.8433508277 -0.4104190469 0.2397184968
-0.8525422215 -0.4136046171 -0.2423066795
-0.8542122245 -0.4140465856 -0.2092010528
-0.8653602004 -0.4192636013 -0.1786600202
-0.86149019 -0.4170174003 -0.1449098438
-0.8744344115 -0.4229063094 -0.1141262427
-0.8702763915 -0.4207079709 -0.08085514605
-0.8741617203 -0.4222098589 -0.04867357016
-0.8716806769 -0.4206366241 -0.01619403623
-0.8690721989 -0.421436727 0.01615913212
-0.852076292 -0.412827611 0.04741750658
-0.8789483905 -0.4256574214 0.08172670007
-0.8386222124 -0.4057671726 0.1092514694
-0.8296960592 -0.4010906816 0.1392782032
-0.8534247875 -0.4123781323 0.1759886891
-0.8425770998 -0.4067735374 0.2060517371
-0.8517384529 -0.4108298719 0.2417890429
-0.8592038751 -0.4131376147 -0.2438595891
-0.8574088812 -0.4119061232 -0.2096509486
-0.8632788658 -0.4145406783 -0.1778967828
-0.8700646758 -0.4174255431 -0.1461613178
-0.8794854283 -0.4215674698 -0.1146137193
-0.8663491607 -0.4150851071 -0.08033221215
-0.8792331815 -0.4208805859 -0.04888291284
-0.8640515208 -0.4134282172 -0.01601951383
-0.8903637528 -0.427929163 0.01654308476
-0.8606417179 -0.4134592116 0.04783619195
-0.8732440472 -0.4191383719 0.08102945983
-0.8471931815 -0.4062707722 0.1102264225
-0.8310215473 -0.3983370662 0.1392782032
-0.8690245748 -0.416180253 0.179041639
-0.8475075364 -0.4055122733 0.2069515437
-0.8565816879 -0.4096700847 0.242824316
-0.8519209027 -0.405980736 -0.2412714064
-0.8781228662 -0.4182789326 -0.2145998776
-0.8718116879 -0.4148991406 -0.1794232577
-0.8714441061 -0.4145379961 -0.1461613178
-0.891636014 -0.4237612188 -0.116076149
-0.8677927852 -0.4120584428 -0.08033221215
-0.8824284077 -0.4188189507 -0.04898758233
-0.8799441457 -0.4172638953 -0.01629875042
-0.8935830593 -0.4258347452 0.01657799073
-0.8765060902 -0.4173211455 0.04867357016
-0.8675048947 -0.4126641452 0.08033221215
-0.859292388 -0.4085735977 0.1116888598
-0.8413282633 -0.399672091 0.1408425421
-0.8739467263 -0.4149805605 0.1798048764
-0.8594115376 -0.4077111781 0.2096509486
-0.8545151353 -0.4050227106 0.2417890429
-0.8567559123 -0.4048039913 -0.2423066795
-0.8760530949 -0.4135473669 -0.213700071
-0.8767336011 -0.4136817753 -0.1801864952
-0.8693122864 -0.4098088741 -0.1455355883
-0.8931096792 -0.4206464589 -0.116076149
-0.8781675696 -0.4134216309 -0.08120376617
-0.8965361118 -0.4216868579 -0.04972028732
-0.8868249059 -0.4167409837 -0.0164034646
-0.8878313899 -0.4192968607 0.01643837057
-0.8797636628 -0.4151114523 0.04877823964
-0.8832848072 -0.4165842235 0.08172670007
-0.8571217656 -0.4038794935 0.1112013832
-0.8605905771 -0.4051467478 0.1439712346
-0.864731729 -0.406911701 0.177515164
-0.8749380112 -0.4113417268 0.2132501751
-0.8594207168 -0.4036802351 0.242824316
-0.8756594658 -0.41000247 -0.2474830449
-0.8739609122 -0.4088355601 -0.2128002644
-0.8923999667 -0.4172712266 -0.1832394451
-0.8778961897 -0.4101164043 -0.1467870474
-0.9017679095 -0.4208846092 -0.1170511171
-0.892244339 -0.4162500501 -0.08242394775
-0.8943820596 -0.4168672562 -0.04951094463
-0.8955252767 -0.417019695 -0.01654308476
-0.8965342641 -0.4195857644 0.01657799073
-0.8884443641 -0.4154216647 0.04919692874
-0.8919535279 -0.4168727994 0.08242394775
-0.85133183 -0.3975253999 0.1102264225
-0.8602093458 -0.4013050795 0.1436583698
-0.8768225908 -0.4088691771 0.1798048764
-0.8728356361 -0.4066391587 0.2123503685
-0.8678303361 -0.4039386809 0.2448948622
-0.882342577 -0.4093825817 -0.2490359843
-0.8789187074 -0.4074214995 -0.213700071
-0.899195075 -0.4166296422 -0.1843842864
-0.8918708563 -0.4128580391 -0.1489771307
-0.892421186 -0.4127345681 -0.1155886799
-0.8936918974 -0.4131329358 -0.08242394775
-0.9030846357 -0.4170924723 -0.04992963001
-0.8969755173 -0.4138911664 -0.01654308476
-0.8925510049 -0.4139299691 0.01647327468
-0.8826403022 -0.4089592397 0.04877823964
-0.9006348252 -0.417106092 0.08312119544
-0.8563174009 -0.3962184191 0.1107138991
-0.8580188155 -0.3966421187 0.1430326253
-0.8853732944 -0.4090999067 0.1813313514
-0.8671725392 -0.4003227651 0.2105507553
-0.8815149069 -0.4065705836 0.2485183477
-0.8837661147 -0.4063003063 -0.2490359843
-0.8980444074 -0.4124846756 -0.2181991041
-0.8935070634 -0.4102117717 -0.1828578115
-0.8986931443 -0.4122129679 -0.1499157399
-0.9010748267 -0.4129250348 -0.1165636256
-0.8915057182 -0.4083514214 -0.08207532763
-0.9045350552 -0.4139375389 -0.04992963001
-0.8947775364 -0.4090946019 -0.01647327468
-0.921245873 -0.4233363867 0.01699684747
-0.8913229108 -0.409209013 0.04919692874
-0.9057070017 -0.4156216681 0.08346981555
-0.8703266978 -0.3990179896 0.1124200746
-0.8593981266 -0.3936446309 0.1430326253
-0.901076436 -0.4125449955 0.1843842864
-0.8756532669 -0.4005357325 0.2123503685
-0.8899568915 -0.4067028463 0.2505888641
-0.8816629052 -0.4016112387 -0.2480006814
-0.9030261636 -0.4109617174 -0.2190988958
-0.8985075951 -0.4087163508 -0.1836210638
-0.9073201418 -0.4123425782 -0.1511672139
-0.9097409248 -0.4130597115 -0.1175385863
-0.8947401047 -0.4060603976 -0.08224964142
-0.9168885946 -0.415726155 -0.0505576618
-0.9071291685 -0.4109197259 -0.01668270491
-0.9154382944 -0.4168035388 0.01685722917
-0.896381855 -0.4077493846 0.04940627143
-0.9035249352 -0.4108080864 0.08312119544
-0.8825582862 -0.4009037018 0.1138825119
-0.8607670069 -0.3906423748 0.1430326253
-0.9025108814 -0.4093973041 0.1843842864
-0.8894708157 -0.4031075239 0.2154996693
-0.8808120489 -0.3988128603 0.2474830449
-0.8848203421 -0.3993259072 -0.2485183477
-0.9009021521 -0.4062052965 -0.2181991041
-0.9070883989 -0.4088041186 -0.1851475388
-0.8943440914 -0.4026850462 -0.1486642659
-0.92203933 -0.4147677422 -0.119001016
-0.9070548415 -0.4078371227 -0.08329550922
-0.9237998724 -0.4149782956 -0.0508716777
-0.923153162 -0.4143006206 -0.01696194336
-0.9095964432 -0.4103162289 0.01671760902
-0.9123668671 -0.4111829996 0.05024364963
-0.9122197628 -0.4109249413 0.08381844312
-0.8767114878 -0.3945618272 0.1129075512
-0.8711334467 -0.3916858733 0.1445969641
-0.8931902647 -0.4014155567 0.1820945889
-0.9050945044 -0.406386137 0.2190988958
-0.8839614391 -0.3965264559 0.2480006814
-0.9056085348 -0.4049083889 -0.2542123497
-0.9094317555 -0.4062372446 -0.2199987173
-0.9210586548 -0.4112378657 -0.187818855
-0.908372581 -0.4051937759 -0.1508543491
-0.9216682911 -0.4107388854 -0.1187572777
-0.9157528877 -0.4079111814 -0.0839927569
-0.917943716 -0.4085031152 -0.05045299232
-0.9300755262 -0.4135128558 -0.01706665568
-0.9256284833 -0.4136660099 0.01699684747
-0.9137966633 -0.407995522 0.05024364963
-0.9136485457 -0.4077383578 0.08381844312
-0.8835226297 -0.3939239383 0.1136387661
-0.8869311213 -0.3950728476 0.1470999271
-0.9053471088 -0.4030864239 0.1843842864
-0.9047270417 -0.4024322927 0.2186489999
-0.8994631171 -0.3997148275 0.2521418035
-0.9140816927 -0.404874444 -0.2562828958
-0.9108441472 -0.4030604661 -0.2199987173
-0.9296703339 -0.4111970067 -0.18934533
-0.9188156724 -0.4060122967 -0.1524187028
-0.9339923859 -0.4123293757 -0.1202197075
-0.920816958 -0.4063205421 -0.08434136957
-0.9358120561 -0.4125473797 -0.05139504001
-0.9296830893 -0.409457922 -0.01703175157
-0.9380378127 -0.4152895212 0.01720627584
-0.9133884907 -0.4039955139 0.0501389727
-0.9332888126 -0.4126027524 0.0855615586
-0.8885239363 -0.3924417198 0.1141262427
-0.8864976168 -0.3911767304 0.1467870474
-0.9103412032 -0.4015084505 0.1851475388
-0.8989931941 -0.3961283565 0.2168493867
-0.9114615917 -0.4012427926 0.2552476227
-0.9066441059 -0.3978002071 -0.2536947131
-0.9229544997 -0.4045724869 -0.2226981223
-0.9185125232 -0.4024342895 -0.1866740137
-0.9310848713 -0.4075553715 -0.1542959064
-0.9354259968 -0.4090665877 -0.1202197075
-0.9295319915 -0.4062958658 -0.08503861725
-0.942737639 -0.4116758704 -0.0517090559
-0.9292030931 -0.405572772 -0.01699684747
-0.9468070865 -0.4152251482 0.01734589599
-0.9165526032 -0.4017662406 0.05024364963
-0.9456737041 -0.4141378999 0.0866074264
-0.9062562585 -0.3964989185 0.1163198948
-0.8914095759 -0.3898179829 0.1474127918
-0.9297277331 -0.40618819 0.1889637113
-0.9003703594 -0.3929880559 0.2168493867
-0.9110165238 -0.3974455595 0.2547299862
-0.9080271125 -0.3946329951 -0.2536947131
-0.9350152016 -0.406168431 -0.2253975272
-0.925314486 -0.4015703201 -0.187818855
-0.9324312806 -0.4044655263 -0.1542959064
-0.9477058649 -0.4106982946 -0.1216821522
-0.923631072 -0.3998823166 -0.08434136957
-0.956928432 -0.4140999913 -0.05244175717
-0.9379551411 -0.4055008888 -0.01713646762
-0.9445108771 -0.4104889929 0.01727608778
-0.9362696409 -0.4065188468 0.0512903668
-0.9324910045 -0.4044914246 0.08521293849
-0.9130300283 -0.3958604336 0.1170511171
-0.8927648664 -0.386703968 0.1474127918
-0.9274662137 -0.4015427232 0.1882004589
-0.9231318831 -0.3992836475 0.2222482264
-0.9035314918 -0.3904315531 0.2521418035
-0.9182024002 -0.39544034 -0.2562828958
-0.9364274144 -0.4029018581 -0.2253975272
-0.944676578 -0.4062557518 -0.1916350275
-0.9302076101 -0.399648726 -0.1536701769
-0.9600785971 -0.412085712 -0.1231445819
-0.936008215 -0.4013670683 -0.08538724482
-0.9546966553 -0.4091835618 -0.05223241448
-0.9503945112 -0.4069470465 -0.01734589599
-0.9367542267 -0.4032365382 0.01710156351
-0.9450221062 -0.4064043462 0.0517090559
-0.9374879599 -0.4029707015 0.0855615586
-0.9198782444 -0.3950207233 0.1177823171
-0.895924747 -0.3843640983 0.1477256715
-0.9252535701 -0.3967553973 0.1874372363
-0.9281026125 -0.3975936472 0.2231480181
-0.9190971851 -0.3933561146 0.2562828958
-0.9391935468 -0.4004061818 -0.2619769275
-0.9306570292 -0.3965748847 -0.223597914
-0.9515784383 -0.405097574 -0.1927798837
-0.9371194243 -0.3985562027 -0.1546087861
-0.9578575492 -0.4071784317 -0.1226571053
-0.9484066963 -0.4027703702 -0.08643311262
-0.9488354325 -0.4025613666 -0.05181372538
-0.9591731429 -0.406750083 -0.01748551428
-0.9473536611 -0.4038850963 0.01727608778
-0.950109899 -0.4046685696 0.05191839859
-0.9536252618 -0.405772388 0.08695605397
-0.9175980091 -0.3902537525 0.117294848
-0.9154417515 -0.3889591396 0.1508543491
-0.9375445843 -0.3979640901 0.1897269338
-0.9331417084 -0.3957110941 0.2240478396
-0.9311366677 -0.3946688771 0.259388715
-0.9423651695 -0.3978767097 -0.2624945343
-0.9392864704 -0.3961908519 -0.2253975272
-0.9584138393 -0.4040615261 -0.1939247549
-0.9548894763 -0.4021832049 -0.1574246138
-0.9593434334 -0.4036652148 -0.1226571053
-0.9608263373 -0.4040915072 -0.08747898042
-0.9649654627 -0.4054362476 -0.05265110359
-0.9568998814 -0.4018507004 -0.01741570607
-0.9598816633 -0.4050752521 0.01748551428
-0.9441556931 -0.3982447088 0.05149970949
-0.9660520554 -0.4070834517 0.08800191432
-0.92634058 -0.389968574 0.1182698086
-0.9149729609 -0.3849953711 0.1505414844
-0.9552167058 -0.4015361369 0.1931615025
-0.9345174432 -0.3924511969 0.2240478396
-0.9378525615 -0.393659234 0.2609416544
-0.9419659376 -0.3938398659 -0.2619769275
-0.9513833523 -0.3975822628 -0.2280969322
-0.9525715113 -0.3976882994 -0.1923982799
-0.9635099173 -0.4020574987 -0.158676073
-0.9570121765 -0.3989539742 -0.1221696138
-0.9585524797 -0.3992031217 -0.08713036031
-0.9663046598 -0.4022340477 -0.05265110359
-0.9582967758 -0.3985080123 -0.01741570607
-0.9685994387 -0.4049754441 0.01762513444
-0.9529119134 -0.3980254829 0.05191839859
-0.9637897611 -0.4021742642 0.08765330166
-0.9349572659 -0.3899511099 0.1192447618
-0.9053707719 -0.3772405386 0.1486642659
-0.9547306895 -0.397611469 0.1927798837
-0.9358136654 -0.3893500268 0.2240478396
-0.9374370575 -0.389641881 0.2604240179
-0.9414820671 -0.3899747133 -0.261459291
-0.9599680305 -0.3972393572 -0.2298965454
-0.9683987498 -0.4005300999 -0.1954512298
-0.964907527 -0.3986915052 -0.158676073
-0.9767481685 -0.4031851292 -0.1246069968
-0.9561875463 -0.3945025206 -0.08678174019
-0.9880149364 -0.4072305858 -0.05380249396
-0.9707763791 -0.3997289836 -0.01762513444
-0.9773975611 -0.4046515822 0.01776475459
-0.9616779089 -0.3977503777 0.05233708769
-0.9614354372 -0.3974535763 0.08730467409
-0.9473212957 -0.3912317753 0.1207071841
-0.9249427915 -0.3816116154 0.1517929733
-0.9706326127 -0.400264293 0.1958328336
-0.9515817165 -0.3920193613 0.2276470363
-0.9387915134 -0.3863672018 0.2604240179
-0.948199749 -0.3888850808 -0.2630122006
-0.9613488317 -0.3938859999 -0.2298965454
-0.9679741859 -0.3964032531 -0.1950695962
-0.9589802027 -0.3923292458 -0.1574246138
-0.9891749024 -0.4042792618 -0.1260694414
-0.9649363756 -0.3941763639 -0.08747898042
-0.9857321382 -0.4022697508 -0.05359315127
-0.9758691788 -0.397847712 -0.01769494265
-0.9714031219 -0.3982034624 0.01762513444
-0.9667569995 -0.3959048092 0.05254642665
-0.9738804102 -0.3986235261 0.08835053444
-0.9541934729 -0.3901765645 0.1214384139
-0.9408985972 -0.3843569458 0.1542959064
-0.9574831128 -0.3909367323 0.1927798837
-0.9565531611 -0.3901675642 0.2285468578
-0.9401345253 -0.383087635 0.2604240179
-0.9585009217 -0.3892068863 -0.2656003833
-0.9591063261 -0.3890627921 -0.2289967537
-0.9857264757 -0.3996609747 -0.1985041499
-0.9749909639 -0.3949120641 -0.159927547
-0.9868997335 -0.3993346989 -0.1255819649
-0.9773887992 -0.395287782 -0.08852485567
-0.9834266901 -0.3973300457 -0.05338380486
-0.9883781075 -0.3989295363 -0.01790437289
-0.980198741 -0.3978182077 0.01776475459
-0.9718349576 -0.3940286934 0.05275577307
-0.9826520681 -0.398214817 0.08904778212
-0.946349442 -0.3831188381 0.1202197075
-0.9513909817 -0.3847734034 0.1558602601
-0.9661226273 -0.3905351758 0.1943063587
-0.9615231752 -0.3882855177 0.2294466496
-0.9611731768 -0.3877537847 0.2661180198
-0.9652308822 -0.388020575 -0.2671532929
-0.9676920772 -0.3886173964 -0.230796352
-0.9871154428 -0.3962179124 -0.1985041499
-0.9836974144 -0.3944470584 -0.161179021
-0.9882876873 -0.3958873451 -0.1255819649
-0.986161232 -0.3948357999 -0.08922210336
-0.9922252893 -0.3968619108 -0.05380249396
-0.9841938615 -0.3932508528 -0.0177996587
-0.9815813899 -0.3943942189 0.01776475459
-0.969497323 -0.389146179 0.05254642665
-0.9914327264 -0.3977496624 0.08974502981
-0.9587367177 -0.3842440248 0.1216821522
-0.9563959837 -0.3829184771 0.1564859897
-0.9820619822 -0.3929953873 0.1973593086
-0.9628727436 -0.384926796 0.2294466496
-0.9679030776 -0.3865459859 0.2676709592
-0.9683746099 -0.3853630126 -0.2676709592
-0.9726643562 -0.3866771758 -0.2316961586
-0.9884926081 -0.3927695751 -0.1985041499
-0.9960843921 -0.3953838646 -0.1630562544
-0.9970448017 -0.3953620195 -0.126556918
-0.9875333309 -0.3913912773 -0.08922210336
-1.008460641 -0.3992778659 -0.05463986844
-0.9874199033 -0.3905486465 -0.01783456281
-1.00153327 -0.3983560205 0.01811380126
-0.9819865823 -0.3901844621 0.05317446217
-0.9965185523 -0.3957572579 0.09009365737
-0.9674528837 -0.383823216 0.1226571053
-0.9448718429 -0.3744831383 0.1542959064
-0.9962043762 -0.3946264386 0.2000306249
-0.9678347111 -0.3829973042 0.2303464562
-0.9710429311 -0.3838751912 0.2681885958
-0.9679163098 -0.3812722862 -0.2671532929
-0.9848886132 -0.3875610828 -0.2343955785
-0.9953387976 -0.391472429 -0.199649021
-0.9901043177 -0.3890146911 -0.1618047804
-1.005810142 -0.394780606 -0.1275318712
-0.9888936877 -0.3879414797 -0.08922210336
-1.017286301 -0.3986704946 -0.05505855754
-1.003673911 -0.3929314613 -0.01811380126
-1.012220979 -0.3985205889 0.01828832552
-0.9907773137 -0.389678359 0.05359315127
-0.9904767275 -0.3893608749 0.08939640969
-0.9835686088 -0.386248678 0.1246069968
-0.9627238512 -0.3776750565 0.1571117193
-1.003059268 -0.393296659 0.201175496
-0.987310648 -0.3867241144 0.2348454744
-0.9723770022 -0.3804832399 0.2681885958
-0.978240788 -0.381400317 -0.2697415054
-0.9934989214 -0.3869495094 -0.2361951619
-1.004017234 -0.3908447027 -0.201175496
-0.9914562106 -0.3855561614 -0.1618047804
-1.02383554 -0.3977367282 -0.1297255158
-0.9939564466 -0.3859294951 -0.08957072347
-1.01867187 -0.3951167762 -0.05505855754
-1.01063323 -0.391593039 -0.0182185173
-1.000563264 -0.3899023533 0.01804399118
-1.014465809 -0.3949121237 0.05484921113
-1.002970576 -0.3902356625 0.09044227749
-0.9886113405 -0.3842515647 0.1250944883
-0.9787677526 -0.3800320923 0.1596146822
-0.986123383 -0.3826900721 0.1973593086
-0.9941054583 -0.3853885531 0.2361951619
-0.9755006433 -0.3777843416 0.2687062025
-0.9957870245 -0.3842423856 -0.2744002342
-0.9839335084 -0.3792739809 -0.233495757
-1.020031452 -0.3929840624 -0.2042284459
-1.002013803 -0.3856408596 -0.1633691192
-1.023364902 -0.3934478164 -0.1294817924
-1.006456256 -0.3867454529 -0.09061658382
-1.012586474 -0.3886954784 -0.05463986844
-1.017595291 -0.3902110159 -0.01832322963
-1.014978647 -0.3914440274 0.01828832552
-1.008383274 -0.3884963989 0.05443052202
-1.019201279 -0.3924597204 0.09183677286
-0.9843883514 -0.3786601722 0.1243632734
-0.9874641299 -0.3794474602 0.1608661562
-0.9947841167 -0.3820613027 0.1988857836
-0.9972642064 -0.3826141655 0.2366450876
-0.9858329296 -0.377833724 0.271294415
-1.007816434 -0.3852508664 -0.2775060833
-0.9960433245 -0.3803520799 -0.2361951619
-1.021329045 -0.3895993233 -0.2042284459
-1.017986417 -0.3881207407 -0.1658720523
-1.028305888 -0.39164415 -0.1299692541
-1.022630692 -0.3890736997 -0.09201107919
-1.025071621 -0.3895928562 -0.05526790023
-1.018816352 -0.3870119452 -0.01832322963
-1.031147361 -0.3939632177 0.01856756583
-1.005866885 -0.3839021921 0.05422117934
-1.031598449 -0.3935167193 0.09288264066
-0.9967028499 -0.3798068762 0.1258257031
-0.9997282028 -0.3805598617 0.1627433747
-1.014396191 -0.3857384026 0.2027019709
-0.9948180318 -0.3780945539 0.2357452661
-0.9996575117 -0.3795348704 0.2749178708
-1.007414579 -0.3808712363 -0.2769884467
-1.017484426 -0.3842724562 -0.2411441207
-1.019076347 -0.3844670653 -0.2034651935
-1.030492306 -0.3885687888 -0.1677492857
-1.027876973 -0.3871726096 -0.1297255158
-1.020320296 -0.3839198351 -0.09166246653
-1.04144907 -0.3914551437 -0.05610527471
-1.020227909 -0.3832751811 -0.01832322963
-1.040066719 -0.3930085599 0.01870718412
-1.018478632 -0.3844448626 0.05484921113
-1.033033848 -0.3897328377 0.09288264066
-1.011091232 -0.3810516596 0.1275318712
-0.9752343893 -0.3671495318 0.1583632082
-1.026828766 -0.3861640394 0.2049916685
-1.003493667 -0.3771886528 0.2375448793
-0.9974247217 -0.3745099604 0.2738825977
-1.003375173 -0.3751466572 -0.2754355073
-1.022536993 -0.3819044828 -0.2420439124
-1.029608607 -0.3843406141 -0.2053732723
-1.028207779 -0.3834085763 -0.1671235412
-1.049751401 -0.391024977 -0.1324066371
-1.025388598 -0.3817459643 -0.09201107919
-1.054041147 -0.3919945061 -0.0567333065
-1.029123783 -0.3823190033 -0.01846284978
-1.041500211 -0.3891938329 0.01870718412
-1.023623228 -0.382106334 0.05505855754
-1.032588601 -0.3852476776 0.09270832688
-1.019921541 -0.3801162243 0.1285068244
-0.9839785099 -0.3663292229 0.1596146822
-1.028170466 -0.3825775981 0.2049916685
-1.014002562 -0.3769026399 0.2397943884
-0.9951686263 -0.3695070744 0.2728473246
-1.022797227 -0.378344208 -0.2806119025
-1.031175733 -0.3810343742 -0.2438435256
-1.041993976 -0.38482517 -0.2076629847
-1.029539824 -0.3798173368 -0.1671235412
-1.05483532 -0.388731122 -0.1328941286
-1.036062837 -0.3816076815 -0.09288264066
-1.055403113 -0.3883125782 -0.0567333065
-1.045467734 -0.3842430711 -0.01874208823
-1.037225485 -0.3834758699 0.01860246994
-1.032444954 -0.3812985718 0.05547723919
-1.035796165 -0.3823311031 0.09288264066
-1.019379735 -0.3758669794 0.128263101
-0.9982266426 -0.3676716685 0.1618047804
-1.025814891 -0.3776298165 0.2042284459
-1.026285887 -0.3773964643 0.2424938083
-1.010959506 -0.3713596761 0.2769884467
-1.033182502 -0.3780913651 -0.2832000852
-1.021517873 -0.3734181821 -0.2411441207
-1.050706863 -0.3838807344 -0.2091894597
-1.038281918 -0.3789302111 -0.1683750153
-1.063578248 -0.3879519701 -0.1338690817
-1.046748519 -0.3813992143 -0.09375419468
-1.049244761 -0.3818939626 -0.0563146174
-1.063649058 -0.386926502 -0.01905623265
-1.049826026 -0.3839740157 0.01881189831
-1.044958949 -0.3819870949 0.05610527471
-1.053968072 -0.384863466 0.09445144236
-1.022550344 -0.3729865849 0.1285068244
-1.017999411 -0.3711252809 0.164933458
-1.034505725 -0.3767338693 0.205754891
-1.038519144 -0.3779901564 0.245193243
-1.019447565 -0.3706457615 0.2790589631
-1.050778031 -0.3805840313 -0.287858814
-1.042907953 -0.3773214817 -0.2460930347
-1.055666804 -0.381729275 -0.2099526972
-1.058111787 -0.3821958005 -0.1715036929
-1.061124563 -0.3830747008 -0.1333816051
-1.051756144 -0.3792777359 -0.09410282224
-1.058021665 -0.3811199069 -0.0567333065
-1.068689346 -0.3847518563 -0.01912604086
-1.064255476 -0.3852553368 0.01905623265
-1.038707376 -0.3758017421 0.05568658933
-1.072102547 -0.3874611557 0.09602024406
-1.031250238 -0.3722898364 0.1294817924
-1.024798751 -0.3697586656 0.1658720523
-1.057912827 -0.3812893033 0.2103343159
-1.03426671 -0.3725628853 0.2438435256
-1.037030935 -0.3731497228 0.2837177217
-1.052034378 -0.3770973682 -0.287858814
-1.051492214 -0.3764885962 -0.247892648
-1.053229928 -0.3769034445 -0.2091894597
-1.07053411 -0.3826743662 -0.1733809263
-1.069933176 -0.3820387125 -0.1343565583
-1.060579896 -0.3782813549 -0.09480006248
-1.066804886 -0.380292058 -0.0571519956
-1.056839108 -0.3763234913 -0.01888170838
-1.073057413 -0.3844216764 0.01919585094
-1.047534823 -0.3748654127 0.05610527471
-1.071505547 -0.3832328022 0.09584593773
-1.03808713 -0.3708715439 0.1302129924
-1.026083231 -0.3661791682 0.1658720523
-1.070266247 -0.3817362487 0.2126240134
-1.044739366 -0.3722204566 0.2460930347
-1.049247384 -0.3734138906 0.2868235707
-1.051588655 -0.3725937605 -0.2873412073
-1.065658808 -0.3773694336 -0.2510419488
-1.062007666 -0.3756596744 -0.2107159346
-1.068204284 -0.3774321377 -0.1727551818
-1.078747511 -0.3809453249 -0.1353315115
-1.063772798 -0.3752399981 -0.09497438371
-1.083261609 -0.3816891313 -0.05798937008
-1.073235273 -0.3779461086 -0.01916094497
-1.081932187 -0.3833449483 0.01933546923
-1.056368113 -0.3738722503 0.05652396381
-1.072903037 -0.3793026805 0.09584593773
-1.052477241 -0.3718752563 0.1319191754
-1.032943606 -0.3645675778 0.1668106765
-1.064252019 -0.3751998544 0.2110975385
-1.057125092 -0.3722728193 0.2487924397
-1.046899796 -0.368466258 0.2857882679
-1.054705977 -0.369559288 -0.287858814
-1.063355923 -0.3721737564 -0.2501421571
-1.085550427 -0.3797288537 -0.2152953595
-1.073244929 -0.3750042915 -0.1733809263
-1.102627039 -0.3848389089 -0.138256371
-1.074482322 -0.3748054802 -0.09584593773
-1.084587216 -0.3779057264 -0.05798937008
-1.089722157 -0.3792681098 -0.01944018528
-1.075780869 -0.3767332137 0.01919585094
-1.061501861 -0.3713166118 0.0567333065
-1.077981949 -0.3768705428 0.09619455785
-1.055707335 -0.3686694205 0.1321629137
-1.047328949 -0.3653337061 0.1690007597
-1.069262981 -0.3727752566 0.2118607908
-1.069460392 -0.3724254668 0.2514918447
-1.059190989 -0.3684350848 0.2888941169
-1.074243426 -0.3722002208 -0.2930352092
-1.070173502 -0.3703714311 -0.2514918447
-1.090579987 -0.3772209883 -0.2160585821
-1.078281641 -0.3725454807 -0.1740066558
-1.100210667 -0.3796924353 -0.1377688944
-1.083318233 -0.3736508787 -0.09654318541
-1.08967638 -0.3754186332 -0.05819871277
-1.096711874 -0.3774143159 -0.01954489946
-1.084647536 -0.3755929768 0.01933546923
-1.074116707 -0.3715265095 0.05736133456
-1.090589166 -0.3770111203 0.0972404331
-1.055111408 -0.3643343747 0.1319191754
-1.057934999 -0.3648958504 0.1705650985
-1.077981949 -0.3716000617 0.2133872658
-1.078124166 -0.3712278605 0.2532914579
-1.067777753 -0.3672487438 0.2909646332
-1.081018925 -0.37032637 -0.2945881188
-1.073303461 -0.367264688 -0.2519417405
-1.095605373 -0.3746824265 -0.2168218344
-1.090791225 -0.372610867 -0.1758838594
-1.097772002 -0.3745673299 -0.1372814327
-1.095930338 -0.3737257123 -0.09758905321
-1.092870951 -0.3722563386 -0.05830338225
-1.098022699 -0.373583734 -0.01954489946
-1.093519568 -0.3743955195 0.01947508939
-1.071627378 -0.3664822876 0.0571519956
-1.10321033 -0.3770681918 0.0982863009
-1.060133934 -0.3619318008 0.1324066371
-1.057332397 -0.360563308 0.1702522188
-1.090422153 -0.3716349304 0.2156769633
-1.075723767 -0.3662064075 0.2523916364
-1.080027461 -0.3672505915 0.2940704823
-1.096943021 -0.3715081513 -0.2987292409
-1.098576665 -0.3716340065 -0.2577904761
-1.093186855 -0.3695981205 -0.2160585821
-1.107057571 -0.3738572001 -0.1783868223
-1.110358477 -0.3745402098 -0.1387438476
-1.112332225 -0.3749897182 -0.09898354113
-1.114984751 -0.3754506111 -0.05945478007
-1.105006099 -0.3716608286 -0.01964961179
-1.113761187 -0.3769873679 0.01982413605
-1.088036537 -0.3678568602 0.05798937008
-1.108294964 -0.3744905293 0.09863491356
-1.076437712 -0.363307476 0.1343565583
-1.054840922 -0.3556082845 0.1696264893
-1.099154711 -0.370333761 0.2172034383
-1.08068943 -0.3636923134 0.2532914579
-1.084964991 -0.3647096753 0.2951057553
-1.08724153 -0.363997221 -0.2956233919
-1.10725975 -0.3702690601 -0.2595900893
-1.109366417 -0.3707585633 -0.219111532
-1.10835588 -0.3699905276 -0.1783868223
-1.122958064 -0.3744294345 -0.1402062774
-1.106073499 -0.3685851097 -0.0982863009
-1.129553795 -0.3759716153 -0.06018747762
-1.117682099 -0.3715868294 -0.01985904388
-1.115070343 -0.3730973005 0.01982413605
-1.096891046 -0.3665891886 0.05840805918
-1.109595537 -0.3706195951 0.09863491356
-1.094646931 -0.3652018607 0.136550203
-1.071068287 -0.3569200635 0.1721294522
-1.10416615 -0.3677354157 0.2179666758
-1.096745253 -0.3648386896 0.2568906546
-1.080731511 -0.3590927124 0.2935528457
-1.090339899 -0.360806495 -0.2961410582
-1.112245917 -0.3676251173 -0.260489881
-1.118110657 -0.3693467975 -0.2206380069
-1.111516476 -0.3667385578 -0.1786996871
-1.131799698 -0.372992605 -0.1411812454
-1.111138105 -0.365968734 -0.09863491356
-1.123270273 -0.3695298135 -0.05976878852
-1.130370975 -0.3714285791 -0.02006847039
-1.108771801 -0.3666911423 0.01968451962
-1.11523211 -0.3683959246 0.05935010314
-1.122234225 -0.3704917133 0.09968078882
-1.09591496 -0.3613785803 0.136550203
-1.083564997 -0.3568871617 0.1740066558
-1.105443001 -0.3638788462 0.2179666758
-1.105417132 -0.3634424508 0.2586902678
-1.091155648 -0.3583317995 0.2961410582
-1.100773335 -0.3600007594 -0.2987292409
-1.109817743 -0.3625299335 -0.2595900893
-1.134323716 -0.3703158796 -0.2236909568
-1.122180343 -0.3659180999 -0.1802640259
-1.140579939 -0.3716976345 -0.1421561986
-1.127565384 -0.3670210242 -0.1000294089
-1.124553323 -0.3656068742 -0.05976878852
-1.146811008 -0.3726215661 -0.0203477107
-1.113846421 -0.3640613258 0.01975432783
-1.116447687 -0.3646956384 0.05935010314
-1.131096959 -0.3690443337 0.100378029
-1.102832079 -0.3593961596 0.1372814327
-1.088499069 -0.3545154333 0.1746324003
-1.114174366 -0.362447232 0.2194931507
-1.114029169 -0.3621853292 0.260489881
-1.112549305 -0.3612745702 0.3018350601
-1.122180581 -0.3628869355 -0.3044232428
-1.125849009 -0.3636394739 -0.263189286
-1.135545492 -0.3665522337 -0.2236909568
-1.130907655 -0.3646196425 -0.1815155149
-1.134248614 -0.3654779792 -0.1411812454
-1.151535273 -0.3706045151 -0.102121152
-1.133365273 -0.3643205166 -0.06018747762
-1.151848078 -0.3700397313 -0.02041751891
-1.134075403 -0.3665151298 0.02010337636
-1.117650867 -0.3609915674 0.05935010314
-1.147483826 -0.3701851368 0.1017725244
-1.115354419 -0.3593898714 0.1387438476
-1.089668751 -0.3509038389 0.1746324003
-1.13032186 -0.3635595441 0.2225461006
-1.115224123 -0.3584890366 0.260489881
-1.119259357 -0.3593548834 0.3033879697
-1.119697571 -0.3579872549 -0.3033879697
-1.141899705 -0.3646464646 -0.2667885125
-1.136754751 -0.3627845943 -0.2236909568
-1.147167206 -0.3656667769 -0.1840184629
-1.143083572 -0.363925606 -0.1421561986
-1.141429663 -0.3629600108 -0.1010752767
-1.149794817 -0.3653993607 -0.06102485582
-1.149320841 -0.3648068011 -0.0203477107
-1.154332757 -0.3688387275 0.02045242302
-1.134125948 -0.3619456291 0.06018747762
-1.148705125 -0.3663778603 0.1017725244
-1.108974218 -0.3532790244 0.1377688944
-1.094651818 -0.3482958972 0.1752581298
-1.142746925 -0.3633788824 0.2248357981
-1.120183468 -0.3557737768 0.2613897026
-1.126031041 -0.3571983576 0.3049408793
-1.117317677 -0.3527178466 -0.3023526967
-1.152457833 -0.3635898232 -0.2690380216
-1.149311662 -0.3621561825 -0.2259806544
-1.152268291 -0.3626457751 -0.1846441925
-1.163283229 -0.365889281 -0.1445935816
-1.138888121 -0.3577794433 -0.1007266566
-1.158749104 -0.3635741174 -0.0614435412
-1.162035823 -0.3643825948 -0.02055713907
-1.15179944 -0.3636031449 0.02038261481
-1.143001676 -0.3603871465 0.06060617045
-1.153841138 -0.3633621037 0.102121152
-1.129135847 -0.3553654253 0.1402062774
-1.103398681 -0.3468418419 0.1765096188
-1.151563406 -0.3615405858 0.2263622731
-1.141934037 -0.3580792248 0.2663386166
-1.119897246 -0.350954771 0.3028703332
-1.136984468 -0.3545667529 -0.307529062
-1.153782845 -0.3593634069 -0.2690380216
-1.158066988 -0.3604761064 -0.2275071293
-1.149754524 -0.3574484587 -0.1840184629
-1.179782867 -0.3663325012 -0.1465434879
-1.15535295 -0.3585257232 -0.102121152
-1.163826585 -0.3607096076 -0.06165288761
-1.174825191 -0.3636690378 -0.02076656744
-1.155033469 -0.3599740863 0.02041751891
-1.163384914 -0.3621314168 0.06165288761
-1.166517138 -0.362883091 0.1031670198
-1.132326365 -0.3518134952 0.1404500157
-1.123528838 -0.3486501276 0.1796382964
-1.141567469 -0.3540294468 0.2240725756
-1.146899939 -0.3552443683 0.2672384083
-1.130403876 -0.3497022092 0.3054585159
-1.149292827 -0.354008168 -0.3106349111
-1.156892776 -0.3559067249 -0.2694879174
-1.174330711 -0.3610470295 -0.2305600643
-1.162325382 -0.3569120169 -0.1858956665
-1.184850097 -0.363376081 -0.1470309645
-1.171836734 -0.3591613173 -0.1035156399
-1.161259055 -0.3554759622 -0.0614435412
-1.187561393 -0.363073796 -0.02097599767
-1.163927674 -0.3582933247 0.02055713907
-1.160823822 -0.3568943441 0.0614435412
-1.175394773 -0.3611496389 0.1038642675
-1.139240861 -0.3496059179 0.1411812454
-1.132293701 -0.3470416069 0.1808897704
-1.157813787 -0.3546420336 0.2271255255
-1.151859879 -0.3523789346 0.2681382298
-1.150093079 -0.3513994813 0.3106349111
-1.169003844 -0.3556162715 -0.3158113062
-1.169315577 -0.355265528 -0.2721873522
-1.179341078 -0.3580864072 -0.2313233167
-1.174906373 -0.3562923372 -0.1877728999
-1.170912504 -0.3546346426 -0.145081073
-1.188338995 -0.3596859276 -0.1049101278
-1.185434461 -0.3583554626 -0.0626996085
-1.18875885 -0.3591336906 -0.02097599767
-1.180477381 -0.3588814735 0.02083637752
-1.158178806 -0.3518819511 0.06123419479
-1.188087583 -0.3605156541 0.1049101278
-1.151852846 -0.3490815163 0.1426436603
-1.139109969 -0.3450026214 0.1818283945
-1.177836299 -0.35628286 0.230941698
-1.15121758 -0.3477921784 0.267688334
-1.16234839 -0.35093382 0.3137407303
-1.162837386 -0.3493103683 -0.3137407303
-1.174220085 -0.352506578 -0.2730871439
-1.173061609 -0.3517121673 -0.2297968417
-1.191219449 -0.3569300473 -0.190275833
-1.191099763 -0.356440872 -0.147518456
-1.189587235 -0.3555358946 -0.1049101278
-1.196184874 -0.3572803438 -0.06322296709
-1.193837643 -0.3561254144 -0.02104580589
-1.191236615 -0.3578413725 0.02101090178
-1.174704313 -0.3524281681 0.06207157299
-1.196972966 -0.3586540222 0.1056073755
-1.172020793 -0.350954324 0.145081073
-1.138414621 -0.3404584825 0.1815155149
-1.197821617 -0.3579969406 0.2347578704
-1.15983367 -0.3462024331 0.2694879174
-1.161715031 -0.3463224173 0.3132230937
-1.169545412 -0.3471012414 -0.3152936697
-1.194127321 -0.3539435565 -0.2775861621
-1.193045616 -0.3533961475 -0.2336130142
-1.19814074 -0.3544508517 -0.1912144572
-1.203758955 -0.3556560278 -0.1489808857
-1.183116436 -0.3493323028 -0.1042128876
-1.207003355 -0.3559272885 -0.06374633312
-1.202684641 -0.3544256091 -0.02118542604
-1.194395542 -0.354249835 0.02104580589
-1.187355995 -0.3519364893 0.0626996085
-1.198155761 -0.3546827137 0.1056073755
-1.190371513 -0.3519262075 0.1472747028
-1.149009466 -0.3394800425 0.1830798537
-1.199064016 -0.3538135588 0.2347578704
-1.179727912 -0.3476603627 0.2739869654
-1.162857175 -0.3424680829 0.3132230937
-1.180019379 -0.3457328081 -0.3178818524
-1.197164774 -0.3505293429 -0.2780360878
-1.20557785 -0.3525358438 -0.2359027416
-1.191725254 -0.3482593 -0.1899629682
-1.216365337 -0.354999125 -0.1504433006
-1.199630976 -0.3496605158 -0.1056073755
-1.210094571 -0.3524812758 -0.06385099888
-1.213514924 -0.3530180752 -0.02135994844
-1.195563674 -0.3502870798 0.02104580589
-1.200078726 -0.351154834 0.0633276403
-1.207036138 -0.3527336121 0.1063046232
-1.174382567 -0.3429684937 0.145081073
-1.161565661 -0.3387857378 0.1849570721
-1.196461082 -0.3487365544 0.2339946181
-1.192100644 -0.3470145166 0.2766863704
-1.171465635 -0.3405639827 0.3152936697
-1.197860718 -0.3466509581 -0.3225405812
-1.192764759 -0.3447250724 -0.2766863704
-1.218057394 -0.3518046439 -0.2381924391
-1.208117843 -0.3484767675 -0.1924659312
-1.221412301 -0.3518500328 -0.1509307921
-1.216162086 -0.3498776257 -0.1070018709
-1.211317539 -0.3482553363 -0.06385099888
-1.224349976 -0.3515392542 -0.0215344727
-1.202542186 -0.3477783203 0.02115052193
-1.20513463 -0.3480722606 0.06353698671
-1.223513246 -0.353149116 0.1076991186
-1.187017202 -0.3421659768 0.1465434879
-1.174131036 -0.3380076289 0.1868342906
-1.216538429 -0.3499858975 0.2378108203
-1.197050691 -0.3439271152 0.2775861621
-1.187502623 -0.3407355249 0.3194347322
-1.204696298 -0.3438489139 -0.3240934908
-1.199582815 -0.3421630263 -0.2780360878
-1.223114729 -0.348413527 -0.2389556617
-1.216986895 -0.3462087512 -0.1937174052
-1.226451755 -0.348669976 -0.1514182687
-1.228875637 -0.34889552 -0.1080477387
-1.214507341 -0.3443577886 -0.06395567209
-1.227493525 -0.3478087485 -0.02156937681
-1.215286136 -0.346871525 0.02135994844
-1.204421639 -0.3433158994 0.0634323135
-1.240129352 -0.3530260026 0.1090936065
-1.19584167 -0.340193361 0.147518456
-1.188604951 -0.3376859426 0.189024359
-1.231033802 -0.3492757976 0.2404821366
-1.198303103 -0.3395376801 0.2775861621
-1.214707613 -0.3439565599 0.3266816735
-1.21332705 -0.3417368233 -0.326164037
-1.21396029 -0.3414575756 -0.2811853886
-1.224323511 -0.3441416323 -0.2389556617
-1.239108443 -0.34783113 -0.1971589625
-1.239189744 -0.3473874032 -0.1528806984
-1.241597176 -0.3478285968 -0.1090936065
-1.231089234 -0.3444214165 -0.06479305029
-1.232612133 -0.3443832994 -0.02163918875
-1.231948614 -0.3467492461 0.02163918875
-1.221053839 -0.3432225585 0.06426969171
-1.245190501 -0.3497729003 0.109442234
-1.214282274 -0.3406332433 0.1497121006
