# .PCD v0.7 - Point Cloud Data file format
VERSION 0.7
FIELDS x y z
SIZE 4 4 4
TYPE F F F
COUNT 1 1 1
WIDTH 1300
HEIGHT 1
VIEWPOINT 0 0 0 1 0 0 0
POINTS 1300
DATA ascii
3.202892303 4.80798769 0.1001401171
3.21955657 4.829349041 0.3019796014
3.213503599 4.816626072 0.5028632879
3.195024252 4.787117958 0.7015365362
3.188959837 4.774421215 0.9026784897
3.192063808 4.775458813 1.108281612
3.183481455 4.75902319 1.311911106
3.165720224 4.730684757 1.51362586
1.647799969 2.454960108 -0.7806503177
1.635489225 2.434784651 -0.6672013998
1.671825409 2.487938404 -0.574397862
1.687138438 2.508836985 -0.4721707702
3.057109118 4.542604446 -0.6671693921
3.087888002 4.586615086 -0.4800284207
3.087997675 4.583319664 -0.2874302268
3.076858997 4.56507206 -0.09539305419
3.231641293 4.81281662 0.1004891619
3.219688177 4.793212891 0.3004095256
3.235856295 4.813646317 0.503734827
3.204793453 4.763844967 0.6998303533
3.211122036 4.771454334 0.9042428732
3.213101864 4.770800114 1.109807968
3.195716619 4.741418839 1.310111523
3.195175171 4.738826275 1.519837618
1.643372059 2.42999053 -0.7744386792
1.641371012 2.426119089 -0.6663016081
1.683801413 2.486964941 -0.575542748
1.709850311 2.52448988 -0.4762380719
3.045424461 4.493005753 -0.6613196731
3.062497854 4.514800072 -0.4735789299
3.057200193 4.505292892 -0.2831386626
3.235450268 4.764399052 -0.09982597083
3.252063751 4.808700562 0.1006287783
3.245357275 4.795176506 0.3012469113
3.254872561 4.805621147 0.5040834546
3.227253199 4.763052464 0.7012928128
3.21777916 4.745501995 0.9014270306
3.24102664 4.777991295 1.114005804
3.217990637 4.740468502 1.312811017
3.211698771 4.72764349 1.519837618
1.631845117 2.395787954 -0.7651211619
1.645439982 2.413933516 -0.664501965
1.696462989 2.487855911 -0.5770692229
1.718652725 2.518505573 -0.4762380719
3.196588278 4.679002285 -0.4920559227
3.208172798 4.692446709 -0.2956992984
3.288197041 4.805887699 -0.1009429246
3.268828392 4.797319889 0.1006287783
3.269951344 4.795370102 0.3019796014
3.270789862 4.794802189 0.5040834546
3.257291317 4.771430492 0.7042176127
3.236554146 4.737502098 0.9020527601
3.265440702 4.777994156 1.116677046
3.243320704 4.742074013 1.316410184
3.230360508 4.719593525 1.520872831
1.63691926 2.385298252 -0.7635682225
1.650545001 2.403357267 -0.6631523371
1.718478203 2.501336575 -0.5816486478
1.729669929 2.515747786 -0.4768638015
3.292760372 4.785626888 -0.708117485
3.286325693 4.774495602 -0.5033861995
3.304975986 4.797999382 -0.3031309843
3.307221413 4.797673702 -0.1010127291
3.285555363 4.785879612 0.1006287783
3.293457508 4.793803215 0.3026076555
3.296536207 4.796490669 0.5054779649
3.273925781 4.760032177 0.7042176127
3.259788275 4.735940933 0.9039299488
3.279871941 4.763333797 1.115913868
3.266489506 4.740350723 1.319109559
3.253397226 4.717830658 1.523978591
1.650729537 2.387514591 -0.766156435
1.654489517 2.391170502 -0.661352694
1.731668949 2.501779318 -0.5831750631
1.745190859 2.519437551 -0.47874102
3.311706305 4.777368069 -0.7086049914
3.314326525 4.779366493 -0.5051293373
3.313732386 4.774949074 -0.3023982942
3.333075047 4.799239159 -0.1012919694
3.306790352 4.78096056 0.1007683948
3.312445641 4.785561085 0.302816987
3.317795277 4.791507244 0.50617522
3.28826189 4.745311737 0.7037302256
3.28755784 4.740765095 0.9070586562
3.303194284 4.76153326 1.11820364
3.287458658 4.735325813 1.320909262
3.274253368 4.71279192 1.526049137
1.655739188 2.376983404 -0.7646034956
1.670627475 2.396570683 -0.664501965
1.742635727 2.498941422 -0.5839383602
1.767541051 2.532768726 -0.4824954569
3.32949996 4.767405033 -0.7088487148
3.337837458 4.77756691 -0.50617522
3.334958792 4.769899368 -0.302816987
3.354389429 4.794130802 -0.1014315933
3.337178946 4.789075375 0.101187259
3.329126835 4.773971558 0.302816987
3.341341257 4.789700508 0.5072211027
3.313893318 4.746828079 0.7056800723
3.307481527 4.734117508 0.9079972506
3.320916414 4.751585007 1.118585229
3.303969145 4.72382021 1.320909262
3.299548149 4.71399498 1.530190349
1.677343726 2.390164852 -0.7708151937
1.714821935 2.441756964 -0.6788988709
1.756991625 2.500874996 -0.5858464241
1.784323692 2.537895441 -0.4846855104
3.35183382 4.763870716 -0.7100673914
3.356786489 4.769145966 -0.506523788
3.365391731 4.777822495 -0.3040730357
3.365344286 4.77421999 -0.1012570709
3.360771179 4.78721714 0.1013966873
3.350364923 4.768857956 0.3032356799
3.360332489 4.781266689 0.5075696707
3.337296009 4.744972706 0.7071425319
3.326259851 4.725775242 0.9086230397
3.352176905 4.760831356 1.123546243
3.32492733 4.718631268 1.322708845
3.317097425 4.704026699 1.530707955
1.742553115 2.464744806 -0.7972147465
1.769482493 2.5009799 -0.6973448992
1.770246863 2.501137018 -0.5873728991
1.801164627 2.542934656 -0.4868755937
3.381066561 4.769958496 -0.7127485275
3.371109962 4.754148006 -0.50617522
3.388980389 4.775821209 -0.3047010899
3.391252756 4.775485992 -0.1015363038
3.382076502 4.781989098 0.1015363038
3.378528357 4.773437023 0.304282397
3.376998186 4.769510269 0.5075696707
3.365316868 4.749490738 0.709579885
3.349592447 4.723803043 0.9105002284
3.367640495 4.747498989 1.123164654
3.348147631 4.716529846 1.32540834
3.335733891 4.695569515 1.531743288
1.755629539 2.464940786 -0.7992852926
1.778201342 2.494788408 -0.6973448992
1.799483538 2.523715258 -0.5942420363
1.810029626 2.536632299 -0.4868755937
3.400004864 4.761357307 -0.7132359743
3.394632101 4.752079964 -0.5072211027
3.400985956 4.757462502 -0.304282397
3.414881706 4.773377895 -0.1017457321
3.394108057 4.763638973 0.1013966873
3.402128696 4.771371365 0.3049104214
3.400569677 4.767424107 0.5086155534
3.381874323 4.737715244 0.709579885
3.37524581 4.72494173 0.9130031466
3.385332346 4.737312794 1.123546243
3.373660803 4.717494011 1.329007506
3.358848572 4.693323135 1.534849048
1.794631958 2.501176834 -0.8132615089
1.80735755 2.517059565 -0.7054431438
1.838061929 2.558875561 -0.6041641235
1.823484778 2.536715269 -0.4881270826
3.418921709 4.75268364 -0.7137234807
3.42051053 4.753137589 -0.5086155534
3.424573898 4.75528717 -0.3049104214
3.442047119 4.77602911 -0.1020598784
3.41304636 4.755011559 0.1014664918
3.421094179 4.762709618 0.3051197529
3.428815603 4.771705627 0.5103586912
3.398392439 4.7258811 0.709579885
3.400950432 4.725956917 0.9155060649
3.407584429 4.733432293 1.125454307
3.392385006 4.708851814 1.329907298
3.385378122 4.695674419 1.539507747
1.816931486 2.513685465 -0.8194731474
1.830981016 2.531261444 -0.7112918496
1.85273695 2.56039691 -0.6060721874
1.846232057 2.549533129 -0.4918815196
3.43932271 4.747749329 -0.7146983743
3.446435452 4.754074097 -0.510010004
3.445844889 4.749769688 -0.3053291142
3.454341412 4.7597332 -0.1019551679
3.443686008 4.762513638 0.101885356
3.434527636 4.748103142 0.3049104214
3.454798937 4.772618771 0.5117532015
3.421854496 4.723635674 0.7110423446
3.418920755 4.717852592 0.9161318541
3.43215394 4.732635498 1.128125668
3.410268784 4.700731754 1.33080709
3.405471802 4.690674305 1.541578293
1.83321476 2.518580198 -0.823096633
1.848544598 2.53777647 -0.7148910761
1.855435967 2.546305895 -0.6041641235
1.86864388 2.562549353 -0.4956358969
3.457387209 4.739526749 -0.7151858807
3.464532375 4.745836735 -0.5103586912
3.468646765 4.747992039 -0.3059571683
3.471287251 4.749866009 -0.1019900665
3.473584175 4.770467281 0.1023042127
3.457310438 4.7463727 0.3055384457
3.472954988 4.764354706 0.5121017694
3.446857929 4.725092888 0.7129922509
3.43338418 4.704892635 0.9158189893
3.460564137 4.738668919 1.132323503
3.432736874 4.69883728 1.333506465
3.425567865 4.685595036 1.543648958
1.835846901 2.504695892 -0.8205084205
1.866168737 2.544204235 -0.718490243
1.875484824 2.555967093 -0.6079802513
1.879467964 2.559524298 -0.4962616861
3.484838009 4.744032383 -0.7176232934
3.477889776 4.731112003 -0.510010004
3.496207237 4.752552509 -0.3070038855
3.496500254 4.751213551 -0.1022692993
3.489385843 4.758921623 0.1023042127
3.480115414 4.74454689 0.3061664701
3.484018326 4.746387959 0.5114045143
3.478961706 4.736032963 0.7164045572
3.453644991 4.699849129 0.9170704484
3.470444679 4.719257832 1.13041532
3.455227852 4.696847439 1.336205959
3.441088438 4.674208164 1.543648958
1.872280717 2.534866571 -0.7175904512
1.894449949 2.563944817 -0.6114147902
1.88912034 2.554865599 -0.4965745509
3.505271673 4.738834858 -0.7185982466
3.500671387 4.729162216 -0.5110558867
3.515515566 4.745746136 -0.3073178828
3.522950888 4.754053116 -0.1025834456
3.495644093 4.734454632 0.1020249724
3.502951145 4.742618561 0.3067945242
3.509214163 4.747624874 0.5127990246
3.492286444 4.721279621 0.7159171104
3.480962515 4.704248905 0.9201991558
3.49191618 4.715613365 1.132323503
3.477745295 4.694757938 1.338905334
3.458869696 4.665875912 1.544684172
1.874039412 2.51972127 -0.8298259377
1.883886337 2.531113148 -0.718490243
1.914386272 2.571157217 -0.6148493886
1.907914639 2.560596228 -0.4990774691
3.528189421 4.731705189 -0.7195731997
3.528335333 4.728461266 -0.512450397
3.531690121 4.731229305 -0.3072131872
3.548358679 4.750103951 -0.1027928814
3.52252388 4.734445095 0.1023042127
3.525905371 4.735542297 0.3072131872
3.536111593 4.747515202 0.5141935349
3.511938572 4.711631775 0.7164045572
3.503722906 4.697182655 0.9214506149
3.512697697 4.707504272 1.13346839
3.50274086 4.690739632 1.341604829
3.488325119 4.668034554 1.549860477
1.90180099 2.537568569 -0.838108182
1.902061582 2.536995649 -0.7220894694
1.930868387 2.573544264 -0.617139101
1.933890939 2.575701952 -0.503457725
3.544685841 4.719359875 -0.7195731997
3.561580181 4.73841238 -0.51489079
3.558611155 4.731023312 -0.3080506027
3.569728613 4.744080067 -0.1029324979
3.554620743 4.742921829 0.1027579755
3.542415142 4.723204613 0.3072131872
3.56544733 4.750458717 0.5159366727
3.535516739 4.708868027 0.7178670168
3.524843216 4.691241264 0.9227020741
3.541729927 4.710286617 1.137284517
3.51756525 4.67475605 1.340704918
3.51621747 4.671263218 1.555036902
1.911809444 2.53245759 -0.8386257291
1.924269438 2.547110796 -0.7270384431
3.52363348 4.662464142 -1.127744079
1.953594804 2.583114862 -0.5062735081
3.605085373 4.763319969 -0.7283477783
3.604558229 4.760896683 -0.5187256336
3.599227905 4.75041008 -0.310144037
3.624920845 4.782586575 -0.1040494516
3.578005075 4.737841129 0.1029324979
3.578144789 4.736307144 0.3088879585
3.595226049 4.755465031 0.5178540349
3.570716143 4.719625473 0.7215231061
3.563848972 4.708835125 0.9286466241
3.641121149 4.807449818 1.163997769
3.608021975 4.760290623 1.369048715
3.595527172 4.742090702 1.582989454
3.558881044 4.680166721 -1.563836694
3.6576159 4.808272839 -1.384795427
3.541077375 4.651697636 -1.128125668
3.663969755 4.811395645 -0.9511731863
3.68703723 4.838178158 -0.7417533994
3.677938938 4.822746277 -0.5269182324
3.693702936 4.841664314 -0.3169476986
3.703478575 4.850965977 -0.1058295965
3.674793005 4.832598686 0.1052711233
3.675689936 4.830278873 0.3159009516
3.689054489 4.844336033 0.5290099978
3.677772284 4.827767849 0.740047276
3.665295124 4.807902336 0.9508603215
3.679664612 4.825008869 1.171248555
3.660439253 4.796321392 1.382995725
3.643718481 4.770963192 1.596965671
3.554417372 4.642262936 -1.555036902
3.673193693 4.793928623 -1.384345412
3.562456131 4.647718906 -1.130033731
3.678339005 4.795441151 -0.9505474567
3.707528591 4.830003262 -0.7424846292
3.699607134 4.816197395 -0.5276154876
3.715448141 4.835076809 -0.3173663914
3.724047422 4.842763424 -0.105934307
3.697718143 4.827680111 0.1054456457
3.707110167 4.836440086 0.3171570301
3.712373734 4.841561317 0.5300558209
3.703062534 4.82592392 0.7417533994
3.691676617 4.807614803 0.9533632398
3.692898035 4.807463646 1.170103669
3.68665719 4.795877934 1.386595011
3.661529064 4.759745121 1.597483277
3.553706646 4.60626173 -1.547272444
3.629184484 4.702397346 -1.361400485
3.585466385 4.642400265 -1.131941915
3.704347849 4.792867184 -0.9527375698
3.726795912 4.82017231 -0.7429721355
3.728587866 4.819013119 -0.5293586254
3.735590935 4.82458353 -0.3175757229
3.755622387 4.848706245 -0.1063531712
3.726763248 4.830574989 0.1057946905
3.727628469 4.828215599 0.3174710572
3.73862195 4.838957787 0.5312760472
3.721098423 4.814539909 0.7419971228
3.713271618 4.80094862 0.9546146989
3.72010541 4.806316853 1.1731565
3.708984852 4.788494587 1.388394594
3.689952612 4.762206554 1.602659583
3.566209078 4.589251518 -1.545719504
3.617683649 4.652144909 -1.350602865
3.696881771 4.75227356 -1.162089705
3.73561573 4.798612595 -0.9564919472
3.749315977 4.812744617 -0.7439470887
3.756407738 4.820113182 -0.5309274197
3.769603968 4.833565235 -0.3190411329
3.770908833 4.831754684 -0.1062833592
3.751805544 4.826356888 0.1060041189
3.746529341 4.816094398 0.3175757229
3.767725945 4.841602802 0.5330191851
3.743599892 4.807132721 0.7429721355
3.735698938 4.793540001 0.9558662176
3.75134635 4.811881542 1.177736044
3.728073359 4.778592587 1.389294386
3.721647501 4.766923904 1.608871341
3.578633785 4.572212219 -1.544166565
3.615877151 4.616475105 -1.343854189
3.717079639 4.74397707 -1.163234591
3.75965786 4.794869423 -0.9583691359
3.770995617 4.805873871 -0.7449220419
3.78182292 4.817940712 -0.5321475863
3.788921595 4.823517323 -0.3192504644
3.793930054 4.826424122 -0.1064578816
3.778493643 4.825826168 0.1062833592
3.77686739 4.820281982 0.3187271357
3.791978598 4.837828636 0.5340650082
3.77015686 4.806531906 0.7449220419
3.751190424 4.778915405 0.9555533528
3.777819157 4.811110973 1.180788994
3.749548674 4.771678448 1.391093969
3.740653753 4.756939888 1.609906554
3.585002422 4.547555923 -1.540025353
3.618691921 4.586996555 -1.338905334
3.743345499 4.743302822 -1.166287422
3.78371644 4.791018486 -0.9602463841
3.802520275 4.811369419 -0.7478469014
3.798616648 4.804710865 -0.5321475863
3.818129539 4.825924397 -0.3202971816
3.819442272 4.82412672 -0.106702216
3.805221319 4.825169563 0.1065625995
3.798618317 4.813340664 0.3191457987
3.806372643 4.821436405 0.5337164402
3.802908659 4.813592434 0.7480906248
3.772748709 4.77199173 0.9568048716
3.799460411 4.804054737 1.182315469
3.775856256 4.770786285 1.394693136
3.754838228 4.740824223 1.608871341
3.599652529 4.533502102 -1.539507747
3.627408504 4.565181255 -1.336205959
3.772094965 4.745576859 -1.170103669
3.797959566 4.774689198 -0.959620595
3.829180956 4.810492516 -0.7497968078
3.827777624 4.80700779 -0.5338907242
3.839929581 4.818815708 -0.3207158744
3.852467299 4.83108902 -0.1071559787
3.820798159 4.810290813 0.1065276861
3.830309391 4.818814754 0.3204018772
3.825660706 4.811237812 0.5340650082
3.811034918 4.789416313 0.7463844419
3.804150343 4.777336121 0.9605592489
3.816205502 4.790763855 1.182315469
3.807064295 4.77586174 1.400092006
3.783410072 4.742791176 1.614047647
3.616663218 4.522417068 -1.540025353
3.639668226 4.547928333 -1.334856153
3.794773579 4.740043163 -1.172011733
3.822012663 4.770653725 -0.9614978433
3.850076914 4.803965092 -0.7507717013
3.852011919 4.80294323 -0.5349366069
3.856728077 4.805381775 -0.3207158744
3.878480673 4.830762386 -0.1074352115
3.845060349 4.806293964 0.1067371219
3.851261139 4.812323093 0.32082057
3.857376099 4.816516876 0.5361567736
3.831455708 4.780730247 0.7471156716
3.827384233 4.773942471 0.9624364376
3.845191956 4.792725563 1.186131597
3.825321436 4.766249657 1.400991797
3.808794022 4.742269516 1.618188739
3.635276079 4.514912128 -1.541578293
3.675513983 4.561630726 -1.342504501
3.815400362 4.73354578 -1.173538208
3.850212574 4.773328781 -0.9646265507
3.870974064 4.79734993 -0.7517467141
3.877930164 4.802544594 -0.5363310575
3.885194063 4.808101177 -0.3217625916
3.896992445 4.820985317 -0.1075050309
3.87603116 4.812203884 0.1071559787
3.869703054 4.802636147 0.3210299015
3.885834932 4.819208145 0.5378998518
3.853522062 4.77572155 0.7483343482
3.85063982 4.770446301 0.9643136859
3.873402357 4.795219898 1.189947844
3.841104984 4.753539085 1.400991797
3.839076519 4.747637749 1.624400496
3.638062239 4.487826347 -1.536401868
3.697988272 4.558496475 -1.345203996
3.834373951 4.723248005 -1.174301386
3.877229214 4.774334908 -0.9674423933
3.892705441 4.789969444 -0.7527216673
3.892157793 4.785886765 -0.5359824896
3.917081356 4.813099861 -0.3230186701
3.915060759 4.80890274 -0.1075399294
3.90204072 4.811751842 0.1074352115
3.888962507 4.792200089 0.321239233
3.90179348 4.806296349 0.5378998518
3.883105278 4.779865265 0.7510154843
3.864775419 4.753910542 0.9636878967
3.90250802 4.796897888 1.193763971
3.869974375 4.755217552 1.405490875
3.862946749 4.74319458 1.627506256
3.642265081 4.459500313 -1.531225562
3.719602823 4.550948143 -1.347003579
3.859118938 4.718279839 -1.176591158
3.89720273 4.763150215 -0.9680681229
3.917779684 4.784885883 -0.7541841269
3.919773817 4.783918858 -0.5373769403
3.941028833 4.80643177 -0.3235420287
3.938999891 4.802252769 -0.1077144593
3.922184467 4.800512314 0.1075050309
3.921670198 4.796469688 0.3224953115
3.924429893 4.798130989 0.5385971069
3.913170338 4.780963421 0.7534528971
3.892188072 4.751938343 0.9661909342
3.920062065 4.78256321 1.193763971
3.892320633 4.747027874 1.407290459
3.880304098 4.72900486 1.627506256
3.669631958 4.459547043 -1.53588438
3.738736868 4.54029274 -1.347903371
3.888044357 4.719935894 -1.180407286
3.91714859 4.751882076 -0.9686938524
3.947084665 4.7864995 -0.75662148
3.941522598 4.776352882 -0.5380741954
3.961596966 4.79726696 -0.3238560557
3.969749689 4.805430889 -0.1080984101
3.942293882 4.78919363 0.1075748429
3.948547125 4.795084476 0.3233326674
3.952125072 4.796016693 0.5399916172
3.938243866 4.77577877 0.754915297
3.921321392 4.753561974 0.969319582
3.939229012 4.771881104 1.194527268
3.923756599 4.75144434 1.412689328
3.905403614 4.725854874 1.631129742
3.689331055 4.453303337 -1.537954807
3.75626111 4.53086853 -1.348803163
3.913702726 4.719105721 -1.183460355
3.942978621 4.751026154 -0.9711968303
3.970544338 4.782546997 -0.7580838799
3.972619772 4.781644821 -0.5401659012
3.974929094 4.781032562 -0.3236466944
3.993336439 4.801464081 -0.1083078384
3.96580863 4.78533268 0.1077842638
3.969526529 4.788113594 0.3237513602
3.980728149 4.798219681 0.541734755
3.951524496 4.759636879 0.7544278502
3.95220685 4.758768559 0.9730739594
3.962561846 4.767850399 1.196816921
3.941982031 4.741404057 1.413589001
3.928463697 4.721791267 1.63423562
3.706552505 4.444012642 -1.53899014
3.78250289 4.531853676 -1.352852225
3.931845903 4.709115982 -1.184223533
3.966310263 4.747019768 -0.9730739594
3.984669447 4.765611172 -0.7575964332
4.002068996 4.783032417 -0.541909039
3.999736071 4.778544426 -0.3243793845
4.008785248 4.785965443 -0.1082729399
3.993186474 4.785973072 0.1080984101
3.98365283 4.771164417 0.3235420287
4.006836891 4.797224522 0.5431292057
3.977469683 4.758692741 0.756377697
3.973865032 4.751004219 0.9743255377
3.98716855 4.76522398 1.199488163
3.961011887 4.730602741 1.414488912
3.954848766 4.719894409 1.638376594
3.784956932 4.504347324 -1.564872026
3.804568052 4.526081562 -1.355101824
3.954137802 4.700680256 -1.185750008
3.998946428 4.75058651 -0.9768284559
4.008953094 4.760782719 -0.7590588927
4.026444912 4.778173447 -0.5429549217
4.033960819 4.78370285 -0.3257401288
4.033204556 4.781112671 -0.1084823683
4.022731781 4.787315369 0.1084474549
4.015708923 4.7755723 0.3247980773
4.023108482 4.780982971 0.5429549217
4.006841183 4.759964943 0.7588151097
3.992968798 4.740125656 0.9749512076
4.018530369 4.76708746 1.203686118
3.990888357 4.730949402 1.41898787
3.976285219 4.711965084 1.64044714
3.839342833 4.53682375 -1.580918789
3.832464457 4.525491714 -1.359150887
3.980670929 4.69883585 -1.188802958
4.02061367 4.742626667 -0.978079915
4.039216042 4.761195183 -0.7614962459
4.037944317 4.758012295 -0.5422576666
4.064857483 4.786337376 -0.3268915117
4.05375433 4.771575451 -0.1085870713
4.042836666 4.77559042 0.1085172668
4.043970108 4.775244236 0.3257401288
4.042350292 4.769949913 0.5433035493
4.039666653 4.763415813 0.7617399693
4.014603615 4.73218298 0.9762026668
4.035144806 4.753032207 1.203686118
4.014949799 4.725899696 1.421687365
3.99395895 4.699529648 1.640964866
3.80377984 4.463110924 -1.559695721
3.853773355 4.520171642 -1.361400485
4.007243633 4.696858883 -1.191855907
4.03888464 4.732271671 -0.9787056446
4.067873955 4.762870312 -0.7639336586
4.075238705 4.768122196 -0.5450466871
4.08200407 4.774350643 -0.3269962072
4.087285042 4.777150154 -0.109040834
4.066432953 4.771290779 0.1087267026
4.073575974 4.776294231 0.3267868459
4.068028927 4.766419411 0.544523716
4.059309006 4.75452137 0.762471199
4.043928146 4.733160496 0.9793314338
4.053433895 4.742609978 1.204449296
4.043264389 4.727369785 1.426186323
4.021643639 4.698769093 1.645623565
3.838688135 4.473929882 -1.567977905
3.869527578 4.506692886 -1.361400485
4.033032417 4.695458412 -1.194908857
4.06310606 4.727131844 -0.9805828929
4.089651585 4.754662514 -0.7649086118
4.094458103 4.756886482 -0.5453952551
4.101250172 4.763100147 -0.3272055387
4.110463619 4.770427227 -0.1092153639
4.090876102 4.766171932 0.1089361235
4.095430374 4.76810503 0.3272055387
4.096796036 4.768015862 0.5462668538
4.079764843 4.744838238 0.7632024288
4.077175617 4.738480091 0.9833986759
4.080211639 4.740334988 1.207502246
4.064830303 4.719132423 1.427985907
4.049371719 4.697873116 1.650282264
3.874009132 4.481753826 -1.575742364
3.895433426 4.50494957 -1.364999652
4.052783012 4.683614731 -1.195672035
4.09462738 4.728635788 -0.9840244055
4.111423969 4.746358395 -0.7658835649
4.12930727 4.763642788 -0.5478355885
4.131768703 4.763122559 -0.3282522559
4.131021023 4.76058197 -0.1093200818
4.116643429 4.762452126 0.1091804653
4.109435081 4.750760078 0.3269962072
4.124677181 4.765018463 0.5476613045
4.101499081 4.736571312 0.764177382
4.093690395 4.724220276 0.9833986759
4.107846737 4.737215042 1.210555196
4.084652424 4.707147121 1.428885818
4.078410625 4.698297024 1.655458689
3.904850006 4.48568964 -1.581954122
3.924720049 4.505334377 -1.36949861
4.076847553 4.678318977 -1.197961807
4.124092579 4.72920084 -0.9871531129
4.134012222 4.737240791 -0.7668584585
4.146740437 4.748475552 -0.5478355885
4.154938698 4.756192684 -0.3287756145
4.153707504 4.751430035 -0.1094596982
4.147202492 4.762413502 0.1095295101
4.139942646 4.750722885 0.3280429244
4.151757717 4.762607098 0.5490558147
4.133187294 4.737960339 0.7668584585
4.113577843 4.712159634 0.9840244055
4.139855862 4.740591526 1.215134621
4.112600803 4.706065178 1.43293488
4.095602512 4.683318138 1.655458689
3.936550856 4.488776207 -1.58816576
3.955841303 4.509189606 -1.37489748
4.104328156 4.675149441 -1.201014757
4.146612644 4.719990253 -0.988404572
4.162317753 4.736200809 -0.7690521479
4.163289547 4.733972549 -0.5478355885
4.184220314 4.754425049 -0.3297176659
4.182158947 4.750411034 -0.1097738445
4.169075966 4.753920555 0.1096691266
4.16967392 4.751255512 0.3290896416
4.166555405 4.744365215 0.5487071872
4.16542244 4.741401196 0.7697833776
4.141737938 4.711125374 0.9868402481
4.157202244 4.725387573 1.215134621
4.14012289 4.702662945 1.436534166
4.114480019 4.671892166 1.656494021
3.968528748 4.496665955 -1.595412731
3.97593379 4.501887798 -1.376697063
4.129393101 4.674003124 -1.204067707
4.166653156 4.712861061 -0.9896560907
4.199048042 4.7461586 -0.7729519606
4.190850258 4.733567238 -0.5494044423
4.204434395 4.747235298 -0.3301363587
4.213804245 4.754475117 -0.1101926938
4.187465668 4.743066311 0.1097389311
4.193339825 4.746383667 0.3297176659
4.189359665 4.740206242 0.5497530699
4.189012051 4.736484528 0.7712457776
4.166501522 4.70772028 0.9890303612
4.182436943 4.724063873 1.218187451
4.166505337 4.702761173 1.44058311
4.142767429 4.672676563 1.661670446
4.011938095 4.51240921 -1.606283069
3.994215488 4.490892887 -1.377596974
4.158242702 4.672036171 -1.207502246
4.187840939 4.701981544 -0.9905946255
4.215586185 4.731474876 -0.7729519606
4.225912571 4.739728451 -0.5518447757
4.227122784 4.737755775 -0.3305550516
4.242360115 4.753163338 -0.1105068401
4.211965561 4.737389565 0.1099483594
4.217848778 4.740668774 0.3303456903
4.23055172 4.751605511 0.5528906584
4.200240135 4.715902805 0.770270884
4.194739342 4.706418514 0.9918462038
4.212790012 4.723355293 1.222003698
4.191501141 4.696180344 1.443282604
4.174489498 4.67548275 1.667882085
4.164262772 4.65093708 -1.66115284
4.027553082 4.495092392 -1.383445621
4.179768562 4.663340092 -1.209028721
4.221374035 4.70645237 -0.9946619272
4.240032196 4.725595474 -0.7744144201
4.250416756 4.733843803 -0.5528906584
4.254315376 4.734855652 -0.3313924074
4.268281937 4.748736858 -0.1107511744
4.243980408 4.738302708 0.1103323177
4.234370232 4.725917816 0.3303456903
4.255094051 4.745708466 0.5539365411
4.222797871 4.70638752 0.7712457776
4.219060421 4.700566769 0.9937233925
4.242372513 4.72322607 1.225819826
4.209657192 4.685153484 1.444182396
4.206285477 4.678119659 1.674093723
4.180957794 4.638536453 -1.661670446
4.210810184 4.668383121 -1.441483021
4.196526051 4.650909424 -1.20941031
4.246224403 4.702692509 -0.9968520403
4.263664722 4.720346451 -0.7758768797
4.270098686 4.724158287 -0.5534135699
4.283390522 4.735535145 -0.3324391544
4.289371967 4.740489483 -0.1108907983
4.273057938 4.739057064 0.1106813699
4.263394833 4.726681709 0.3313924074
4.278817177 4.740447521 0.5549824238
4.251688957 4.707087994 0.7736831903
4.231975079 4.683619022 0.9930976629
4.27118063 4.723693371 1.229636073
4.235627651 4.682730675 1.447781563
4.22696209 4.669873238 1.67616415
4.205402374 4.634661674 -1.665293813
4.236749172 4.665934086 -1.445082188
4.22776556 4.654407978 -1.213989735
4.269768715 4.697354794 -0.998729229
4.29347229 4.72012043 -0.7783142328
4.294611454 4.718063354 -0.5544594526
4.308485031 4.731640816 -0.3331718445
4.311281681 4.731398582 -0.1110304147
4.299500465 4.736707687 0.1109606028
4.290612698 4.72359705 0.3322297931
4.297190189 4.729184151 0.5553310513
4.281963825 4.709119797 0.7763643265
4.264251232 4.686352253 0.9968520403
4.292106628 4.715311527 1.231162548
4.262444973 4.679443359 1.451380849
4.245841503 4.657943726 1.677199483
4.238001347 4.636328697 -1.67150557
4.259587288 4.658306599 -1.447331786
4.25539732 4.650468826 -1.217042685
4.286955833 4.68167448 -0.998729229
4.323329926 4.719743729 -0.7807516456
4.316438675 4.708919525 -0.5551567078
4.331197739 4.72170639 -0.3335905373
4.343994141 4.734002113 -0.1114492714
4.318707943 4.724621296 0.1110304147
4.323250294 4.726276875 0.3334858716
4.322568893 4.722217083 0.5563768744
4.309100151 4.705857754 0.7783142328
4.291260719 4.683088303 0.9993549585
4.312012672 4.702443123 1.231925726
4.292741776 4.678148746 1.455879927
4.271216393 4.653059959 1.680822968
4.262010574 4.63003397 -1.67461133
4.276631355 4.642664433 -1.447331786
4.28757143 4.652910709 -1.221622109
4.313986301 4.678298473 -1.001232266
4.343292713 4.706782341 -0.7812390924
4.346364975 4.708462238 -0.5568998456
4.351717472 4.710960388 -0.3339045644
4.367280006 4.72615242 -0.1116237938
4.344124794 4.71758604 0.1112398505
4.342429161 4.714094162 0.3336952031
4.352529526 4.721749783 0.5581200123
4.326320171 4.690031528 0.7783142328
4.320977211 4.682599068 1.002483726
4.339057446 4.6989007 1.234978795
4.316982269 4.671721935 1.458579302
4.300547123 4.652307034 1.685999393
4.293905258 4.632130623 -1.680822968
4.302602768 4.639888763 -1.450930953
4.306457043 4.640795231 -1.222385406
4.342914104 4.678444862 -1.004360914
4.364280701 4.698172569 -0.7822140455
4.379053593 4.710772038 -0.5589915514
4.37411499 4.703817844 -0.3344278932
4.390562534 4.718196869 -0.1117983162
4.373337746 4.717820168 0.1115888953
4.364292622 4.704763412 0.3341138661
4.385250092 4.724051476 0.5602117777
4.349955559 4.684385777 0.7797766924
4.350741863 4.681958675 1.005612373
4.361300468 4.691674232 1.23688674
4.337758541 4.663088799 1.460378885
4.329922199 4.651408195 1.691175699
4.319787979 4.629164219 -1.68496418
4.340052128 4.647631168 -1.458129406
4.3271842 4.63222599 -1.223911762
4.372709751 4.677686214 -1.007489562
4.388791561 4.691606522 -0.7836764455
4.400094986 4.702044964 -0.5596888065
4.408256531 4.707471371 -0.3357886374
4.412474155 4.708680153 -0.1119379401
4.404790878 4.718604088 0.1119728461
4.394321442 4.70409584 0.3351606131
4.404973984 4.713849545 0.5607346892
4.385261059 4.689472198 0.7831889987
4.369759083 4.669626713 1.006238103
4.392408848 4.692189217 1.241084695
4.36200428 4.656450748 1.46307838
4.346133709 4.636264324 1.691175699
4.341211319 4.619689465 -1.687034726
4.373605251 4.650907516 -1.463978052
4.351397514 4.625674248 -1.226201534
4.394425869 4.668148041 -1.008741021
4.418752193 4.69070816 -0.7861138582
4.419213295 4.689558029 -0.5600374341
4.439735889 4.708037853 -0.3369400501
4.437119007 4.701973915 -0.112147361
4.425343037 4.707571507 0.1120775566
4.424398899 4.703277111 0.3362073302
4.425496578 4.702798367 0.5612576008
4.423377514 4.69726038 0.7870888114
4.399579048 4.66872263 1.00936687
4.41145277 4.679686069 1.241847873
4.388928413 4.652537346 1.466677547
4.367596626 4.626683235 1.693246245
4.365276337 4.612927437 -1.690140486
4.395174503 4.641271114 -1.465777636
4.381018639 4.624710083 -1.230017662
4.416131496 4.658513546 -1.00999248
4.452860355 4.693976402 -0.7892824411
4.441857338 4.67911005 -0.5607346892
4.457517624 4.693961143 -0.3370447159
4.465899467 4.699505806 -0.1124615073
4.447248936 4.697903156 0.1122171804
4.457271576 4.705204964 0.3374633789
4.451479435 4.697443962 0.5624778271
4.442477226 4.684672356 0.7875762582
4.428087711 4.666230679 1.012182593
4.433166504 4.669954777 1.243374228
4.42124939 4.654141903 1.472076416
4.395698547 4.624011517 1.697905064
4.400816917 4.616471767 -1.697387457
4.416727543 4.631543159 -1.467577338
4.414205551 4.625664711 -1.234597087
4.444089413 4.653726578 -1.012495518
4.473333836 4.682709694 -0.7900136709
4.480193615 4.686618328 -0.5635236502
4.482974529 4.686252117 -0.3376727402
4.493338585 4.695445538 -0.1127407551
4.474658012 4.69393158 0.1124964207
4.473670006 4.689616203 0.3374633789
4.483798981 4.696950436 0.5643951893
4.461546421 4.672007084 0.7880637646
4.455266476 4.662171841 1.014685631
4.466539383 4.670698643 1.247953773
4.449055672 4.649170399 1.475675583
4.427844524 4.625384808 1.704116702
4.430282116 4.615019321 -1.702563763
4.447174549 4.629376411 -1.472076416
4.438485622 4.618722439 -1.23688674
4.475369453 4.653846741 -1.01593709
4.497347832 4.673435211 -0.7912324071
4.513108253 4.688174248 -0.5656154156
4.509006023 4.680642605 -0.3384054303
4.522190571 4.692689896 -0.1130548939
4.504298687 4.690478802 0.1128105596
4.495548248 4.679731846 0.3378820717
4.508452892 4.689887524 0.565441072
4.492401123 4.669930458 0.7905011773
4.476993561 4.652284145 1.01593709
4.493707657 4.666395664 1.251006722
4.465258121 4.633610725 1.475675583
4.460049152 4.626593113 1.710328341
4.44233799 4.595358372 -1.701010823
4.473335743 4.625813007 -1.475675583
4.458678246 4.607431889 -1.238031626
4.507266521 4.656010151 -1.019691467
4.518344402 4.664199829 -0.7922073007
4.532217503 4.675254345 -0.5659640431
4.54118681 4.682871342 -0.3396615088
4.538542747 4.676876545 -0.1130548939
4.535115719 4.69133234 0.1131945178
4.525741577 4.678366184 0.3389287889
4.530340672 4.67984581 0.5661383271
4.517530441 4.664988041 0.7922073007
4.495955944 4.639463902 1.016562819
4.533755302 4.676840305 1.2578758
4.494169712 4.632764339 1.480174541
4.478863716 4.613767624 1.711363673
4.466984272 4.590291977 -1.704634309
4.511209965 4.632506847 -1.482874036
4.479413509 4.598245144 -1.239558101
4.533139706 4.650152683 -1.02188158
4.555389881 4.669714928 -0.7958634496
4.550478458 4.663052082 -0.5663126707
4.571461201 4.681279182 -0.340708226
4.570215702 4.676736832 -0.1134388521
4.557042122 4.68120575 0.1133341342
4.558769703 4.679706573 0.3401848674
4.559736729 4.679069519 0.567881465
4.547647476 4.663401604 0.7946447134
4.536953926 4.64919281 1.022194386
4.550054073 4.660984993 1.2578758
4.528013229 4.635173321 1.486023307
4.50034523 4.603630066 1.7134341
4.492442131 4.584332943 -1.708257794
4.520532608 4.609773636 -1.480624557
4.511932373 4.599401951 -1.244137526
4.550729752 4.635709286 -1.022194386
4.588356495 4.670776844 -0.7987882495
4.580694199 4.661349297 -0.5680558085
4.596174717 4.673838139 -0.3413362503
4.608951092 4.683563709 -0.1139973253
4.57895565 4.67098093 0.1134737507
4.589060783 4.678026199 0.3412315845
4.584416389 4.671655655 0.5689272881
4.566676617 4.650334835 0.7951322198
4.553156376 4.633326054 1.022194386
4.571797848 4.650677204 1.259402275
4.556466579 4.631841183 1.490072489
4.527227879 4.598907471 1.717575312
4.524701595 4.585123539 -1.714469433
4.546179771 4.603673458 -1.483773828
4.544517517 4.600383759 -1.24871695
4.577992916 4.631036282 -1.024697423
4.607426643 4.65755415 -0.7992757559
4.61095047 4.659493923 -0.5697988868
4.618084908 4.663441181 -0.3417549431
4.635126114 4.677388668 -0.1142416596
4.600852966 4.66065979 0.1136133671
4.608170986 4.664819241 0.3414409459
4.614700794 4.669795036 0.5706704259
4.589861393 4.641421795 0.7963508964
4.58458519 4.632850647 1.025636077
4.604579926 4.651432037 1.2639817
4.586319923 4.62975359 1.494571447
4.562295914 4.602283001 1.724822283
2.212126732 2.22606945 -0.8293082714
4.575964451 4.601592541 -1.488272905
4.574395657 4.598409653 -1.252533197
4.609461308 4.63042593 -1.028138995
4.634860992 4.652696609 -0.8012256622
4.644064426 4.66030407 -0.5718905926
4.642795563 4.655779362 -0.3423829675
4.65566349 4.665425777 -0.1143463776
4.636827946 4.664429188 0.1141020432
4.630061626 4.654367924 0.3418596089
4.647835255 4.670608997 0.5727621913
4.617242813 4.636623859 0.7983008027
4.60630703 4.622415066 1.026887536
4.631877422 4.646452427 1.26703465
4.602454185 4.613714695 1.494571447
4.59197998 4.600002289 1.729998589
4.575732708 4.572540283 -1.721716404
4.600271702 4.593854427 -1.490972281
4.587638855 4.579640865 -1.2517699
4.645176411 4.6338377 -1.032519102
4.653886795 4.639291286 -0.8017131686
4.668773174 4.65250206 -0.5729364753
4.67317009 4.653638363 -0.3434296846
4.67536211 4.654191971 -0.114451088
4.668644905 4.663760185 0.114485994
4.656775475 4.650279999 0.3426969945
4.67821455 4.668428898 0.5745052695
4.647454262 4.634496689 0.8007382154
4.627205849 4.612693787 1.028138995
4.664758682 4.646883965 1.271614075
4.632343292 4.611367702 1.499070525
4.619532585 4.597014904 1.734657407
4.597151756 4.561982155 -1.72378695
4.634848118 4.597789288 -1.497270942
4.614752293 4.574655056 -1.25482285
4.671739578 4.629535198 -1.03502214
4.688993931 4.643386364 -0.8051254749
4.690648556 4.641783714 -0.5736337304
4.705616474 4.654970169 -0.3446857631
4.711488247 4.657526016 -0.1149397567
4.689764023 4.653885841 0.1146256104
4.689997196 4.650873661 0.3439530432
4.694480896 4.652070999 0.5745052695
4.679719925 4.63582468 0.8036630154
4.660123825 4.613191128 1.031893373
4.685725212 4.636911869 1.27314055
4.669779301 4.617906094 1.506268978
4.638300419 4.583576202 1.73569262
4.627387047 4.56163168 -1.729480982
4.655035496 4.585684299 -1.498620629
4.662069798 4.591011047 -1.263600111
2.256305933 2.220364571 -0.4946973622
4.716495991 4.63812685 -0.8070754409
4.71819067 4.636554241 -0.5750282407
4.730384827 4.646915436 -0.3453137875
4.740560055 4.653660774 -0.115253903
4.70740366 4.63889122 0.1146605089
4.723281384 4.651289463 0.3452091217
4.726921558 4.653249741 0.5765970349
4.707195759 4.630597115 0.8056129813
4.690287113 4.610743523 1.03502214
4.704682827 4.623280048 1.273903728
4.69699192 4.612501621 1.509868145
4.668059349 4.580889225 1.740868926
4.662023544 4.562207222 -1.736210346
4.677979946 4.576219082 -1.500870109
4.683078289 4.578009129 -1.264744997
4.708987236 4.600127697 -1.035960674
2.279917479 2.226432085 -0.386138618
4.747179031 4.632581234 -0.5765970349
4.750246048 4.632333755 -0.3455231488
4.76966095 4.64964819 -0.1155680344
4.739287853 4.637817383 0.1150444672
4.745199203 4.640360832 0.3456278145
4.755345821 4.647032261 0.5779915452
4.726169109 4.616912842 0.8061004281
4.724729538 4.612280369 1.039089441
4.730029106 4.614230633 1.2761935
4.711074829 4.592535973 1.508968353
4.693707466 4.574003696 1.744492531
4.697318077 4.564753532 -1.743457198
4.705904484 4.569905281 -1.504469395
4.70607233 4.568472385 -1.266653061
4.750538349 4.608418465 -1.04159236
4.768094063 4.622219563 -0.8102440238
4.778437614 4.629012585 -0.5783401728
4.785037994 4.633788109 -0.3468838632
4.792420387 4.637696743 -0.1157076657
4.774902344 4.638528347 0.1154982299
4.765042305 4.625718117 0.345837146
4.785834789 4.64428091 0.5797346234
4.754461288 4.6106143 0.8080503345
4.74869442 4.601806641 1.040653706
4.760207176 4.611352444 1.280009627
4.729878426 4.578772545 1.509868145
4.7229352 4.5688591 1.74915123
4.712627888 4.546163559 -1.742939591
4.740062714 4.571037292 -1.510318041
4.724199772 4.552554131 -1.26703465
4.783047199 4.606049061 -1.045033813
4.792781353 4.613806248 -0.8117064238
2.283248425 2.196453333 -0.2734693289
4.814949036 4.628674984 -0.3478259146
4.812903881 4.625097275 -0.1158123687
4.811214447 4.641267776 0.1159868985
4.801290512 4.628464699 0.347302556
4.811435699 4.635000706 0.5807805061
4.787683964 4.610514164 0.810975194
4.769000053 4.589310646 1.04159236
4.796889305 4.612924576 1.285352349
4.767704487 4.581661701 1.516616702
4.744429111 4.557697296 1.751221657
4.726281643 4.529175282 -1.742421865
4.771472931 4.569287777 -1.515267015
4.753451824 4.550440311 -1.270850778
4.802578926 4.594257832 -1.045972466
4.82463789 4.612140656 -0.8143875599
4.837203979 4.622533321 -0.5816521049
4.847604275 4.629235744 -0.3490819931
4.842680454 4.622918129 -0.1161614209
4.836047173 4.632749081 0.1161963269
4.831038475 4.626329899 0.3483492732
4.829655647 4.621778965 0.5811291337
4.828139305 4.617095947 0.8151187897
4.797040462 4.585758686 1.044408202
4.817837238 4.602417469 1.286878705
4.795558929 4.577935219 1.520665884
4.76929903 4.551276207 1.754845262
4.743461132 4.513982773 -1.742939591
4.796482086 4.562843323 -1.518416286
4.789226532 4.552758217 -1.2761935
4.820650578 4.581029415 -1.046598196
4.855741024 4.611151218 -0.817068696
4.854756832 4.606990337 -0.5818263888
2.29385066 2.176023483 -0.1634986699
4.877655029 4.623869419 -0.1166151837
4.861524582 4.626334667 0.1164406613
4.857290745 4.619071007 0.3490819931
4.860202789 4.618615627 0.5828722715
4.846302986 4.603793144 0.8156062365
4.830211639 4.585305214 1.04816258
4.841619015 4.594522953 1.289168477
4.83333683 4.583462715 1.527864218
4.7991786 4.547890186 1.760021687
4.815214157 4.548748016 -1.519316077
4.822853088 4.554375648 -1.281154513
4.856726646 4.583153725 -1.050978422
4.889139652 4.610515118 -0.8199935555
4.897552013 4.616833687 -0.5851383209
4.889178753 4.605718613 -0.3498146832
2.331130743 2.194445372 -0.05518271402
4.876192093 4.607961655 0.1164057627
4.89371109 4.621288776 0.3505473733
4.888532162 4.614780426 0.5844410062
4.868116856 4.592300415 0.8165811896
4.857688427 4.579255581 1.050665498
4.869054317 4.58836937 1.292221427
4.852145672 4.569234371 1.528764009
4.834721565 4.549643517 1.767268538
4.823955536 4.525246143 -1.517066598
4.91244936 4.600203991 -0.8212122321
4.925273418 4.610603809 -0.5865327716
4.922729969 4.604996204 -0.3510707617
4.928805828 4.607459068 -0.1170689464
2.309787273 2.16751647 0.05458933115
2.322371721 2.177803993 0.1646500677
4.895708561 4.586135387 0.818531096
4.903926849 4.590620995 1.057235718
4.906545162 4.59146595 1.297945738
4.875181675 4.558926105 1.531013608
4.870335579 4.551204205 1.77451551
4.840562344 4.512320995 -1.761574626
4.771279812 4.444620609 -1.495471358
4.867462158 4.532636166 -1.284589052
4.940757751 4.596058369 -0.8234058619
4.941338062 4.593381882 -0.5865327716
4.9504776 4.598662376 -0.3519081175
4.976296425 4.621023655 -0.1178368554
2.46257019 2.293973684 0.1741752028
2.324808121 2.164130449 0.274166584
4.940757751 4.596058369 0.8234058619
4.906102657 4.56222868 1.054419994
4.946992397 4.597028732 1.304433227
4.905977249 4.557324409 1.535962462
4.89106369 4.540287018 1.776585937
4.864002705 4.504120827 -1.764680266
4.911858559 4.545248032 -1.535062671
4.781583309 4.423147678 -1.2578758
4.923970222 4.551672459 -1.055358529
4.972007751 4.59446907 -0.826086998
4.977035046 4.595894814 -0.5889731646
4.999461174 4.613371372 -0.3543155789
4.994531631 4.607209682 -0.1179066673
2.343564034 2.169404745 0.05504309386
2.465765476 2.281726122 0.1738611907
2.361228704 2.183462381 0.2776528001
4.963259697 4.58638525 0.8246245384
4.935716629 4.559336662 1.057548642
4.970863819 4.588589191 1.306722879
4.941114426 4.559530735 1.542261124
4.914615154 4.531898499 1.779691815
4.898818493 4.506275654 -1.771927357
4.93407917 4.535527706 -1.53731215
4.787549973 4.399297714 -1.255586028
4.966683865 4.560703278 -1.06130302
5.004103184 4.591850281 -0.8287681341
4.992249489 4.579363823 -0.5889731646
5.008841515 4.591369629 -0.3538968861
5.016480923 4.595150948 -0.1180462837
2.371352196 2.180571318 0.05553176254
2.475185394 2.274456978 0.1739658713
2.371390581 2.178316355 0.2780014277
4.987215042 4.577957153 0.826086998
4.970526695 4.559437752 1.061615944
4.986052036 4.572081566 1.306722879
4.97136879 4.555419445 1.546760082
4.94322443 4.526461124 1.784350634
4.928783894 4.502175808 -1.777103662
4.945561886 4.514336586 -1.535962462
4.791276455 4.37197113 -1.252533197
4.881855965 4.451501846 -1.039715052
2.364183187 2.158795834 0.05518271402
2.393113613 2.183681726 0.1675808728
2.381924391 2.17271018 0.2783500552
5.00023222 4.557844639 0.8255995512
5.005395412 4.559352875 1.065683246
5.013595104 4.565221786 1.309775829
5.004535198 4.553777695 1.552158952
4.976147652 4.524773121 1.790562272
2.334510565 2.117548466 -0.832931757
2.417648792 2.190651894 -0.6259163618
2.386517525 2.163962841 0.05553176254
2.393321753 2.168608904 0.1670575142
5.032998562 4.552455425 1.068186164
5.046976566 4.563492775 1.314355254
5.026182652 4.541507721 1.553958535
5.010550499 4.524207115 1.797291636
2.324663401 2.093870878 -0.8267200589
2.356686354 2.120481014 -0.6079802513
2.361363888 2.126181364 0.05476385728
2.394937515 2.154898167 0.1666388214
2.377777338 2.138707161 0.2760840058
5.057678223 4.542777538 1.070063472
5.080404282 4.561588287 1.318934679
5.056510925 4.536948681 1.558457494
5.030628204 4.510557175 1.798844457
2.361145735 2.109626055 -0.6072170734
2.379022598 2.12410593 -0.4984517395
2.388195753 2.13079834 -0.3878448308
2.395635843 2.136686087 -0.2771298885
2.476633072 2.207376242 -0.1716630906
2.366860151 2.108053684 -0.05462423339
2.422436953 2.16590929 0.05602043122
2.389040232 2.134549379 0.1656967849
2.367396355 2.114468098 0.2739922702
2.356722832 2.103456497 0.3827263117
5.091193676 4.540874481 1.073817849
5.100691795 4.547747612 1.320079565
5.081046104 4.527049541 1.561156988
5.05932951 4.504529476 1.803503156
2.332001686 2.071177483 -0.824131906
2.37005353 2.103492022 -0.7216396332
2.374368906 2.106583595 -0.6087434888
2.370163918 2.101372719 -0.4950101674
2.400076866 2.12639761 -0.3885760307
2.392639875 2.119063139 -0.275909692
2.402064085 2.125914574 -0.1659061313
2.417642117 2.138199329 -0.05563647673
2.391103506 2.122920513 0.0551129058
2.405440569 2.134150743 0.1663248241
2.37476325 2.106190681 0.2739922702
2.381877422 2.111017466 0.3856511712
5.118844986 4.533551693 1.076320767
5.128293037 4.540327072 1.323132515
5.118711948 4.528654099 1.567905545
5.086600304 4.497079849 1.807644367
2.392826319 2.110303164 -0.8432845473
2.389077187 2.105514526 -0.7252388
2.390547037 2.10606885 -0.6110332012
5.17230463 4.55358839 -1.084768176
2.423879862 2.132429361 -0.3912571371
2.4613626 2.164645195 -0.2830564678
5.210417747 4.579072475 -0.361328572
5.198761463 4.565618515 -0.1200707629
2.437498808 2.148944855 0.05602043122
2.405382633 2.119138718 0.1658014506
2.388081074 2.10315609 0.2746895254
2.371350288 2.086952209 0.3827263117
5.150954723 4.530006886 1.07976234
5.15443325 4.531470776 1.325803757
5.144735813 4.519762516 1.571054816
5.112430573 4.488216877 1.811267853
2.424884319 2.123574734 -0.8520843387
2.411077738 2.109995127 -0.7297378182
2.406750441 2.105466843 -0.6133229136
5.179246426 4.527703762 -1.082890987
2.474906921 2.161281824 -0.2837536931
5.241796017 4.571098804 -0.120699048
5.213449478 4.564033031 0.1202452853
2.409759283 2.108098984 0.1655921042
2.407405853 2.105300426 0.2760840058
2.423463583 2.117848873 0.3900384605
5.177152634 4.521093369 1.081952453
5.19684267 4.536689758 1.332672954
5.166356087 4.506899357 1.5728544
5.155731201 4.494466782 1.821102977
2.403127432 2.089743614 -0.8417316079
2.377239943 2.065777302 -0.717140615
5.214408875 4.526434422 -1.086958289
5.22333622 4.530983448 -0.8438799381
2.476415634 2.14740777 -0.2830564678
5.260743141 4.555393219 -0.12076886
5.242932796 4.557612896 0.1205594316
2.429165125 2.110153198 0.1664294899
2.425271034 2.10602808 0.2773042023
5.19887352 4.508169174 1.083203912
5.23341465 4.536526203 1.338015556
5.193841457 4.499043941 1.576453567
5.183074474 4.486556053 1.825244069
2.392861843 2.066190958 -0.8355199695
2.403617144 2.074015856 -0.7229892612
2.418417454 2.086048365 -0.6125596762
5.230178356 4.508203983 -1.086958289
2.465777397 2.123152018 -0.2809647322
2.458763123 2.115618229 -0.1677902192
5.29177618 4.550038338 -0.1211179048
5.273947239 4.552351475 0.1209084764
2.442566395 2.106878519 0.1668481827
2.44920516 2.111861706 0.2792215943
5.263899326 4.535664082 0.8480235338
5.22954464 4.502887249 1.08633256
5.264099121 4.531036377 1.341831803
5.236104965 4.503764629 1.58455193
5.213355541 4.481027126 1.830420375
2.370726585 2.032678127 -0.8251672387
2.410842657 2.065612316 -0.7229892612
2.404808044 2.059716225 -0.6072170734
2.456001282 2.102075577 -0.5053349137
2.477553368 2.119024038 -0.3951569796
2.450458527 2.09510994 -0.2783500552
2.460059643 2.101832628 -0.1673715413
5.325872898 4.547123432 -0.1215367615
5.294361591 4.537817001 0.1210131943
2.457489252 2.104837418 0.1673715413
2.441428185 2.090340853 0.2774784863
5.291763306 4.527590275 0.8499733806
5.263248444 4.500008106 1.090086937
5.285850048 4.517739296 1.343358278
5.268095493 4.499380112 1.589500785
5.243659019 4.475344181 1.8355968
2.373394966 2.020632744 -0.8236142993
2.382415771 2.026878834 -0.7121916413
2.40450573 2.044949055 -0.6053089499
2.473860264 2.102445126 -0.5075250268
2.478883505 2.105222464 -0.3941820264
2.45320034 2.082675695 -0.2778271437
2.455197811 2.082895279 -0.1665341556
5.353916645 4.538848877 -0.1218160018
5.325398445 4.532267094 0.1213622391
2.46025753 2.092363834 0.1670575142
2.454782724 2.086967468 0.2781757414
5.321151733 4.520656586 0.8521670699
5.301512241 4.500786304 1.094780087
5.316556931 4.511962891 1.347174406
5.300117016 4.494828701 1.594449639
5.275461674 4.470750809 1.841290712
2.371581554 2.004853249 -0.8205084205
2.389476776 2.018549681 -0.7121916413
2.402629852 2.028942585 -0.6030192375
2.467597485 2.082330227 -0.5047091842
2.469522715 2.082481384 -0.3915008903
2.47300601 2.083940506 -0.2792215943
5.385027409 4.533008575 -0.1221650541
5.364093781 4.533015251 0.1218858063
5.362270832 4.528262615 0.3656201363
2.480320454 2.093810081 0.280267477
5.332348824 4.498213291 0.8514358401
5.336825848 4.498803139 1.098847389
5.347288609 4.506026745 1.350990534
5.324719429 4.483830452 1.597149134
5.302859783 4.462260723 1.845431924
2.384834051 2.00111413 -0.8225790262
2.403973103 2.016458988 -0.7144411802
2.408545256 2.018862009 -0.602637589
2.481269836 2.078346491 -0.5059606433
2.476777315 2.073848009 -0.3915008903
2.475680828 2.071460247 -0.2786986828
2.471571922 2.066553831 -0.1666388214
5.406954288 4.519314289 -0.1223046705
5.398267746 4.529686451 0.1223046705
5.393348217 4.522350788 0.3666668534
5.420111179 4.541570663 0.6149455905
5.378452778 4.505067348 0.856310606
5.358557224 4.485217094 1.100098848
5.381838322 4.501513958 1.355570078
5.35008812 4.471784115 1.599848509
5.330262184 4.453633308 1.849573016
2.382899046 1.985358119 -0.8194731474
2.414343357 2.010127544 -0.7153409719
2.418595552 2.012954712 -0.6034008861
2.497622728 2.077250719 -0.507837832
2.501155615 2.078712463 -0.3941820264
2.475234747 2.0564394 -0.2778271437
5.436546803 4.51190567 -0.1226188168
5.425589085 4.518829823 0.1225490049
5.421381474 4.513719082 0.3675042093
5.423679352 4.512427807 0.6135510802
5.422403336 4.508168221 0.8606979251
5.389372349 4.479111671 1.103227496
5.409600258 4.492735863 1.358622909
5.386660099 4.470503807 1.60614717
5.356184483 4.44363308 1.853196383
2.386837959 1.974564552 -0.8184379339
2.411984921 1.994659066 -0.7126415372
