# .PCD v0.7 - Point Cloud Data file format
VERSION 0.7
FIELDS x y z
SIZE 4 4 4
TYPE F F F
COUNT 1 1 1
WIDTH 1238
HEIGHT 1
VIEWPOINT 0 0 0 1 0 0 0
POINTS 1238
DATA ascii
3.089027405 -0.1894741654 -0.7045433521
3.565965414 -0.2193532139 -0.6862120032
4.149292946 -0.2566893399 -0.6517575979
5.011230946 -0.3117677271 -0.6113532186
5.73522234 -0.3578148782 -0.4990283549
5.72498703 -0.359182477 -0.2984207869
5.733737946 -0.361740917 -0.09958163649
5.700490475 -0.3486569524 0.09898825735
4.780506611 -0.2940632701 0.2488062829
5.683767319 -0.3506213129 0.4944962859
5.665109158 -0.3514554203 0.6917870045
5.671189785 -0.3538199067 0.8932924271
5.636844158 -0.3526647687 1.089582324
5.64431715 -0.3551103175 1.295714617
5.630716801 -0.3562279642 1.500167251
2.752002239 -0.1774816811 -0.7273336053
3.103904247 -0.2012644857 -0.708142519
3.561259508 -0.2315446734 -0.6854487062
4.156256676 -0.2716869116 -0.653009057
4.998227596 -0.3284772336 -0.609890759
5.741891384 -0.378356427 -0.4997256696
5.727684021 -0.3794282675 -0.2986300886
5.720468521 -0.3809559345 -0.09937220812
5.701233864 -0.3686822355 0.09902315587
4.767492771 -0.3099710941 0.2481782585
5.654674053 -0.3686446249 0.4920559227
5.671771049 -0.3717475533 0.6927619576
5.658093452 -0.3728346527 0.8914152384
5.637537479 -0.3724683225 1.089963913
5.63137722 -0.3740356863 1.293015361
5.615946293 -0.3749797344 1.496543884
2.741728783 -0.1864315718 -0.7247454524
3.110959768 -0.2126294374 -0.709942162
3.568264246 -0.2445112318 -0.6869751811
4.161194801 -0.2866005003 -0.6539476514
5.00893259 -0.3467448354 -0.6113532186
5.740535736 -0.3983970284 -0.4997256696
5.728317261 -0.3995583057 -0.2987347841
5.71112442 -0.4003623724 -0.09923259169
5.709887981 -0.3892611265 0.09919768572
4.766381741 -0.3266108334 0.2481782585
5.504274845 -0.3781393468 0.4789825678
5.513988972 -0.3807405829 0.6735065579
5.64887476 -0.3920356929 0.8901637793
5.6420784 -0.3925535381 1.09110868
5.635869503 -0.3940983415 1.294365048
5.616529942 -0.3947162032 1.497061491
2.741061449 -0.1960008442 -0.7247454524
3.106311083 -0.2232080996 -0.7090423703
3.56738925 -0.2569653094 -0.6869751811
4.146377563 -0.3001257479 -0.6517575979
5.019570351 -0.365091145 -0.6128156185
5.731161118 -0.4178532362 -0.4990283549
5.726887703 -0.4195514321 -0.2987347841
5.709692478 -0.4202955067 -0.09923259169
5.692537308 -0.4080461264 0.09891844541
4.77517271 -0.3439640999 0.2487016171
5.498947144 -0.3970636129 0.47863397
5.532425404 -0.4014222324 0.6759439707
5.653382301 -0.4121824801 0.8911023736
5.628925323 -0.4113869965 1.088819027
5.63640213 -0.4139114916 1.294814944
5.611264706 -0.4140348434 1.496026278
2.749992847 -0.2062903196 -0.7273336053
3.101626396 -0.23375687 -0.708142519
3.554724216 -0.2685289383 -0.6846854687
4.159092426 -0.3156438768 -0.6539476514
5.014307499 -0.3823087513 -0.6123281717
5.723708153 -0.4374007583 -0.4985054433
5.715431213 -0.4387750328 -0.2982114255
5.722146988 -0.4412998557 -0.09947691858
5.699054241 -0.4285140336 0.09905806184
4.761993408 -0.3597277403 0.248073563
5.509448528 -0.4171586931 0.4796798229
5.511196613 -0.4192258716 0.6735065579
5.6479702 -0.4316129386 0.8904765844
5.627455235 -0.4310331941 1.088819027
5.634922981 -0.4335837364 1.294814944
5.598228931 -0.4327260256 1.492920399
2.755033493 -0.2163420171 -0.7288864851
3.108562469 -0.2451950759 -0.709942162
3.577251196 -0.2827922404 -0.6892649531
4.157965183 -0.3301599026 -0.6539476514
5.007006168 -0.3993361592 -0.6115969419
5.740020752 -0.4588062465 -0.5000742674
5.711873531 -0.4585630894 -0.2981067598
5.724558353 -0.4615926743 -0.09954673052
5.685563087 -0.4474635422 0.09884864092
4.76867342 -0.3769776523 0.2484922856
5.511930943 -0.4367023706 0.4800284207
5.497826576 -0.4375161231 0.672044158
5.652336597 -0.451797545 0.8914152384
5.622002602 -0.4503605068 1.088055849
5.621720791 -0.4523129165 1.29211545
5.615939617 -0.4538208246 1.498096824
2.765813828 -0.226905331 -0.7319923043
3.103803635 -0.2557244897 -0.7090423703
3.552763224 -0.2933388352 -0.6846854687
4.144975662 -0.3436924815 -0.6520704031
5.007559299 -0.416976124 -0.6118406653
5.724485874 -0.4776802063 -0.4988540709
5.714218616 -0.4788320363 -0.2983160913
5.700993061 -0.4797277749 -0.0991627723
5.695924282 -0.4682902098 0.09905806184
4.755385399 -0.3926349878 0.2478642613
5.508387566 -0.455775708 0.4798541367
5.498244286 -0.4568688273 0.6722878814
5.646787643 -0.4711966217 0.8907894492
5.628221989 -0.4706366062 1.089582324
5.623991489 -0.4722597003 1.293015361
5.614321232 -0.4734213352 1.498096824
2.749606371 -0.2352409959 -0.727851212
3.110658169 -0.2672243714 -0.7108419538
3.555629253 -0.3060752749 -0.6854487062
4.163431168 -0.3598601222 -0.6551991105
5.021894455 -0.4358262718 -0.6137905717
5.716828823 -0.4971416295 -0.4983311594
5.720471859 -0.4994703233 -0.2987347841
5.695299625 -0.499275744 -0.09909296781
5.690270424 -0.4878282547 0.09898825735
4.751995564 -0.4090607166 0.2477595657
5.502792358 -0.4746582508 0.4795055091
5.506504536 -0.4769149721 0.6735065579
5.631332874 -0.4897067845 0.8885993958
5.630456448 -0.4906207323 1.090345502
5.622308731 -0.4918882549 1.293015361
5.604937077 -0.4923399687 1.496026278
2.746844292 -0.2446660846 -0.7273336053
3.109706402 -0.27808097 -0.7108419538
3.560405493 -0.3190104961 -0.6865935922
3.141051769 -0.2825418711 -0.4928201139
5.02034235 -0.4533532858 -0.6137905717
5.724980354 -0.5179917812 -0.4992026985
5.712725639 -0.5188934803 -0.2984207869
5.697504997 -0.5195162296 -0.0991627723
5.676582336 -0.5066214204 0.09877882153
4.754517555 -0.4260022938 0.247968927
5.501101971 -0.4938637018 0.4795055091
5.508759975 -0.4964897335 0.6739940047
5.643360615 -0.510606885 0.8907894492
5.616978168 -0.5092081428 1.088055849
5.620557308 -0.5115107298 1.293015361
5.593564987 -0.5110230446 1.493438005
2.747897148 -0.2544309795 -0.727851212
3.100955486 -0.288212806 -0.7090423703
3.207406759 -0.2986714244 -0.6179023385
3.090876341 -0.2889084816 -0.484998405
5.564219475 -0.522054553 -0.6810624599
5.70131731 -0.5359213948 -0.4972852767
5.702925682 -0.5380809307 -0.2980020642
5.695656776 -0.5394010544 -0.0991627723
5.672787666 -0.5262486339 0.09874392301
4.754990101 -0.4427812397 0.248073563
5.501328945 -0.5132483244 0.4796798229
5.499087811 -0.5149754882 0.6730191112
5.631710529 -0.5293783545 0.8892251253
5.605392933 -0.5278915763 1.086147666
5.624557972 -0.5316773057 1.294365048
5.591747284 -0.5305451155 1.493438005
2.752761126 -0.2645758688 -0.7294041514
3.099930286 -0.2990354002 -0.7090423703
3.145766258 -0.3040111363 -0.6060721874
3.109510422 -0.3016029596 -0.4881270826
5.414181709 -0.5270492435 -0.6627821326
5.723207474 -0.5581400394 -0.4993770421
5.691074371 -0.5570119023 -0.2974787056
5.693738937 -0.5592793226 -0.0991627723
5.678878784 -0.546813786 0.09888353944
4.753415585 -0.4593765736 0.248073563
5.499504089 -0.5324483514 0.4796798229
5.48935318 -0.5333997607 0.672044158
5.641624451 -0.5501838923 0.8911023736
5.611332417 -0.5482184291 1.087674141
5.611031532 -0.5501664281 1.291665673
5.603319168 -0.5513850451 1.497061491
2.75758791 -0.2747578025 -0.7309570909
3.110502005 -0.3110176921 -0.7117417455
3.109523296 -0.3114679456 -0.5992030501
3.084853411 -0.3100845218 -0.4843726754
5.031120777 -0.5074942112 -0.6157405376
5.71329546 -0.5773131847 -0.4986797869
5.693069458 -0.5772770047 -0.297688067
5.693741798 -0.5793532133 -0.09919768572
5.680913925 -0.5670306087 0.09895334393
4.735884666 -0.4743737876 0.2472362071
5.501576424 -0.5520398021 0.4800284207
5.491408825 -0.5529558063 0.6725316644
5.614120007 -0.5672917962 0.8870350718
5.60938406 -0.5678022504 1.087674141
5.61101532 -0.5699461102 1.29211545
5.603281975 -0.571136713 1.497579098
2.760455608 -0.2847783864 -0.7319923043
3.105520725 -0.321472168 -0.7108419538
3.071313858 -0.3184729815 -0.5919523239
3.075892925 -0.3200330734 -0.4831211865
5.760784626 -0.6024333239 -0.5030375719
5.693006039 -0.5973544717 -0.2977927327
5.67975235 -0.5979682803 -0.09898825735
5.655031681 -0.5843906999 0.09853449464
4.74810648 -0.4923442006 0.247968927
5.491688728 -0.5704171062 0.4793311954
5.48747015 -0.5719152093 0.6722878814
5.623893738 -0.5881179571 0.8889123201
5.607368469 -0.5873792768 1.087674141
5.608991623 -0.5895287395 1.29211545
5.593569279 -0.5898820162 1.495508552
2.744076729 -0.2927727997 -0.727851212
3.116005659 -0.3335549831 -0.7135413885
3.031142235 -0.3250058293 -0.5843199492
3.033512115 -0.3263310492 -0.4765509069
3.022246361 -0.3261863589 -0.3681019545
2.981497526 -0.3223148584 -0.2586528659
5.666875839 -0.6056143641 0.09877882153
4.742386818 -0.5084892511 0.2477595657
5.489664078 -0.5895832181 0.4793311954
5.495308876 -0.5921299458 0.6735065579
5.627697945 -0.6083824039 0.8898509145
5.597476482 -0.6061035991 1.086147666
5.614648342 -0.6099460125 1.293915033
5.589556217 -0.6091942787 1.494990945
2.743038177 -0.302349627 -0.727851212
3.072209597 -0.3397178352 -0.7036435008
3.037794828 -0.3364489973 -0.5858464241
3.024501324 -0.336045444 -0.4752994478
3.02898097 -0.3376135826 -0.3690769374
3.021936178 -0.337362349 -0.2623133957
2.999223948 -0.3358868062 -0.1559622884
3.012598515 -0.3384494781 -0.05221580341
4.760434151 -0.5272388458 0.2488062829
5.479651451 -0.6078634858 0.47863397
5.49123621 -0.6110889912 0.6732628345
5.623576641 -0.6278038621 0.8895379901
5.593375683 -0.62542063 1.085766077
5.604739189 -0.6286721826 1.29211545
5.585475922 -0.6284857988 1.494473338
2.753482819 -0.3132329285 -0.7309570909
2.877387524 -0.3283456266 -0.6586532593
3.006091118 -0.345690012 -0.3663958013
3.028657436 -0.3488206565 -0.2630106509
2.998033285 -0.3463540375 -0.1559622884
3.021391869 -0.3495869637 -0.05239032581
2.984247684 -0.3400120437 0.05172713846
3.00446701 -0.3428469598 0.1562763005
5.599877357 -0.6439664364 0.8860964775
5.604810715 -0.6465161443 1.088437438
5.591036797 -0.6478939056 1.496543884
2.756210327 -0.323292613 -0.7319923043
2.864670515 -0.3365214467 -0.6559538841
2.871591568 -0.3383507431 -0.5537905097
3.035876274 -0.3582451344 -0.477489531
5.047228813 -0.5973789096 -0.6189091206
5.700370789 -0.6767010689 -0.4985054433
3.010225058 -0.3589475751 -0.05221580341
2.981432676 -0.3507654071 0.1551249176
2.990076542 -0.3528406024 0.2596987188
3.008932829 -0.3555981517 0.3668832779
3.031764984 -0.3593695462 0.4768638015
3.00386548 -0.3565941751 0.5797405243
3.003463507 -0.357609719 0.6883468628
2.995304823 -0.357698679 0.7966970801
2.735943556 -0.33011657 -0.7268159389
2.863478422 -0.3465189636 -0.6559538841
2.860708714 -0.3466904163 -0.5518824458
2.999310255 -0.3645499647 -0.4718579054
4.909147739 -0.5984193683 -0.6020911336
5.688086033 -0.6953861117 -0.4976339042
2.995760679 -0.3619963527 0.05197146907
2.992086649 -0.3626121581 0.155752942
2.988890171 -0.3627541065 0.2596987188
3.001761913 -0.3653796017 0.3661520779
2.979510546 -0.3637266159 0.468729198
2.992858648 -0.365886271 0.5778324604
2.986722946 -0.3661943376 0.6847476363
2.971029043 -0.3653228581 0.7904854417
2.746217728 -0.3415727615 -0.7299218178
2.869986534 -0.357475698 -0.6577534676
2.886692524 -0.3605798781 -0.5572250485
3.005794287 -0.3765226305 -0.4731093943
4.901120186 -0.614810586 -0.6013599038
5.687600613 -0.7154857516 -0.4978081882
3.02396512 -0.3814794719 -0.1575323641
5.462722778 -0.6833228469 0.4779367149
3.004407644 -0.3763489425 0.3666395545
2.988022804 -0.3753558993 0.4702935517
2.993445396 -0.3770985603 0.5782140493
2.985360861 -0.3771387339 0.6847476363
2.952486515 -0.3735093176 0.785826683
2.745008707 -0.351156801 -0.7299218178
2.926644087 -0.3754309416 -0.6712505817
2.980831623 -0.3829109967 -0.5759243369
2.994665623 -0.3857506514 -0.4715450406
4.912614822 -0.634550035 -0.6030660868
5.683092594 -0.7350791693 -0.4976339042
3.014692545 -0.3910051882 -0.1571136862
5.474136829 -0.7041665912 0.4791569114
5.473828316 -0.7060692906 0.6725316644
5.59413147 -0.7235724926 0.8867221475
5.587450027 -0.7236998081 1.086910963
2.984025955 -0.3875572979 0.6847476363
2.96450758 -0.3860746324 0.7894501686
2.759088993 -0.3627510667 -0.7340628505
3.099197865 -0.4085673988 -0.7117417455
2.923032045 -0.3858625293 -0.5648574233
2.973718166 -0.393609643 -0.468416363
4.96546936 -0.6590071321 -0.609890759
5.684442043 -0.7554373145 -0.4979825318
2.989552259 -0.3983603716 -0.1558576226
5.485472202 -0.7250983119 0.4803770781
5.469361782 -0.7249113321 0.6722878814
5.617028236 -0.7464783192 0.8907894492
5.58099699 -0.7426812649 1.086147666
5.578753948 -0.7443647385 1.289416075
5.578747749 -0.7463459969 1.496543884
2.75397706 -0.3718628585 -0.7330275774
2.840913534 -0.3846114874 -0.6519047618
2.874976635 -0.389734 -0.5556986332
2.968410969 -0.4034552872 -0.4677906036
5.539444447 -0.7548699975 -0.6813062429
5.693614483 -0.7768913507 -0.4990283549
2.934090137 -0.4024420679 -0.05099413544
5.488830566 -0.7450457215 0.4809000194
5.462864876 -0.7434632182 0.6718004346
5.594815254 -0.7634102702 0.8876607418
5.578370571 -0.7621579766 1.086147666
5.57419157 -0.7635692954 1.288966179
5.572280884 -0.7652891874 1.495508552
2.764143705 -0.3830648959 -0.7361334562
2.795158863 -0.3883576095 -0.6415569782
2.869709253 -0.3992260695 -0.5549353361
2.96698451 -0.4138145447 -0.4677906036
5.54857111 -0.7758510113 -0.6827686429
2.871981859 -0.4031195343 -0.1497866511
5.476329803 -0.7628263831 0.4800284207
5.452372551 -0.7614294291 0.6708254814
5.596029758 -0.7834829092 0.888286531
5.579564571 -0.7821707129 1.086910963
5.577281475 -0.7838358283 1.290315866
5.565749645 -0.7841963768 1.494473338
2.743663311 -0.3899925947 -0.7309570909
2.793786287 -0.398112148 -0.6415569782
2.895508528 -0.413123101 -0.5602779984
2.944011688 -0.4210920334 -0.4643490613
5.504564285 -0.7892974615 -0.6776501536
5.467716217 -0.7810923457 0.4795055091
5.469331741 -0.7832713127 0.6732628345
5.597171307 -0.8035734296 0.8889123201
5.572913647 -0.8010834455 1.086147666
5.578368664 -0.8038552403 1.291215658
5.557242393 -0.8027911186 1.492920399
2.738461971 -0.3990103304 -0.7299218178
2.819375753 -0.4118049741 -0.6478556395
2.929015398 -0.4283412993 -0.5671471357
2.948387384 -0.432225585 -0.4652876258
5.544983864 -0.8148567677 -0.6830124259
5.459042072 -0.7993074656 0.4789825678
5.474420071 -0.8035110831 0.6742377877
5.600195885 -0.8239689469 0.8898509145
5.56814146 -0.8202456236 1.085766077
5.587095737 -0.8250305057 1.293915033
5.556317329 -0.8224675059 1.493438005
2.744695187 -0.409707725 -0.7319923043
2.810211897 -0.4204903841 -0.6460559964
2.900319815 -0.4344907403 -0.5618044734
2.933186293 -0.4404613078 -0.4630975723
5.451808929 -0.8206157684 -0.6718004346
4.998573303 -0.7532861829 -0.4385423064
2.818231583 -0.4257143438 -0.1471698433
5.470011234 -0.8204269409 0.4802027345
5.603144646 -0.8443952799 0.8907894492
5.569126606 -0.8402628303 1.086529255
5.576474667 -0.8433625102 1.29211545
5.564872742 -0.8435949683 1.496543884
2.750886917 -0.420453459 -0.7340628505
2.826985121 -0.433599472 -0.5476846099
2.925773621 -0.4497968853 -0.4621589482
5.348852158 -0.8242227435 -0.6593697071
4.976222515 -0.7676920891 -0.4367991984
2.81080699 -0.4346336126 -0.1468558311
2.8436234 -0.4407243431 -0.04952813312
5.480899334 -0.8416327238 0.4814229608
5.56697464 -0.8588286638 0.8854706883
5.568099976 -0.8599973321 1.086910963
5.565793514 -0.8616303802 1.290315866
5.558075905 -0.8624223471 1.495508552
2.741768122 -0.4288591743 -0.7319923043
2.866889715 -0.4494555593 -0.6600030065
2.82739377 -0.4437692463 -0.5480661988
2.931991339 -0.4612348974 -0.4634104371
5.034164429 -0.7937310338 -0.6206153035
4.957631111 -0.7834376693 -0.4354046881
2.852672577 -0.4513086379 -0.1491586268
2.838117361 -0.4500214458 -0.04945832118
5.472023964 -0.8598316312 0.4809000194
5.583455086 -0.8813358545 0.8885993958
5.57282114 -0.8806540966 1.088437438
5.566601276 -0.881663084 1.291215658
5.5550313 -0.8818184137 1.495508552
2.74017787 -0.4389053285 -0.7319923043
2.832592726 -0.4542149007 -0.6523546576
2.810241222 -0.4516370296 -0.5450133085
2.920530081 -0.470407486 -0.4618461132
5.029607773 -0.8128170371 -0.4420285523
2.843112946 -0.460483849 -0.1487399191
2.840477228 -0.460565716 -0.04952813312
5.009020805 -0.8041086197 0.2636696994
5.460966587 -0.8786158562 0.4802027345
5.572544098 -0.8995611668 0.8873479366
5.563741684 -0.9001330137 1.087292552
5.565256596 -0.9023717642 1.291665673
5.548106194 -0.9005847573 1.494473338
2.738629341 -0.4484677315 -0.7319923043
2.832832098 -0.4649094343 -0.6528045535
2.818334103 -0.4630352855 -0.546921432
2.9169209 -0.4802782238 -0.4615332186
3.069749355 -0.5065424442 -0.3768765628
2.896660566 -0.4795390666 -0.1516707391
2.832934141 -0.469497174 -0.04942341894
5.448036671 -0.8960561752 0.4793311954
5.584962368 -0.9215803742 0.8898509145
5.558628559 -0.9192283154 1.086910963
5.563994884 -0.9221110344 1.29211545
5.546834469 -0.9202618599 1.494990945
2.75229001 -0.4605753422 -0.7361334562
2.812054873 -0.4710811973 -0.6483055353
2.814764261 -0.4725452065 -0.5465397835
2.925052404 -0.4915854037 -0.4630975723
3.036732674 -0.5114443898 -0.3729767501
2.927578211 -0.4941117167 -0.2560381889
2.84779048 -0.4811564684 -0.1491586268
5.664515495 -0.9590980411 -0.09958163649
2.802609205 -0.468995899 0.04889984801
5.665122032 -0.9500492811 0.2988394499
5.566016674 -0.9364258051 0.6878871918
5.577815056 -0.9404130578 0.8892251253
5.555550098 -0.937656343 1.086910963
5.55706358 -0.9399068356 1.291215658
5.545492649 -0.9399410486 1.495508552
2.750747442 -0.4696997404 -0.7361334562
2.812314272 -0.4812228978 -0.6487554312
2.820922136 -0.4832025468 -0.5480661988
2.927212715 -0.5024611354 -0.4637233019
3.031015873 -0.521368444 -0.3724892735
3.061404467 -0.5271457434 -0.2680656612
2.836252689 -0.4893961251 -0.1486352682
5.637487888 -0.9747765064 -0.0991627723
2.848261356 -0.4868622124 0.04973756149
4.606608391 -0.7890770435 0.2427353263
5.606764793 -0.9614035487 0.4939733446
5.576408863 -0.9582023025 0.6895933151
5.57644558 -0.9602127075 0.8895379901
5.554177761 -0.9573764801 1.087292552
5.549908161 -0.9586356282 1.290315866
5.549791813 -0.9606105685 1.497579098
2.749091148 -0.4792988002 -0.7361334562
2.860528708 -0.499756664 -0.6604529023
2.807614803 -0.4910171926 -0.545776546
2.925440788 -0.512675941 -0.4637233019
5.043007374 -0.8855886459 -0.623540163
5.017922878 -0.8820862174 -0.4420285523
2.850263119 -0.5020653009 -0.149472639
5.626173973 -0.9930588007 -0.09902315587
4.603826046 -0.8051523566 0.2427353263
5.591599464 -0.9789075851 0.4929274917
5.580850601 -0.9790337682 0.6905682683
5.555549622 -0.9765941501 0.8867221475
5.55466938 -0.9774389267 1.088055849
5.550366402 -0.978679359 1.291215658
5.534991264 -0.9779605269 1.494473338
2.737891436 -0.4871997535 -0.7335452437
2.813614607 -0.5021944642 -0.547303021
2.925577879 -0.5232322812 -0.4640361667
3.066381454 -0.5495193601 -0.3773640692
2.877979279 -0.5173116326 -0.1510427147
2.832980871 -0.5046306849 0.04952813312
4.628513813 -0.8261309862 0.2442007214
5.578341484 -0.9966677427 0.4920559227
5.581307888 -0.9992081523 0.6910557747
5.565717697 -0.9984223843 0.8889123201
5.545426369 -0.9957813621 1.086910963
5.552670479 -0.9990830421 1.292565346
5.522037029 -0.9955613017 1.491885066
2.732372522 -0.4960636497 -0.7325099707
2.836953878 -0.5165849328 -0.5522640347
2.919847012 -0.5327321887 -0.4634104371
2.764307976 -0.5023599267 0.04834137112
4.566653728 -0.8315484524 0.2410605699
5.372938633 -0.9793349504 0.4741018713
5.450854301 -0.9955027103 0.6752127409
5.566084862 -1.018555403 0.8895379901
5.541916847 -1.015132427 1.086910963
5.552982807 -1.019163013 1.293465257
5.529928684 -1.016927361 1.494990945
2.73252368 -0.5059500337 -0.7330275774
2.832145929 -0.5254185796 -0.6550540924
2.904622555 -0.5393887162 -0.5660023093
2.923795938 -0.544005096 -0.4643490613
3.046858788 -0.5680027604 -0.3754141331
3.032201529 -0.5658179522 -0.2661482692
2.736976862 -0.5072686672 0.04788760841
4.530340672 -0.8412846923 0.2392811477
5.355775833 -0.9955351949 0.4728816748
5.336108685 -0.9938066602 0.6613196731
5.564437389 -1.038340807 0.8898509145
5.534479618 -1.033750176 1.086147666
5.543644905 -1.037464738 1.29211545
5.53204155 -1.037292242 1.496543884
2.738334656 -0.5169187188 -0.7350981832
2.828379869 -0.5349392295 -0.6546041965
2.958662748 -0.5601148009 -0.5770692229
2.935464382 -0.5567845106 -0.4665391445
3.099462748 -0.5890119076 -0.3822388351
4.735722065 -0.9042439461 -0.0834556073
2.735189676 -0.5168194771 0.04788760841
4.515601635 -0.8548643589 0.2386531085
5.352268219 -1.014224291 0.4728816748
5.338458061 -1.013537884 0.6620509028
5.564660072 -1.058496237 0.8904765844
5.540480614 -1.054898977 1.088055849
5.536160469 -1.056079149 1.291215658
5.537874699 -1.058409691 1.499131918
2.728833199 -0.5254904628 -0.7330275774
2.814919472 -0.5430871248 -0.6519047618
2.954662323 -0.5705828071 -0.5766875744
2.929525375 -0.5667893887 -0.465913415
4.872503757 -0.9453538656 -0.4305239916
4.732536793 -0.9207692742 -0.0834556073
2.766657352 -0.5332750082 0.04848098755
4.543967724 -0.8766753078 0.2403278649
5.342646599 -1.032700181 0.4723587334
5.342502594 -1.034607172 0.6630257964
5.533781528 -1.072651505 0.8860964775
5.540431499 -1.075947285 1.088819027
5.53607893 -1.077107549 1.29211545
5.524665356 -1.075887561 1.496543884
2.730773687 -0.5357564688 -0.7340628505
2.82840085 -0.5554227829 -0.6555039883
2.827441454 -0.5562595129 -0.5518824458
2.925691366 -0.5761192441 -0.4656005204
5.045086384 -0.9971240163 -0.4462119937
2.860675335 -0.5659101009 -0.1506240219
2.776647329 -0.5447564721 0.04869041964
4.546759605 -0.8936869502 0.240641892
5.331189632 -1.049803495 0.4716615081
5.342937469 -1.053085566 0.6635132432
5.541631222 -1.094257474 0.8879736662
5.532980919 -1.093552709 1.088055849
5.534388542 -1.095838428 1.292565346
5.522770882 -1.095541596 1.497061491
2.71950984 -0.5429180861 -0.731474638
2.845553637 -0.5691142082 -0.6600030065
2.835206509 -0.5675594211 -0.5537905097
2.921725988 -0.5859399438 -0.4652876258
3.075608969 -0.6179173589 -0.3800451756
5.057378292 -1.016991019 -0.4476065338
2.858682394 -0.5758922696 -0.1506240219
4.59662199 -0.9276764989 -0.08115188777
2.766885042 -0.5528781414 0.04855079576
4.551445484 -0.911120832 0.2410605699
5.327679157 -1.06747663 0.4716615081
5.331444263 -1.070166826 0.6625383496
5.56101656 -1.118267894 0.8917280436
5.525280952 -1.112085104 1.087292552
5.540080547 -1.117076159 1.294814944
5.524594307 -1.115960598 1.498614311
2.728957176 -0.5547165871 -0.7345805168
3.072695732 -0.6257054806 -0.7139912248
2.837055445 -0.5782367587 -0.5545537472
2.929339886 -0.5981110334 -0.4668520093
3.05981946 -0.6258648634 -0.3783389926
5.053797722 -1.034638286 -0.4476065338
4.559979916 -0.9293960333 0.2416886091
5.337585449 -1.08885479 0.4728816748
5.321840763 -1.087578177 0.6618071198
5.55514431 -1.137276411 0.8914152384
5.517518044 -1.130576849 1.086529255
5.532330036 -1.13562417 1.293915033
5.524449825 -1.136016488 1.499649644
2.734571218 -0.5658047199 -0.7366511226
3.074309587 -0.6372184753 -0.7148910761
2.840786695 -0.589332819 -0.5556986332
2.938838482 -0.6107441783 -0.468729198
3.04595542 -0.6341142654 -0.3768765628
4.987739563 -1.039267778 -0.4420285523
4.552796364 -0.9444962144 0.2414792478
5.339604855 -1.108694911 0.4734046161
5.319955826 -1.106552482 0.6620509028
5.549206734 -1.156257629 0.8911023736
5.521226406 -1.151432991 1.088055849
5.516886711 -1.152537704 1.291215658
5.512886524 -1.153710485 1.497579098
2.73636055 -0.5761427879 -0.737686336
3.072066545 -0.6479459405 -0.7148910761
2.8329494 -0.5980289578 -0.5545537472
2.940553904 -0.6218162775 -0.4693549275
3.045665741 -0.6451542377 -0.377120316
4.604188919 -0.9719334841 0.2444100827
5.325954914 -1.125267506 0.4725330472
5.329655647 -1.127992988 0.6637570262
5.537407398 -1.173982263 0.8898509145
5.53253746 -1.173958778 1.09110868
5.520454884 -1.173408985 1.293015361
5.505046844 -1.172142386 1.496543884
2.7343328 -0.5856909752 -0.737686336
3.094555855 -0.663980186 -0.7207397819
2.85195899 -0.6124483943 -0.5587515235
2.934503078 -0.6312460899 -0.468729198
3.055038691 -0.658290565 -0.3785827458
5.546770573 -1.200267553 -0.09835996479
4.608579159 -0.9896765351 0.2448287606
5.312255383 -1.141758561 0.4716615081
5.329566956 -1.147425771 0.664244473
5.540999413 -1.194970012 0.8911023736
5.518810749 -1.191192746 1.089200735
5.527753353 -1.195142508 1.295714617
5.5046978 -1.19216907 1.497579098
2.720946074 -0.5927647352 -0.7345805168
3.059852362 -0.6677151322 -0.713091433
2.8709023 -0.6270077825 -0.5629493594
2.934211493 -0.6419078112 -0.4690420926
3.052722216 -0.6689505577 -0.3785827458
5.612854004 -1.235092998 -0.09961653501
5.308237553 -1.16029489 0.4716615081
5.310015678 -1.16262579 0.6622946262
5.540653229 -1.215150714 0.8917280436
5.505030632 -1.208345175 1.087292552
5.521644592 -1.214012265 1.29526484
5.500502586 -1.211376905 1.497579098
2.720746517 -0.6026768088 -0.7350981832
3.059405565 -0.6788140535 -0.7135413885
2.874445677 -0.6383020878 -0.5640941858
2.943522692 -0.6547195911 -0.4709192812
3.056180716 -0.6808974743 -0.3793139458
5.608508587 -1.254678011 -0.09961653501
5.31387949 -1.180978179 0.4725330472
5.30398798 -1.180722833 0.6620509028
5.547945976 -1.237063169 0.8936052918
5.508443832 -1.229264259 1.088819027
5.517373085 -1.23327899 1.29526484
5.503782272 -1.23225832 1.499649644
2.731711388 -0.6156177521 -0.7387216091
3.06652236 -0.6916330457 -0.7157908678
2.87400198 -0.6492657661 -0.5644758344
2.943029881 -0.6659396887 -0.4712321758
3.032488823 -0.6867385507 -0.3766328394
4.929784775 -1.118210077 -0.4385423064
5.594345093 -1.27203083 -0.09944202006
5.317288399 -1.202203989 0.4732302725
5.307578564 -1.200982451 0.6630257964
5.543593884 -1.256421447 0.8936052918
5.511559486 -1.251183987 1.090345502
5.507114887 -1.25219667 1.293915033
5.510748863 -1.2540344 1.502755404
2.725779772 -0.62428689 -0.737686336
3.06206727 -0.7024320364 -0.7153409719
2.875545263 -0.6601725817 -0.5652390718
2.948387623 -0.6779794097 -0.4724836349
2.940966845 -0.6773538589 -0.3654208481
4.964681149 -1.144361734 -0.4420285523
5.58402586 -1.290200472 -0.09933730215
5.301408768 -1.218080521 0.4721844196
5.301206589 -1.219982386 0.6627821326
5.527624607 -1.273104429 0.8917280436
5.518636227 -1.273063064 1.092635155
5.504610062 -1.271851182 1.294365048
5.498809338 -1.271521926 1.500684857
2.706649542 -0.6298570633 -0.7330275774
3.067312956 -0.7143504024 -0.717140615
2.880871058 -0.6719899774 -0.5667654872
2.949970961 -0.6886510849 -0.4731093943
2.963832855 -0.6929780841 -0.3685894608
5.600825787 -1.311599255 -0.499551326
5.581435204 -1.310141563 -0.09937220812
5.289364338 -1.234766722 0.4714871645
5.306797028 -1.239813089 0.6640007496
5.526994228 -1.293291926 0.8923538327
5.506738663 -1.289565921 1.09110868
5.511745453 -1.292768121 1.297064424
5.490576267 -1.289825082 1.499649644
2.713946581 -0.6410496831 -0.7356157899
3.057214975 -0.7232584357 -0.7153409719
2.886268616 -0.6833488345 -0.5682920218
2.939860821 -0.6971210837 -0.4718579054
2.967190027 -0.704695642 -0.3693206608
5.60226059 -1.33154726 -0.5000742674
5.588499069 -1.332399011 -0.09958163649
5.291056156 -1.253678322 0.4720101058
5.292779446 -1.256037951 0.6627821326
5.530133247 -1.314404011 0.8936052918
5.49456358 -1.306963086 1.089582324
5.51099062 -1.312903047 1.297964215
5.486040592 -1.308982968 1.499649644
2.717327833 -0.6518711448 -0.7371687293
3.052777052 -0.7334704399 -0.7148910761
2.885774374 -0.6938785315 -0.5686736107
2.962375402 -0.7133910656 -0.4759251773
2.962782383 -0.7145833373 -0.3690769374
5.601451874 -1.352029681 -0.5004229546
5.583814144 -1.351898432 -0.09958163649
5.294395924 -1.27400434 0.4727073312
5.28836298 -1.274505496 0.6627821326
5.525511265 -1.333699822 0.8936052918
5.501418114 -1.328900456 1.091871977
5.506374359 -1.332132101 1.297964215
5.492702484 -1.330854297 1.502755404
2.722543955 -0.6631812453 -0.7392392755
3.055877686 -0.7455077171 -0.7162407637
2.883334637 -0.7039475441 -0.5686736107
2.965623617 -0.7251349092 -0.4768638015
2.967982531 -0.7268096805 -0.3700518906
5.602503777 -1.372996807 -0.5009458661
5.58877039 -1.373767853 -0.09975615889
5.546712399 -1.352142692 0.09895334393
5.316452026 -1.297977448 0.2846040726
5.29765892 -1.294368982 0.4734046161
5.281953812 -1.292485833 0.6625383496
5.518903732 -1.352509141 0.8932924271
5.50055933 -1.34903121 1.092635155
5.490335464 -1.348555684 1.29526484
5.499279499 -1.35278821 1.505861282
2.699583292 -0.6675792933 -0.7335452437
3.057039976 -0.7571071386 -0.717140615
2.878954411 -0.7135357261 -0.5682920218
2.974577904 -0.7383377552 -0.47874102
2.97698617 -0.7400388718 -0.3715143204
5.597677231 -1.392544866 -0.5009458661
5.574239731 -1.390847445 -0.09958163649
5.578840733 -1.380623341 0.09961653501
5.290563583 -1.311242104 0.2834526896
5.283439636 -1.310455203 0.4725330472
5.279336452 -1.311393976 0.6627821326
5.512232304 -1.371288657 0.8929796219
5.499627113 -1.369172096 1.093398452
5.491267204 -1.369126678 1.296614528
5.483277321 -1.369167805 1.502755404
3.061938286 -0.7696738839 -0.7189401984
2.889773607 -0.7269334197 -0.5709633231
2.962404728 -0.746303618 -0.4771766961
3.030203342 -0.7645088434 -0.3785827458
5.594713688 -1.412563682 -0.5011201501
5.588328362 -1.41302669 -0.299886167
5.565473557 -1.40931499 -0.09951182455
5.55847168 -1.396191597 0.09933730215
5.301450253 -1.333599687 0.2842900753
5.27303648 -1.327430725 0.4720101058
5.284350872 -1.332240582 0.6640007496
5.51124239 -1.391488552 0.8936052918
5.498621464 -1.389322996 1.094161749
5.501568317 -1.392110825 1.300213814
5.478464603 -1.388299584 1.502755404
3.049791813 -0.7779490352 -0.7166906595
2.885316133 -0.7365305424 -0.5705816746
2.955953836 -0.7556613684 -0.4765509069
3.046746969 -0.7800047994 -0.3810201287
5.587818623 -1.431589723 -0.5009458661
5.577558041 -1.431035876 -0.2995721698
5.576014519 -1.432714701 -0.09979106486
5.553564548 -1.415585756 0.09933730215
5.294827461 -1.351603031 0.2841853797
5.278022766 -1.348294735 0.4728816748
5.266206264 -1.347234368 0.6622946262
5.515919209 -1.413169146 0.8951696754
5.482327461 -1.405582786 1.091871977
5.496675491 -1.411306262 1.300213814
5.477327824 -1.408376813 1.503790736
2.709278345 -0.7001625299 -0.7382039428
3.048944235 -0.7890782952 -0.717140615
2.894131184 -0.7495511174 -0.572871387
2.966683149 -0.7694464922 -0.47874102
3.044005632 -0.7906351686 -0.3810201287
5.594103813 -1.45506978 -0.5019916892
5.568662643 -1.44949019 -0.2993628085
5.574849606 -1.453178644 -0.09986086935
5.550525665 -1.435463548 0.09937220812
5.278475761 -1.367072582 0.2835573256
5.279070377 -1.368209839 0.4734046161
5.271078587 -1.368102074 0.6635132432
5.514776707 -1.433408618 0.8957953453
5.484987736 -1.426687956 1.093398452
5.48982954 -1.42999351 1.299763799
5.476117134 -1.428463101 1.504826069
2.710431099 -0.7110683322 -0.7392392755
3.051825762 -0.8012008667 -0.718490243
2.891364574 -0.760153532 -0.572871387
2.965753078 -0.7808176279 -0.4790538847
5.004964828 -1.318631291 -0.6303648353
5.484961033 -1.447141171 -0.4925788641
5.513106823 -1.456625581 -0.29664132
5.558144093 -1.469562769 -0.09965144843
5.549349308 -1.455844641 0.09944202006
5.275604248 -1.385997176 0.2836620212
5.281727314 -1.389577031 0.4741018713
5.268190384 -1.386998892 0.6637570262
5.496368885 -1.449124694 0.8936052918
5.493009567 -1.450290084 1.096069813
5.473247528 -1.447116375 1.297064424
5.4785676 -1.449546099 1.506896615
2.700464725 -0.7185381651 -0.7371687293
3.046985626 -0.8118792176 -0.7180404067
2.888693333 -0.7702417374 -0.572871387
2.974460602 -0.7942229509 -0.4809311032
5.007769108 -1.33901763 -0.6313397884
5.462553978 -1.461643457 -0.49101004
5.473263264 -1.46655643 -0.294757247
5.448680878 -1.460988998 -0.09776658565
5.553637981 -1.478746653 0.09961653501
5.274593353 -1.405432463 0.2838713527
5.271069527 -1.406464219 0.4735789299
5.264989376 -1.406810641 0.6640007496
5.495093822 -1.469322443 0.894231081
5.491706848 -1.470471144 1.096832991
5.475692272 -1.468231678 1.298864126
5.473474503 -1.468660951 1.506896615
2.690479755 -0.7259472013 -0.7350981832
3.057446241 -0.8255347013 -0.7211896777
2.891672611 -0.7818576694 -0.574016273
2.966089964 -0.8025343418 -0.4799924791
5.003300667 -1.355616689 -0.6313397884
5.55933094 -1.508353114 -0.500248611
5.479935169 -1.487838268 -0.2953852713
5.505296707 -1.496787786 -0.09888353944
5.444448948 -1.469025016 0.09773167968
5.279295921 -1.426440597 0.2843947411
5.254588604 -1.421732903 0.4725330472
5.275623798 -1.428412676 0.6659506559
5.50518322 -1.492630482 0.8967339993
5.498167992 -1.491758466 1.099122643
5.495240211 -1.493023753 1.304712772
5.472043037 -1.488772392 1.507931948
2.688057661 -0.734865129 -0.7350981832
3.045147896 -0.8336294293 -0.7189401984
2.889064074 -0.7914425135 -0.574016273
2.957555532 -0.8113152981 -0.4790538847
4.97939682 -1.367815018 -0.6289023757
4.966432571 -1.365186095 -0.4469092488
5.557510376 -1.52974987 -0.299886167
5.563923836 -1.532559991 -0.1000353992
5.479792595 -1.49910152 0.0984646827
5.367002487 -1.469252467 0.2894189656
5.261373997 -1.442310452 0.4735789299
5.257205963 -1.443141103 0.664244473
5.511632442 -1.514017463 0.8986111879
5.483463287 -1.508338332 1.09721458
5.497510433 -1.51426661 1.306512356
5.474524975 -1.508963346 1.510002494
2.700369596 -0.7483711839 -0.7392392755
3.029221773 -0.840077579 -0.7157908678
2.907092094 -0.8073008657 -0.5782140493
2.973881483 -0.826407373 -0.4821825624
4.703268528 -1.308752775 -0.5942915082
4.796579838 -1.336522222 -0.4319184721
5.542787075 -1.545488596 -0.2993628085
5.570096016 -1.555198908 -0.1002448276
5.524895191 -1.531150579 0.09937220812
5.527351379 -1.533908844 0.2984207869
5.425236702 -1.507610679 0.4889183342
5.491456509 -1.527045131 0.6947118044
5.512022495 -1.534837127 0.8995497823
5.484104633 -1.528094649 1.098359466
5.484950542 -1.530393839 1.304712772
5.478527546 -1.530663013 1.512590528
2.703452826 -0.7588881254 -0.7407921553
3.031898975 -0.8522284031 -0.717140615
2.906289101 -0.8174683452 -0.5785956979
3.214357615 -0.9053313732 -0.5222298503
4.681476116 -1.320312858 -0.5920978189
4.68474102 -1.322116375 -0.4221570194
4.66862011 -1.319326282 -0.252051115
5.54454422 -1.557456851 0.09982597083
5.518117905 -1.552112222 0.2982114255
5.52377224 -1.554742932 0.4983311594
5.503288746 -1.55105114 0.6969054937
5.497125626 -1.551385522 0.8979854584
5.486294746 -1.549362779 1.099885941
5.477699757 -1.549000263 1.304262877
5.469433784 -1.54872489 1.511555314
2.691496611 -0.7656773925 -0.7382039428
3.047647715 -0.8681451678 -0.7216396332
2.892089128 -0.8243790269 -0.5763059258
3.226374149 -0.9208834767 -0.5247327685
4.678748131 -1.33719182 -0.5923416018
4.668604374 -1.335174203 -0.4211111367
4.681267262 -1.340563536 -0.2529931664
4.669110298 -1.338845849 -0.08408389986
5.516507626 -1.572459579 0.2984207869
5.51447916 -1.572922111 0.4979825318
5.51502037 -1.575158358 0.6990991235
5.487879276 -1.569478631 0.8973597288
5.492177963 -1.571744919 1.102175713
5.479752541 -1.570258856 1.30606246
5.471422195 -1.56993866 1.51362586
2.679526091 -0.7723923922 -0.7356157899
3.052087784 -0.8809399009 -0.7234392166
2.908055782 -0.8399169445 -0.5801221728
3.223140001 -0.9321399927 -0.5247327685
4.96197176 -1.436891556 -0.6291461587
4.671569824 -1.35368073 -0.4218084216
4.674641132 -1.356339574 -0.2528884709
4.662488461 -1.354577899 -0.08404899389
4.659316063 -1.343961596 0.08394428343
5.518660545 -1.593922734 0.2988394499
5.508955002 -1.592161536 0.4979825318
5.509488106 -1.594399691 0.6990991235
5.488059044 -1.590274692 0.8982983232
5.486658096 -1.59090662 1.102175713
5.481724262 -1.591550589 1.307862163
5.462198257 -1.587949038 1.512590528
2.68423152 -0.7839071751 -0.737686336
3.034030914 -0.8872125745 -0.7198399901
2.910758972 -0.8517169952 -0.5812669992
3.193327188 -0.9356095195 -0.5203526616
5.356935978 -1.571553826 -0.6803312302
5.580617905 -1.63823247 -0.5051293373
5.102938175 -1.499940872 -0.2765443325
5.551675797 -1.633946896 -0.1003146321
4.641160965 -1.356291175 0.08369994909
5.520730495 -1.61542058 0.2992581427
5.50909996 -1.613061309 0.4985054433
5.500079155 -1.612504601 0.6986116767
5.491951466 -1.612203717 0.8998626471
5.467885494 -1.60617578 1.099504352
5.476135254 -1.610675573 1.307862163
5.456622124 -1.607006073 1.512590528
2.685183525 -0.7943682075 -0.7387216091
3.023441553 -0.8955842257 -0.7180404067
2.90776825 -0.8618722558 -0.5812669992
3.197616577 -0.9489985704 -0.5216041207
5.418018341 -1.610034227 -0.6888620853
5.574865341 -1.657702684 -0.5051293373
5.48625803 -1.633439541 -0.2977927327
5.551687717 -1.655030012 -0.10041935
5.526093006 -1.635854244 0.09989578277
5.507398605 -1.632411361 0.2988394499
5.507256031 -1.633415103 0.4988540709
5.490611076 -1.630563498 0.6981242299
5.486290455 -1.631364584 0.8998626471
5.466008663 -1.626372218 1.100267529
5.464876175 -1.628111959 1.306512356
5.450979233 -1.62604332 1.512590528
2.687946081 -0.8053998947 -0.7402745485
3.037095785 -0.9111722708 -0.7220894694
2.897220373 -0.8697589636 -0.5797405243
3.198067904 -0.9612918496 -0.5222298503
5.41236496 -1.628937125 -0.6888620853
5.576675892 -1.679450512 -0.5058265924
5.524503708 -1.665841818 -0.3002001941
5.528011322 -1.657431364 0.1000353992
5.497840881 -1.65047729 0.2986300886
5.511062145 -1.655494928 0.4997256696
5.488687992 -1.650862932 0.6986116767
5.484344959 -1.651644468 0.9004884362
5.473457336 -1.649407744 1.10293889
5.462891102 -1.648303509 1.307412148
5.460064888 -1.649530411 1.516731739
2.679572582 -0.8130947351 -0.7387216091
3.035761356 -0.9223347902 -0.7225394249
2.897923708 -0.8810089827 -0.5805037618
3.192803144 -0.9718741179 -0.5219169855
5.440825462 -1.658236742 -0.693249464
5.574591637 -1.700068831 -0.50617522
5.545397758 -1.693281651 -0.3016656041
5.436733246 -1.662176013 -0.09853449464
5.529845238 -1.679041266 0.1001750156
5.472937107 -1.663848758 0.2975833714
5.503343582 -1.674142241 0.499551326
5.494285583 -1.673482418 0.7000740767
5.476657391 -1.670202017 0.9001755714
5.478932381 -1.671941161 1.105228543
5.468286037 -1.670779347 1.310111523
5.454273224 -1.668579698 1.516731739
2.678564787 -0.8230106831 -0.7392392755
3.03811121 -0.9346449971 -0.7238891125
2.909841537 -0.8957400918 -0.5835567117
3.18372798 -0.9812675714 -0.5209783912
5.433107376 -1.676633358 -0.693005681
5.532141685 -1.712483764 -0.100384444
5.514394283 -1.695395708 0.1000004932
5.5090909 -1.695870161 0.299886167
5.489849567 -1.69099617 0.4988540709
5.495998383 -1.694990754 0.7010490298
5.470793724 -1.68930912 0.9001755714
5.465560436 -1.688738108 1.103702068
5.469867706 -1.692160726 1.311911106
5.44103384 -1.685321927 1.514661074
2.673830748 -0.831781745 -0.7387216091
3.023666382 -0.9417672157 -0.7211896777
2.901073933 -0.9041393995 -0.5824118257
3.157654762 -0.985313952 -0.5172238946
5.560684681 -1.738350391 -0.5060008764
5.535347462 -1.73255074 -0.3017702699
5.533763409 -1.734176159 -0.1005240604
5.505043983 -1.715684414 0.2999908328
5.487718105 -1.71133554 0.4992026985
5.482468605 -1.711798549 0.7000740767
5.481832027 -1.713699818 0.9029913545
5.459632397 -1.70780611 1.103702068
5.471366405 -1.713573575 1.313710809
5.448021889 -1.708350897 1.518284678
2.685652018 -0.8457522988 -0.742862761
3.014785051 -0.9505580068 -0.7198399901
2.89228344 -0.9124885798 -0.5812669992
3.142894506 -0.992760241 -0.5153467059
3.354447365 -1.060872316 -0.4268430173
5.529582024 -1.754086733 -0.1005589664
5.426133633 -1.709812164 0.09860429913
5.49330759 -1.73308742 0.2996768057
5.489310265 -1.732879877 0.4998999536
5.4840312 -1.733318448 0.7010490298
5.477700233 -1.73342073 0.9033042789
5.451766014 -1.726260662 1.103320479
5.456063747 -1.729717135 1.311461329
5.447549343 -1.729110837 1.519837618
2.686364889 -0.8562952876 -0.7438979745
3.015161514 -0.9622607231 -0.7207397819
2.890951157 -0.9231761098 -0.5816486478
3.158225298 -1.00974071 -0.5184754133
3.337489843 -1.06833899 -0.4251368344
5.513483524 -1.758516908 0.1003146321
5.477711678 -1.749214172 0.299153477
5.492717266 -1.755062461 0.5007715225
5.470384598 -1.750031233 0.7000740767
5.471616268 -1.752531052 0.9033042789
5.462533474 -1.750673056 1.106755137
5.448136806 -1.748156548 1.311011434
5.441480637 -1.748115897 1.519837618
2.677843809 -0.8638877869 -0.7423450947
3.017347574 -0.9745767117 -0.7220894694
2.883974791 -0.9320542812 -0.5808854103
3.162199259 -1.023191214 -0.5197268724
3.343182564 -1.083041191 -0.4263555408
5.178278446 -1.678528666 -0.4725330472
5.174951077 -1.679446816 -0.2829293311
5.193892002 -1.687597871 -0.09462515265
5.478974342 -1.771772861 0.5000742674
5.451022625 -1.764835835 0.6983679533
5.459827423 -1.769792318 0.9023656249
5.465726376 -1.772758603 1.108663201
5.447562218 -1.768969178 1.312361121
5.431671143 -1.765904903 1.518802285
2.667465925 -0.8708317876 -0.7402745485
3.028745651 -0.9899466634 -0.7256886959
2.899363756 -0.9482182264 -0.5847015977
3.139835119 -1.028076291 -0.516598165
3.331836224 -1.092231035 -0.4253805578
5.503688812 -1.805263877 -0.5030375719
5.199367523 -1.709464908 -0.09483458102
5.155118465 -1.683956742 0.09396196157
5.127466202 -1.676904678 0.2805218697
5.22034359 -1.710305929 0.6693630219
5.446108818 -1.786377072 0.9011141062
5.450178146 -1.788765907 1.106755137
5.443205357 -1.788582206 1.312811017
5.42547369 -1.784854293 1.518802285
2.673581839 -0.8831673861 -0.742862761
3.021571398 -0.999289155 -0.7247889042
2.896036148 -0.958333075 -0.5847015977
3.128726959 -1.036545157 -0.5153467059
3.343076468 -1.108854294 -0.4273304641
5.552191734 -1.842664123 -0.5080926418
5.527011395 -1.836449504 -0.3030263186
5.515936852 -1.834907889 -0.1007683948
5.272622585 -1.742732048 0.09623077512
5.136750221 -1.699812293 0.2813592255
5.135475636 -1.700385094 0.4695697427
5.138971806 -1.703533411 0.6596134901
5.14361763 -1.707066417 0.8516808152
5.430207729 -1.807442427 1.521908164
2.664986134 -0.8906575441 -0.7413098216
3.005128622 -1.005501866 -0.7216396332
2.926183701 -0.9796553254 -0.5915706754
3.110105753 -1.042437911 -0.5128437877
3.318484306 -1.113570333 -0.4246493578
5.509208679 -1.851912856 -0.3023982942
5.518974781 -1.857340336 -0.1009429246
5.497876167 -1.838496804 0.1004891619
5.477123737 -1.834746122 0.5016431212
5.415225029 -1.819268703 1.102175713
5.43485117 -1.830085397 1.525013924
2.681991816 -0.9067608714 -0.7470038533
3.007137775 -1.017859936 -0.7229892612
2.911588907 -0.9860848784 -0.5892809629
3.102706671 -1.052019238 -0.5122180581
3.352171659 -1.137908936 -0.4295241237
5.454297543 -1.852546334 -0.500248611
5.502710342 -1.871132374 -0.3023982942
5.508671284 -1.875304699 -0.1008731127
5.506578922 -1.862802863 0.1007683948
5.463374615 -1.850313067 0.3000955284
5.480120659 -1.857050776 0.5025146604
5.45404768 -1.850338221 0.702023983
5.464512348 -1.856015801 0.9073715806
5.447877407 -1.851426125 1.110189557
4.892850399 -1.66470921 1.183239102
5.435744286 -1.851536989 1.52708447
2.666014671 -0.9117411375 -0.7433803678
3.018315792 -1.033400536 -0.7265884876
2.915558577 -0.9987874627 -0.5908074975
3.084067345 -1.057716727 -0.5097150803
3.333159447 -1.144446135 -0.4275742173
5.538244247 -1.902646422 -0.5086155534
5.528252602 -1.901371837 -0.3041777015
5.506204128 -1.894863367 -0.1009429246
5.479883671 -1.87618351 0.301351577
5.467950821 -1.874230504 0.5019916892
5.464454174 -1.875163794 0.7042176127
5.454590797 -1.872843385 0.9067457914
5.448807716 -1.872984409 1.111716151
4.901751518 -1.686851501 1.186838388
5.425920963 -1.868294597 1.526049137
2.653687239 -0.9178843498 -0.7407921553
3.011189461 -1.042129278 -0.7256886959
2.900924206 -1.005102038 -0.5885177255
3.046947479 -1.056291461 -0.5040834546
3.381855965 -1.17371726 -0.4343989193
5.53533268 -1.923274994 -0.5089641809
5.510598183 -1.915758729 -0.3035497069
5.497668266 -1.913414717 -0.1009080261
5.48462534 -1.899221897 0.3019796014
5.46325779 -1.893958569 0.5021660328
5.463832378 -1.895226121 0.7049488425
5.457350254 -1.895111918 0.9083101153
5.437003136 -1.889109969 1.110571265
4.945826054 -1.720383406 1.198985696
5.419366837 -1.887223005 1.526049137
2.663394451 -0.931142211 -0.7444156408
3.007533312 -1.052633882 -0.7256886959
2.971691847 -1.040671587 -0.603782475
3.032057047 -1.062999487 -0.5022062063
3.141730547 -1.102681398 -0.4036878347
5.532683849 -1.942940474 -0.5093128085
5.488803864 -1.92968297 -0.3027123213
3.008758545 -1.052473307 0.05493837968
5.468536854 -1.915054202 0.3014562428
5.462587833 -1.914041519 0.5026890039
5.455310822 -1.913629889 0.7047051191
5.463748455 -1.918732047 0.9105002284
5.430376053 -1.908076882 1.110571265
5.436137676 -1.912233472 1.320459366
5.414567947 -1.906770349 1.526566744
2.660127878 -0.9404334426 -0.7444156408
2.97077322 -1.051422477 -0.7175904512
2.923625708 -1.035310268 -0.5946236849
3.035775423 -1.076217175 -0.503457725
3.160311937 -1.121608734 -0.4066126943
5.523991108 -1.961574435 -0.5091384649
5.50838089 -1.958196878 -0.3041777015
5.465336323 -1.945044041 -0.1005589664
2.982443333 -1.054967165 0.05451951921
5.467466831 -1.936131597 0.3017702699
5.46150732 -1.935094118 0.5032119155
5.441114426 -1.930006385 0.7037302256
5.453294754 -1.936470151 0.9098744988
5.432932377 -1.93030715 1.112479329
5.436773777 -1.933809757 1.322258949
5.418798447 -1.929547429 1.529672623
2.664105177 -0.9523143768 -0.746486187
2.956076384 -1.057846546 -0.7148910761
2.964354277 -1.061392426 -0.603782475
3.020842791 -1.082808137 -0.5015804768
3.077903032 -1.104473591 -0.3963756561
5.511484623 -1.978825212 -0.5086155534
5.499908924 -1.979004502 -0.1013268754
3.00322032 -1.074125886 0.05497328192
3.038771391 -1.088037491 0.1669528484
5.469724178 -1.95952189 0.5046063662
5.447423458 -1.953678608 0.7054363489
5.431628704 -1.950153947 0.9073715806
5.420618057 -1.947268724 1.111334443
5.418988228 -1.94881916 1.319559574
5.415665627 -1.949759603 1.530707955
2.668032408 -0.9642344117 -0.7485567927
2.945035696 -1.065506697 -0.713091433
2.980937481 -1.079084277 -0.6079802513
3.026330709 -1.096711516 -0.5031448007
2.98632288 -1.083392262 -0.3849199414
3.002446175 -1.08983469 -0.2757353783
5.459141254 -1.985885859 -0.1006985903
2.999452353 -1.084602594 0.05497328192
2.989882946 -1.082322598 0.1644407213
5.431005478 -1.967068672 0.5016431212
5.444303513 -1.974035144 0.7059237957
5.441499233 -1.975167751 0.910187304
5.43039608 -1.97221005 1.114769101
5.417646408 -1.969720602 1.320909262
5.412457466 -1.969973326 1.531743288
2.650134087 -0.9682381749 -0.7444156408
2.950449228 -1.079127192 -0.7153409719
2.953184605 -1.080712199 -0.6030192375
2.994661808 -1.097075939 -0.4984517395
3.001160145 -1.100645065 -0.3873573542
2.991892099 -1.093693018 0.05490347371
3.012345076 -1.102361798 0.1659061313
5.448427677 -1.994919538 0.5039091706
5.46347332 -2.00259161 0.7093361616
5.43086338 -1.992789268 0.9095616341
5.414263725 -1.987770677 1.112860918
5.427199841 -1.994670153 1.324958324
5.398295879 -1.986186147 1.529672623
2.653986692 -0.9801599979 -0.746486187
2.939353228 -1.086716533 -0.7135413885
2.991744518 -1.106679797 -0.6117964387
2.994518995 -1.108894587 -0.4990774691
3.051277876 -1.131124258 -0.3944257498
2.976802111 -1.099971414 0.05469404906
5.447036266 -2.016000748 0.5044320822
5.445281029 -2.01751256 0.7078737617
5.440542221 -2.017916918 0.9123774171
5.407291889 -2.0066576 1.112860918
5.431164742 -2.017674208 1.3276577
5.398572922 -2.007711172 1.531743288
2.650549173 -0.9894182086 -0.746486187
2.926414728 -1.093559504 -0.7112918496
2.974991083 -1.112303495 -0.6091251373
2.992479801 -1.120033145 -0.4993903935
3.034298658 -1.136892796 -0.3927195966
2.974550724 -1.117467642 -0.05476385728
2.982310772 -1.113853812 0.05486857146
5.453028679 -2.03988862 0.5056522489
5.430769444 -2.033723116 0.7068988085
5.435315132 -2.037588835 0.9126903415
5.392901421 -2.022762537 1.111334443
5.422264099 -2.035935163 1.327207923
5.402380943 -2.030621529 1.534849048
2.661539555 -1.004119754 -0.7506272793
2.920756578 -1.103079319 -0.7108419538
2.96925354 -1.121987343 -0.6087434888
2.995942354 -1.133267522 -0.5006418824
3.032168388 -1.148180604 -0.3929633498
2.979484081 -1.128825665 -0.2750381529
2.980574369 -1.130428553 -0.1648593992
3.015499592 -1.144878626 -0.05560157076
2.99337101 -1.129906774 0.05514780805
5.451466084 -2.061024666 0.50617522
5.438489437 -2.058288813 0.7088487148
5.420780659 -2.053750277 0.9114388824
5.407837868 -2.049925804 1.115913868
5.409658432 -2.05277586 1.325858116
5.402484417 -2.052211285 1.536919594
2.647187471 -1.009274602 -0.7475214601
