# .PCD v0.7 - Point Cloud Data file format
VERSION 0.7
FIELDS x y z
SIZE 4 4 4
TYPE F F F
COUNT 1 1 1
WIDTH 1242
HEIGHT 1
VIEWPOINT 0 0 0 1 0 0 0
POINTS 1242
DATA ascii
3.030636311 0.5338383913 -0.7004941702
3.460637569 0.6089593768 -0.6747633815
4.028419971 0.7074210048 -0.6411200762
4.890803337 0.8570998907 -0.6045285463
6.099897861 1.067893267 -0.5380741954
6.101202488 1.065926909 -0.3223906159
6.085276127 1.060958624 -0.1071210802
6.032026768 1.063607693 0.1062135547
6.023180485 1.059883356 0.318308413
5.99711132 1.054214001 0.5290099978
6.011002064 1.05449605 0.7441908121
5.98041153 1.046975017 0.9549276233
5.981148243 1.046031237 1.172011733
5.968646049 1.04169488 1.388844371
5.933229923 1.033379912 1.602141976
2.688842297 0.4649269879 -0.7195689678
3.024799824 0.5219300389 -0.6986945868
3.458873034 0.5962078571 -0.6740002036
3.988035679 0.6859866381 -0.6342369318
4.878112316 0.8373392224 -0.6025785804
6.12126112 1.049625874 -0.5396429896
6.1245718 1.047996044 -0.3234373331
6.120299339 1.046162605 -0.1076795533
6.071170807 1.048676252 0.1068418324
6.060121536 1.045675635 0.3200878501
6.040023804 1.040039778 0.5324962139
6.032254696 1.03653121 0.7463844419
6.028628349 1.034827948 0.9621236324
6.004114151 1.028459668 1.17582798
6.01642561 1.028407097 1.399192214
5.934720039 1.013374925 1.60162437
2.701877117 0.4574739635 -0.7226748466
3.026514053 0.5118972063 -0.6986945868
3.468676567 0.5854381919 -0.6755266786
4.019506931 0.677685082 -0.6389299631
4.845626354 0.8152287006 -0.5981913209
6.113099098 1.026271462 -0.5385971069
6.143771648 1.03032136 -0.3242747486
6.137719631 1.02710104 -0.1079238877
6.121934414 1.036548138 0.1076795533
6.09130621 1.029172182 0.3215532601
6.086840153 1.026235461 0.5363310575
6.076766491 1.02344358 0.7515029311
6.082854271 1.022288442 0.9702582359
6.048151016 1.015367866 1.183841944
6.050553799 1.013603091 1.406390548
5.940126419 0.9929724932 1.602141976
2.703379393 0.4485122561 -0.7226748466
3.035972595 0.502601862 -0.7004941702
3.474472523 0.5745737553 -0.676289916
4.053031921 0.6687948108 -0.6439358592
4.8797822 0.8034682274 -0.6020911336
6.10877943 1.003638625 -0.5378998518
6.139447689 1.007573962 -0.3238560557
6.131399155 1.00405848 -0.1077493578
6.123542786 1.014843583 0.1076446474
6.104712963 1.009536743 0.3220766187
6.105936527 1.008641362 0.5377255678
6.084219456 1.002875328 0.7519904375
6.074690819 0.9991239309 0.9683809876
6.057469845 0.9952087402 1.184986711
6.036748409 0.9896376133 1.402341604
5.937836647 0.9712943435 1.600589037
2.695470095 0.4370554388 -0.7200866342
3.030014038 0.4907556474 -0.6986945868
3.46105051 0.5593270659 -0.6732369661
4.04180479 0.6517349482 -0.6417457461
4.870798588 0.7845344543 -0.6006287336
6.13978529 0.9867333174 -0.5403402448
6.150987625 0.9863312244 -0.3242747486
6.121045589 0.9804343581 -0.1075050309
6.127047062 0.9934664369 0.1076446474
6.100313663 0.9869436622 0.3216579258
6.091888905 0.9833988547 0.5361567736
6.089642525 0.9819457531 0.7522341609
6.064488888 0.9757179618 0.9661909342
6.055262089 0.9720623493 1.183841944
6.055728436 0.9699721932 1.405940771
5.929745674 0.948728621 1.597483277
2.69507122 0.4273405373 -0.7195689678
3.054889679 0.4833016694 -0.7040933967
3.482373714 0.5503091812 -0.6770531535
4.036249638 0.636392653 -0.640494287
4.905016422 0.7716135383 -0.6045285463
6.135320187 0.9640566707 -0.5396429896
6.142554283 0.9629966617 -0.3236466944
6.116528034 0.9578227401 -0.107365407
6.11682272 0.9688088298 0.107400313
6.101748466 0.9653328061 0.3215532601
6.08347702 0.9602626562 0.5351108909
6.09320116 0.959620893 0.7522341609
6.06395483 0.9539273977 0.965565145
6.046980381 0.9490973353 1.181552172
6.05907774 0.9488261938 1.405940771
5.919660568 0.9259384871 1.593859792
2.700365067 0.4185214341 -0.7206043005
3.037217855 0.4701864421 -0.6995943785
3.46487093 0.5351523757 -0.6732369661
4.038338184 0.6230033636 -0.640494287
4.84084034 0.7450773716 -0.5962413549
6.126832008 0.9408215284 -0.5385971069
6.129920483 0.9402007461 -0.3228093386
6.121810913 0.9367699623 -0.107400313
6.104192734 0.9460704327 0.1071210802
6.103107452 0.9437209368 0.3214485943
6.082853794 0.9384153485 0.5347622633
6.074768066 0.9360824823 0.7495530844
6.067247391 0.9327557087 0.965565145
6.042332649 0.9278460145 1.180025697
6.058338165 0.9281393886 1.40504086
5.922856808 0.9052678347 1.593859792
2.705558062 0.4101427495 -0.7216395736
3.031133175 0.4584167302 -0.6977947354
3.482156515 0.5260044932 -0.676289916
4.058067799 0.6115532517 -0.6433101296
4.894450188 0.7358494401 -0.6025785804
6.137799263 0.9216837287 -0.5392944217
6.121313095 0.9170234203 -0.3221812844
6.126861095 0.9167612791 -0.1074352115
6.105480671 0.9244590402 0.1070861667
6.09237957 0.921387732 0.3207158744
6.089871883 0.918834269 0.5351108909
6.070147038 0.9136884212 0.7485781312
6.064446449 0.9117510319 0.9646265507
6.037768841 0.9055822492 1.178499222
6.038413525 0.9035268426 1.39964211
5.923915863 0.8853347898 1.593342185
2.706973076 0.4006966352 -0.7216395736
3.04420352 0.4500718415 -0.7004941702
3.491740227 0.5149928927 -0.6778163314
4.052257061 0.596940279 -0.6420586705
4.853655815 0.7132639885 -0.5972163677
6.160692692 0.9031414986 -0.5410374999
6.112463951 0.8949815631 -0.3215532601
6.110237598 0.8924772739 -0.1070861667
6.106534481 0.9039128423 0.1070512682
6.073824883 0.896904707 0.3195644915
6.089100361 0.8969888091 0.5347622633
6.069215298 0.8929774165 0.7480906248
6.057821274 0.8891407847 0.9630622268
6.040738583 0.8855565786 1.178499222
6.029807091 0.8818042874 1.396942735
5.926970005 0.8646523356 1.593342185
2.700639248 0.390612185 -0.7195689678
3.041898251 0.4388869703 -0.6995943785
3.466224432 0.499491483 -0.6724737287
4.073868275 0.5856010914 -0.6451873779
4.848255634 0.6951910853 -0.5962413549
6.195363998 0.8861461282 -0.5438264608
6.12741375 0.8753327131 -0.3221812844
6.097477913 0.8688876033 -0.1068069339
6.105693817 0.8820210695 0.1069814488
6.076918602 0.8756989241 0.3195644915
6.080208778 0.8750898838 0.5337164402
6.074260712 0.8720698357 0.7483343482
6.045244217 0.8657476306 0.9605592489
6.043793201 0.8644663095 1.178499222
6.032848835 0.8607493639 1.396942735
5.916563988 0.8420510888 1.589718699
2.702052593 0.3807118237 -0.7195689678
3.054990292 0.4298945367 -0.7022937536
3.475808144 0.4878760576 -0.6740002036
4.07207489 0.5701188445 -0.6445615888
4.87424469 0.681563139 -0.5991662741
6.22999239 0.8689168096 -0.5466154218
6.122667313 0.8517692685 -0.3217625916
6.106415749 0.8484220505 -0.1069116443
6.090914249 0.8581931591 0.1066673175
6.081915855 0.8547574878 0.3196691573
6.073509693 0.8514143825 0.5328448415
6.075302124 0.8505845666 0.7480906248
6.052141666 0.8451881409 0.9611849785
6.039142609 0.8412239552 1.176972866
6.032102108 0.8380969763 1.396042824
5.89841795 0.8184737563 1.584024668
2.707192898 0.3718025684 -0.7206043005
3.05268383 0.4181662798 -0.7013939619
3.477490187 0.4757393301 -0.6740002036
4.056425095 0.5534984469 -0.6417457461
4.876710415 0.6636900306 -0.5991662741
6.232987404 0.8471660614 -0.5466154218
6.109770775 0.8282439709 -0.3209252357
6.111465931 0.8263044953 -0.1069465503
6.082132339 0.8342311382 0.1064578816
6.08302927 0.8321910501 0.3195644915
6.078419685 0.8304768801 0.5330191851
6.056742668 0.8253646493 0.7454094887
6.05324173 0.8227356076 0.9608721733
6.022587299 0.8174987435 1.1731565
6.040783882 0.8178214431 1.397392631
5.920523643 0.7994329929 1.589200974
2.714218855 0.3631182015 -0.7221571803
3.042535305 0.4059607089 -0.6986945868
3.498590231 0.4661899209 -0.6778163314
4.058332443 0.5393344164 -0.6417457461
4.890804291 0.6482313871 -0.6006287336
9.194700241 1.217036128 -0.8077340722
6.106683731 0.8061318994 -0.3206112087
6.112330914 0.8047038317 -0.1069116443
6.081042767 0.8124670386 0.1063880697
6.072038651 0.8091039658 0.3188318014
6.07535553 0.8084698319 0.5324962139
6.045811653 0.8023878336 0.7437033057
6.056077003 0.8015992641 0.9608721733
6.021512985 0.7959549427 1.172393322
6.030078411 0.7949457765 1.39424324
5.921361923 0.7785139084 1.588683367
2.719301224 0.3541411459 -0.723192513
3.051663876 0.3963409066 -0.7004941702
3.48462081 0.4519553185 -0.6747633815
4.066067696 0.5259239674 -0.6426844001
4.89697504 0.6316620111 -0.6011161804
6.115403652 0.7855725288 -0.3209252357
6.097114563 0.7821385264 -0.1065975055
6.087808132 0.791749537 0.1064578816
6.06478548 0.7876760364 0.318308413
6.074188709 0.7867444158 0.5321475863
6.052513123 0.7817890048 0.7441908121
6.048905849 0.7802497745 0.9593077898
6.024254322 0.7749323845 1.172393322
6.013487816 0.7714108825 1.389744282
5.937324524 0.7605903149 1.592306852
2.714771032 0.3439177275 -0.7216395736
3.052961349 0.3862211108 -0.7004941702
3.474490643 0.4383137524 -0.6724737287
4.077588558 0.5136728287 -0.644248724
4.875407696 0.6124491096 -0.5981913209
9.123894691 1.142914057 -0.8007615805
6.106084347 0.7637996674 -0.3202971816
6.089885712 0.7596175671 -0.1064229831
6.090400219 0.7715555429 0.1064578816
6.069479465 0.7667557001 0.3184131086
6.072944641 0.7650371194 0.5317989588
6.057041645 0.761962831 0.7444345355
6.039832592 0.757653594 0.9574305415
6.022894382 0.7544640899 1.171630144
6.017945766 0.7517079115 1.390194178
5.93035841 0.7386651039 1.589718699
2.71014452 0.3342045844 -0.7200866342
3.065896034 0.3769881129 -0.7031936049
3.483793497 0.4271408916 -0.6740002036
4.065631866 0.4977567494 -0.6420586705
4.928747177 0.6016846299 -0.6045285463
9.108050346 1.108648896 -0.7990184426
6.10884285 0.7414159775 -0.3202971816
6.092500687 0.73835361 -0.1064229831
6.081147671 0.748829186 0.1062484533
6.074100971 0.745806396 0.3185177743
6.063582897 0.7434436679 0.5307531357
6.045871735 0.7391273379 0.7427283525
6.036557674 0.735850215 0.9564919472
6.019773006 0.7316689491 1.170485258
6.010860443 0.7295241356 1.387944698
5.929065228 0.7174940705 1.588683367
2.713269472 0.3244991899 -0.7206043005
3.059516668 0.3648262024 -0.7013939619
3.485336065 0.4143667221 -0.6740002036
4.063505173 0.4823872447 -0.6414328814
4.89543581 0.5794124007 -0.6001412272
9.112052917 1.075260758 -0.7990184426
6.099617481 0.7176221013 -0.3196691573
6.087221146 0.7150865793 -0.1062833592
6.069952488 0.724871397 0.1060041189
6.076793671 0.7235400081 0.3185177743
6.062310696 0.720739603 0.5304045081
6.038683891 0.7157961726 0.741509676
6.04313755 0.7141852379 0.9571176767
6.004866123 0.7075341344 1.167050719
6.01542902 0.7077172995 1.388394594
5.937410831 0.6964345574 1.590236306
2.718278646 0.3149977028 -0.7216395736
3.045346737 0.3518201113 -0.6977947354
3.498462915 0.4035503268 -0.676289916
4.06328392 0.4672638476 -0.6411200762
4.885694027 0.5601103902 -0.5986788273
9.107833862 1.042538524 -0.7983212471
6.094148159 0.6954187155 -0.3192504644
6.089801311 0.6927694678 -0.1062833592
6.080514431 0.7035397291 0.1061437428
6.059564114 0.698975265 0.3174710572
6.062932014 0.6982886791 0.5302301645
6.0353508 0.6929776073 0.7407784462
6.035902023 0.6909064054 0.9555533528
6.005348206 0.6863472462 1.166669011
6.012174129 0.6850015521 1.387044787
5.93608427 0.6742334366 1.589200974
2.725121021 0.3061535656 -0.723192513
3.069795847 0.3437910378 -0.7031936049
3.501801252 0.3915531933 -0.676671505
4.0707798 0.4537348151 -0.6420586705
4.899456501 0.5443665981 -0.6001412272
9.107457161 1.010302544 -0.7979726791
6.096538067 0.6741402745 -0.3192504644
6.074293613 0.6695373654 -0.1059692204
6.074984074 0.6814172268 0.1060041189
6.048072815 0.676263988 0.3167383671
6.06137228 0.6766771078 0.529881537
6.033786297 0.6714681387 0.7402909994
6.036313534 0.6696164608 0.9552404881
6.009658813 0.6655979156 1.167050719
6.004843712 0.6629430056 1.384795427
5.944162369 0.6541409492 1.590753913
2.720411301 0.2960128784 -0.7216395736
3.074851751 0.3334927857 -0.7040933967
3.497291565 0.3786922991 -0.6755266786
4.088050365 0.4412170053 -0.6445615888
4.9210639 0.5293852091 -0.6025785804
9.071307182 0.974247694 -0.7944863439
6.090910912 0.6520062089 -0.3188318014
6.062674999 0.6468433738 -0.1057248861
6.077325821 0.6602087021 0.1060041189
6.056353569 0.6557915807 0.3170523643
6.045869827 0.653588891 0.5283127427
6.038067818 0.650613308 0.7405347228
6.022902012 0.6468526125 0.9527375698
6.006090164 0.6439867616 1.165905833
6.001308441 0.6413553953 1.383445621
5.92527914 0.6311383843 1.58506
2.721428156 0.2865143418 -0.7216395736
3.072121143 0.3223514557 -0.7031936049
3.4985919 0.3664828837 -0.6755266786
4.075812817 0.4255094528 -0.6423715353
4.911035538 0.5109727979 -0.6011161804
9.074652672 0.9425746202 -0.7944863439
6.081229687 0.6295083761 -0.3182037473
6.068873882 0.6260884404 -0.1057946905
6.067660809 0.6377379894 0.1057946905
6.054632664 0.6342320442 0.3168430328
6.032261372 0.6308243871 0.5269182324
6.046224594 0.6301511526 0.741265893
6.017263412 0.6250068545 0.9514860511
6.000489712 0.6222089529 1.164379358
6.007387638 0.6208019853 1.384345412
5.917837143 0.6094631553 1.582471728
2.726158619 0.2783563137 -0.7226748466
3.065363646 0.3119085431 -0.7013939619
3.511445045 0.3566809893 -0.6778163314
4.065337181 0.4115080237 -0.640494287
4.908666611 0.4951419532 -0.6006287336
9.097552299 0.914475739 -0.7962294817
6.079202652 0.6100000143 -0.3179944158
6.062851906 0.6062248349 -0.1056550741
6.063666344 0.618062675 0.1056899726
6.056595325 0.6152089238 0.3168430328
6.032231331 0.6116676331 0.5267439485
6.028424263 0.6091586947 0.7388285398
6.017232418 0.6059032083 0.9511731863
5.986787319 0.6017851233 1.161326408
6.013186455 0.6023157835 1.385245204
5.923567772 0.5912507772 1.583507061
2.73100543 0.2687402368 -0.7237101197
3.066433668 0.301207155 -0.7013939619
3.508821011 0.3434251249 -0.6770531535
4.100241184 0.3998654187 -0.6458130479
4.894559383 0.4764668941 -0.5986788273
6.177625179 0.5991919041 -0.5392944217
6.07344532 0.5869473815 -0.3175757229
6.068912029 0.5854402184 -0.1057248861
6.05981636 0.5963065624 0.1055852622
6.048767567 0.5930876136 0.3163196743
6.034432888 0.5895556211 0.5267439485
6.022611141 0.5873395801 0.7378535867
6.029141426 0.5858520269 0.9527375698
5.992861271 0.5802152753 1.162089705
5.999835968 0.5787767768 1.381646037
5.915980816 0.5696455836 1.580918789
2.731926918 0.2592061758 -0.7237101197
3.067517042 0.2899653316 -0.7013939619
3.519771099 0.3320977688 -0.6789612174
4.079978466 0.383515805 -0.6423715353
4.916037083 0.4603738785 -0.6011161804
6.140003681 0.5739141703 -0.535808146
6.079434872 0.5661122799 -0.3177850842
6.062954426 0.5635102987 -0.1055852622
6.063952446 0.5742792487 0.1056201681
6.02892828 0.5699006915 0.3151682615
6.032486439 0.568112731 0.5263953209
6.01681757 0.5645212531 0.7368786335
6.023282051 0.5640644431 0.9514860511
5.992895126 0.5591115952 1.161707997
5.995998383 0.5572872162 1.38029635
5.925627708 0.5497065187 1.582989454
2.72127223 0.2486131191 -0.7206043005
3.072342873 0.2801474631 -0.7022937536
3.507222652 0.3185653687 -0.676289916
4.08319521 0.3701632023 -0.6426844001
4.913582325 0.4437130988 -0.6006287336
6.136016846 0.5519438982 -0.5352852345
6.073322296 0.5452359319 -0.3173663914
6.048950195 0.5409196615 -0.1053060293
6.065823555 0.5541684628 0.1056201681
6.038837433 0.549577713 0.3155869842
6.028480053 0.5465135574 0.5258724093
6.018656731 0.5445640087 0.7368786335
6.015377045 0.5421504974 0.9499217272
5.992761135 0.5390578508 1.161326408
5.993931293 0.5370512009 1.379396558
5.923661709 0.5286738276 1.581954122
2.716308594 0.2390788049 -0.7190513611
3.084950209 0.2704415917 -0.7049931884
3.516083002 0.3076167107 -0.6778163314
4.092333794 0.3565946519 -0.6439358592
4.934877872 0.4282761216 -0.6030660868
6.090266228 0.5264024734 -0.5311017036
6.079167366 0.5243772864 -0.3175757229
6.054786205 0.5201422572 -0.1053758338
6.047801018 0.531242907 0.1052711233
6.044698715 0.5288414359 0.3157962859
6.018350124 0.5254808068 0.5248265266
6.024476528 0.5238940716 0.7373661399
6.00739336 0.5202986598 0.9483573437
5.982871056 0.5171199441 1.159036756
5.99382782 0.5159622431 1.378946662
5.902373314 0.5060114264 1.575742364
2.722941637 0.2296089977 -0.7206043005
3.081991673 0.2593438029 -0.7040933967
3.505448818 0.2937447131 -0.6755266786
4.071959496 0.3397871256 -0.640494287
4.932385921 0.4107167423 -0.6025785804
6.088095188 0.5048152208 -0.5307531357
6.065124989 0.5007761717 -0.3167383671
6.056564808 0.4990080893 -0.1053758338
6.049618721 0.510127306 0.1052711233
6.04451704 0.5075752735 0.3156916499
6.012294292 0.5027532578 0.5241292715
6.008464336 0.5013799667 0.7351724505
6.022953033 0.5004692674 0.9505474567
5.972986221 0.4942181408 1.156746984
5.997620583 0.4941515923 1.379396558
5.906029701 0.4855647385 1.57626009
2.735279799 0.2210356593 -0.7237101197
3.086806297 0.248359248 -0.7049931884
3.539720774 0.2841765583 -0.6820141673
4.100687504 0.3277736604 -0.6448744535
4.933857918 0.3926369846 -0.6025785804
6.095863342 0.4829654694 -0.5312760472
6.050907612 0.4783439338 -0.3159009516
6.058353424 0.4768018723 -0.1053758338
6.043473721 0.4873093069 0.1051314995
6.024437904 0.4836550951 0.314540267
6.021956444 0.4824010134 0.5248265266
5.998389244 0.4784031212 0.7337100506
6.022777557 0.4782356024 0.950234592
5.970760822 0.473053813 1.155983806
5.983767509 0.4719855189 1.375797391
5.905842781 0.4637648463 1.575742364
2.739923954 0.2113065571 -0.7247454524
3.072110415 0.2363859117 -0.7013939619
3.511375666 0.2689526379 -0.676289916
4.090044022 0.3118415773 -0.6429972649
4.907487392 0.3733029962 -0.5991662741
6.099498749 0.461838603 -0.5314503908
6.044653416 0.4555611014 -0.3154822886
6.040039539 0.4541561604 -0.1050267816
6.039156914 0.4657477736 0.1050267816
6.022106171 0.4623212516 0.3143309057
6.021697521 0.460172832 0.5246521831
6.003980637 0.4577679038 0.734197557
5.99289465 0.4548158646 0.9452286363
5.972454548 0.4511680305 1.155983806
5.981570721 0.4497598112 1.37489748
5.909353256 0.443289727 1.57626009
2.725231647 0.2006071806 -0.7206043005
3.084617376 0.2259794474 -0.7040933967
3.514250994 0.2568378747 -0.676671505
4.091107845 0.2975616753 -0.6429972649
4.94050169 0.3576077521 -0.6030660868
6.081201553 0.4391080737 -0.529707253
6.058160305 0.4353187382 -0.3161103129
6.037675381 0.431725651 -0.1049569771
6.056777954 0.4447830617 0.1053060293
6.025752544 0.44039011 0.3144355714
6.01333189 0.4384272993 0.5237807035
6.005619049 0.4357547462 0.734197557
5.990581036 0.4325645864 0.9446029663
5.979867935 0.4307390749 1.157128692
5.975328922 0.4283185899 1.373097897
5.907083988 0.4213542938 1.575224757
2.722061157 0.1908234954 -0.7195689678
3.09316349 0.2157537937 -0.7058929801
3.530794382 0.2456601411 -0.6797244549
4.094091892 0.2834165096 -0.6433101296
4.969445229 0.3422682285 -0.6064783931
6.076734066 0.4174696207 -0.5291843414
6.071598053 0.4149846733 -0.3167383671
6.035155296 0.4103775024 -0.1048871651
6.036351204 0.4221022129 0.1049220785
6.023268223 0.419077605 0.3142262399
6.008862495 0.4170187414 0.5232577324
6.001162052 0.4143824875 0.7334663272
5.980229855 0.4108398259 0.942725718
5.977417469 0.4095984995 1.156365395
5.941791534 0.4050707817 1.364999652
5.893099308 0.3996848166 1.571083784
2.734276056 0.182090044 -0.7226748466
3.078341722 0.2039240003 -0.7022937536
3.523794651 0.232815221 -0.6781979799
4.095056534 0.2691226304 -0.6433101296
4.942877769 0.3231078088 -0.6030660868
6.082130909 0.3965129554 -0.529532969
6.053079128 0.3924972713 -0.3156916499
6.036550522 0.3893096447 -0.1048871651
6.02781105 0.4003674686 0.1047475487
6.020708561 0.3977849782 0.3140168786
6.002328873 0.3955185711 0.5225604773
6.010495186 0.3939496875 0.7344412804
5.983598232 0.3900893331 0.9430385828
5.970974445 0.3882198036 1.15483892
5.982062817 0.3868440092 1.373997688
5.886746883 0.3786168993 1.569013119
2.746463299 0.1732749343 -0.7257806659
3.080980062 0.1932985485 -0.7027437091
3.544179916 0.2217401266 -0.6820141673
4.093999386 0.2547028363 -0.6429972649
4.932087898 0.3051152527 -0.6016036272
6.081489563 0.3751556277 -0.5293586254
6.036470413 0.3702635169 -0.3147495687
6.041864872 0.3684805632 -0.1049569771
6.029171467 0.3793253303 0.1047475487
6.01209259 0.3761440516 0.31349352
6.017593384 0.375433892 0.5237807035
8.791574478 0.5454202294 1.076406717
5.98492384 0.3691986799 0.9430385828
8.768571854 0.5393847823 1.699407697
5.96198082 0.3646501303 1.369048715
5.899602413 0.3587680161 1.572118998
2.739337444 0.1632265747 -0.7237101197
3.081635952 0.1825433969 -0.7027437091
3.535133123 0.2087875754 -0.6801061034
4.106695175 0.2411060482 -0.6448744535
4.929159164 0.2876669466 -0.6011161804
6.08673954 0.354157716 -0.529707253
6.037725925 0.3491913378 -0.3147495687
6.035068035 0.3479808271 -0.1048173606
6.034451485 0.3585128784 0.1048173606
5.995364189 0.3551405966 0.3125514686
6.018867493 0.3544246554 0.5237807035
8.787479401 0.5143782496 1.075675368
5.956535339 0.3476248682 0.9383456111
8.760602951 0.508202672 1.697499752
5.961271763 0.3437257707 1.368598938
5.904616833 0.3394251466 1.57315433
2.732175112 0.1532313824 -0.7216395736
3.090007305 0.172759071 -0.7045433521
3.524079084 0.1957936734 -0.6778163314
4.127195835 0.2285796255 -0.6480031013
4.957835197 0.2728454173 -0.6045285463
6.074013233 0.3321457505 -0.5284870863
6.036857128 0.3290572166 -0.3146449029
6.020271301 0.3260456622 -0.1045381203
6.035607338 0.3385011256 0.1048173606
6.002549648 0.3345425427 0.3128654957
6.004152298 0.3325325549 0.5223861337
8.789135933 0.485232681 1.075675368
5.941933155 0.3259661496 0.9358425736
8.762239456 0.4791462719 1.697499752
5.948758125 0.3232167065 1.365449548
5.882617474 0.3175609112 1.566942573
2.728810072 0.1439673007 -0.7206043005
3.098375559 0.1623790115 -0.7063429356
3.530590534 0.1844142675 -0.6789612174
4.096405029 0.2125329375 -0.6429972649
4.97065258 0.256151706 -0.6059910059
6.063196182 0.3103345931 -0.5274412036
6.041957855 0.3081874251 -0.3148542345
6.025367737 0.3052326441 -0.1046079323
6.022773743 0.3166942 0.1045730188
6.007669449 0.3138001859 0.3130748272
5.989305019 0.3117899597 0.520991683
8.796724319 0.4548634887 1.076406717
5.96078968 0.3061332107 0.9386584163
8.757975578 0.4482623339 1.696354866
5.951796055 0.3025470376 1.365899444
5.875972271 0.2966364622 1.564872026
2.740896463 0.1345309913 -0.7237101197
3.079459429 0.1506113559 -0.7018439174
3.533204079 0.1715653986 -0.6793428659
4.097156525 0.1975183487 -0.6429972649
4.97548151 0.238988474 -0.6064783931
6.06424284 0.2891665697 -0.5274412036
6.043046951 0.286041826 -0.3148542345
6.022401333 0.2840111852 -0.1045381203
6.009860992 0.2949810326 0.1043286845
6.012718201 0.2930204272 0.3132841885
5.992397308 0.2899335623 0.521165967
5.980714321 0.2883220911 0.7300539017
5.969714165 0.2857033312 0.9399098754
5.933697224 0.2819009125 1.146443367
5.939239025 0.2800893188 1.362750173
5.876972198 0.276122123 1.564872026
2.752928734 0.1254923642 -0.7268159389
3.091671467 0.1398511529 -0.7045433521
3.537703514 0.1594103426 -0.6801061034
4.105714321 0.1835672259 -0.644248724
4.948560238 0.2195203155 -0.6030660868
6.069196224 0.268170923 -0.5277898312
6.028046131 0.2642445564 -0.3140168786
6.027351856 0.2631601989 -0.1046079323
6.016894817 0.2732252777 0.1044334024
6.001733303 0.2714872062 0.3126561344
5.995363235 0.269102186 0.5213403106
5.975780964 0.2661361098 0.7293227911
5.966728687 0.2646867037 0.9392842054
5.940529346 0.261449784 1.147588134
5.940180779 0.2593542337 1.362750173
5.88176012 0.2557778955 1.565907359
2.745629311 0.1155564263 -0.7247454524
3.084330082 0.1292707473 -0.7027437091
3.538238764 0.1470595449 -0.6801061034
4.124063969 0.1706852168 -0.647064507
4.973062038 0.2040868402 -0.6059910059
6.074077129 0.247147128 -0.5281384587
6.026893139 0.2441737205 -0.3139122128
6.012248516 0.2414784431 -0.1043286845
6.015770435 0.253188163 0.1043985039
5.990671158 0.2500371337 0.31202811
6.000247478 0.2483360022 0.5216889381
5.972664356 0.2461531162 0.7288352847
5.967616081 0.2438557446 0.9392842054
5.94920969 0.2420664281 1.149114609
5.960479736 0.2404382527 1.367249131
5.882616997 0.2352435887 1.565907359
2.745997429 0.1064501926 -0.7247454524
3.100340843 0.1191042289 -0.7063429356
3.534783125 0.135174498 -0.6793428659
4.120686531 0.156141758 -0.6464388371
4.961841583 0.1862781942 -0.6045285463
6.051010132 0.2250529081 -0.5260466933
6.031700611 0.2232806087 -0.3141215444
6.009058475 0.2203421593 -0.10425888
6.016617298 0.23218894 0.1043985039
5.993503571 0.2291990072 0.3121328056
5.987101555 0.2279106379 0.5204687715
5.979438305 0.2255259752 0.7295665145
5.962509155 0.2228061855 0.9383456111
5.955904484 0.2215156704 1.150259495
5.951544762 0.2192761749 1.364999652
5.867958069 0.2141427994 1.561766148
2.738646507 0.09611447155 -0.7226748466
3.094895124 0.1080764383 -0.7049931884
3.547027349 0.1226257309 -0.6816325188
4.123205185 0.141104117 -0.6467516422
4.974365711 0.1693633348 -0.6059910059
6.045785904 0.2037295401 -0.5255237818
6.030482769 0.201106593 -0.3140168786
6.009790897 0.1993636936 -0.10425888
6.003401756 0.2106930465 0.1041541696
5.99426651 0.2082805037 0.3121328056
5.973958015 0.2054843158 0.5192485452
5.988124371 0.2049252987 0.7305414081
5.959301949 0.2018564343 0.9377198219
5.948827744 0.1994229108 1.14873302
5.954257011 0.197521463 1.365449548
5.864808083 0.1935322881 1.560731053
2.738965273 0.0865534991 -0.7226748466
3.097218275 0.09679391235 -0.7054431438
3.543509007 0.1101206318 -0.6808692813
4.103928566 0.1261047721 -0.6436229944
4.963047981 0.1507696807 -0.6045285463
5.986715317 0.1808213294 -0.5202944279
6.003198624 0.1792219132 -0.3125514686
5.994490147 0.1768648922 -0.1039796397
5.994139671 0.188375324 0.1039796397
5.996985912 0.1863666475 0.3122374713
5.976630688 0.1846928596 0.5194228888
5.968994141 0.1823686063 0.7281040549
5.963951111 0.18013376 0.9383456111
5.937713623 0.1783012748 1.146443367
5.947118282 0.1765088439 1.363649845
5.86934042 0.1721499711 1.561766148
2.748906374 0.07726547122 -0.7252629995
3.093641281 0.08587304503 -0.7045433521
3.563497066 0.09829287976 -0.6846854687
4.126064777 0.112369068 -0.647064507
4.963543892 0.1334431767 -0.6045285463
5.923576355 0.1582187712 -0.5147164464
5.895972729 0.1554220617 -0.3068991899
5.913111687 0.1538085192 -0.1025485471
5.970774174 0.1667791158 0.1035607904
5.973641872 0.1647725403 0.3109813929
5.969272137 0.1636094451 0.5187256336
5.951734543 0.161049813 0.7259103656
5.96256876 0.1592602581 0.9380326867
5.934374809 0.1574707925 1.145680189
5.920425415 0.1550327092 1.357351303
5.869905472 0.1516595334 1.561766148
2.758815289 0.06790647656 -0.727851212
3.101714849 0.07526344061 -0.7063429356
3.542229176 0.08533401042 -0.6804876924
4.1224823 0.09787283093 -0.6464388371
4.942149162 0.1156043932 -0.6018473506
5.808622837 0.1328297108 -0.3022936285
5.81565237 0.1309622526 -0.1008382067
5.885359287 0.1438338012 0.1020598784
5.860370159 0.1411791444 0.3050150871
5.876191139 0.1405313611 0.5105329752
5.870894432 0.1383571327 0.7159171104
5.86632061 0.1362006068 0.9227020741
5.85049057 0.1348114908 1.129270554
5.850793839 0.1327752173 1.341154814
5.86460495 0.1310377866 1.560213327
2.743584156 0.05795021355 -0.7237101197
3.098062038 0.06435420364 -0.7054431438
3.528765202 0.0726865232 -0.6778163314
4.130698204 0.08364094794 -0.6476902962
4.956415653 0.09862986952 -0.6035535932
5.809000015 0.1145816296 -0.5046063662
5.795073509 0.1122834161 -0.3015609384
5.790082455 0.1101649627 -0.100384444
5.789860249 0.1212802455 0.100384444
5.816886425 0.1187995225 0.5053036213
5.845540524 0.117343545 0.7127485275
5.833185196 0.1150586754 0.9173833132
5.81951952 0.1137730926 1.123164654
5.818099022 0.111713782 1.333506465
5.807081223 0.1094745621 1.544684172
2.737975121 0.04827007651 -0.7221571803
3.102164745 0.05360755697 -0.7063429356
3.540775299 0.06056892127 -0.6801061034
4.121090412 0.06905700266 -0.6461259723
4.919017792 0.08071042597 -0.5989225507
4.887010098 0.07933212072 -0.4239001274
4.886791229 0.07762242854 -0.2539351881
5.774253845 0.1007911414 0.1001052111
4.832774639 0.08267001808 0.2511090636
5.749534607 0.09734851122 0.4993770421
5.750643253 0.09535948187 0.7010490298
5.730845451 0.09303031862 0.9011141062
5.723693848 0.09191507101 1.104465365
5.713234901 0.08974969387 1.30921185
5.720504761 0.08786670864 1.521390438
2.738127232 0.03871173784 -0.7221571803
3.09843564 0.04272408783 -0.7054431438
3.560595989 0.04847526178 -0.6839222312
4.129206657 0.05477499962 -0.6473774314
4.917285442 0.06351476163 -0.5986788273
4.895226002 0.06237302721 -0.4245973825
4.887032509 0.06056489795 -0.2539351881
4.894911766 0.05895141885 -0.08474709094
4.833033562 0.06579869986 0.2511090636
5.751831532 0.07730627805 0.499551326
5.752926826 0.07530987263 0.7012928128
5.742986202 0.0731748566 0.9029913545
5.704349041 0.07168685645 1.100649238
5.732999325 0.07004552335 1.313710809
5.687937737 0.06751204282 1.512590528
2.751767874 0.0292982012 -0.7257806659
3.088822842 0.03180858865 -0.7031936049
3.572522402 0.0361661613 -0.6862120032
4.107644558 0.04014952853 -0.6439358592
4.923306465 0.04554183409 -0.4270377755
4.877228737 0.04341541231 -0.2534118295
4.909078121 0.042839773 -0.08499142528
4.879001617 0.05109537393 0.08446785063
4.827233791 0.04971068352 0.2507950366
5.756051064 0.05726628006 0.4998999536
5.731318951 0.05501955003 0.6986116767
5.741222382 0.0541125536 0.9026784897
5.714380264 0.05186481774 1.102557302
5.711773396 0.04984460771 1.308761835
5.69972086 0.04874734581 1.515696406
2.755716801 0.01971947588 -0.7268159389
3.102552176 0.02165988274 -0.7063429356
3.560847759 0.02361643314 -0.6839222312
4.143311501 0.02675634623 -0.6495674849
4.957304478 0.03028249741 -0.6035535932
5.800072193 0.03340889141 -0.503734827
5.79007864 0.03233803436 -0.3012469113
5.787051678 0.03030388802 -0.1003146321
4.883143902 0.03494300693 0.08453766257
4.819389343 0.03280682489 0.2503763437
5.752230644 0.03714630008 0.499551326
5.725514412 0.0359772332 0.6978804469
5.717671871 0.03392942622 0.8989240527
5.714520931 0.03291610628 1.102557302
5.70800972 0.03088347055 1.307862163
5.703720093 0.02886934951 1.516731739
2.748039722 0.01055196114 -0.7247454524
3.098711491 0.01081687119 -0.7054431438
3.541274071 0.01174371317 -0.6801061034
4.143379688 0.01229420025 -0.6495674849
4.965320587 0.01299755555 -0.6045285463
5.782219887 0.01412955113 -0.5021660328
5.786161423 0.0121167833 -0.30103755
5.773122787 0.01108468883 -0.1000702977
5.769095421 0.02114815079 0.1000004932
4.825463295 0.01684455574 0.2506903708
5.744352818 0.01804986224 0.4988540709
5.689874172 0.01588992588 0.6934931874
5.70195055 0.01492580865 0.8964211345
5.71460104 0.01296698488 1.102557302
5.702236652 0.01094858348 1.306512356
5.692193508 0.009935881011 1.51362586
2.744195938 0.0009586761007 -0.7237101197
3.110422611 0.0005437777727 -0.708142519
3.555036068 -0.0006204708479 -0.6827774048
4.119692326 -0.001438044012 -0.6458130479
4.981216908 -0.003477545688 -0.6064783931
5.786218166 -0.006059315521 -0.5025146604
5.790164948 -0.007074024063 -0.3012469113
5.77512598 -0.009071553126 -0.1001052111
5.767133713 0.00201472966 0.09996558726
4.825492859 -0 0.2506903708
5.742388725 -0.00200447184 0.4986797869
5.691880703 -0.002980261808 0.6937369108
5.714612961 -0.005984330084 1.102557302
5.710036755 -0.007972720079 1.308311939
5.688329697 -0.009928016923 1.512590528
2.753840446 -0.009132114239 -0.7262982726
3.102606773 -0.01137169916 -0.7063429356
3.556973219 -0.01365786325 -0.6831590533
4.141386032 -0.01734749787 -0.6492546797
4.989106655 -0.02264000289 -0.6074533463
5.782173157 -0.02724804915 -0.5021660328
5.778111458 -0.02924589999 -0.3006188869
5.7710495 -0.03122468665 -0.1000353992
5.751101971 -0.02007521316 0.0996863544
4.83544302 -0.01856685802 0.2512137294
5.742342949 -0.02305136435 0.4986797869
5.669991493 -0.02474016137 0.6910557747
5.613015175 -0.02645090781 0.8823419809
5.696878433 -0.0278404206 1.099122643
5.704117775 -0.02986696176 1.306962252
5.680521965 -0.03172634915 1.510520101
2.74799633 -0.01870530657 -0.7247454524
3.090856075 -0.02211808041 -0.7036435008
3.572609425 -0.02618906461 -0.6862120032
4.131422997 -0.03172767535 -0.6476902962
4.977087498 -0.0399594754 -0.6059910059
5.710318565 -0.04684306309 -0.4958907962
5.750013828 -0.04917596281 -0.299153477
5.76490593 -0.05131581426 -0.09993068129
5.752995968 -0.04016413912 0.09972125292
4.819371223 -0.03532847017 0.2503763437
5.740234852 -0.04308078438 0.4985054433
5.644064903 -0.04432928935 0.6878871918
5.610913754 -0.04602762312 0.8820291758
5.694783211 -0.04770961776 1.098741055
5.705926895 -0.04979487136 1.307412148
5.688104153 -0.0516250059 1.512590528
2.759504795 -0.02841684408 -0.727851212
3.098554611 -0.03299003839 -0.7054431438
3.560717583 -0.03853217512 -0.6839222312
4.135238171 -0.04619297385 -0.6483160257
4.988827229 -0.05746969953 -0.6074533463
5.712112427 -0.06679879874 -0.4960650802
5.67391634 -0.06833298504 -0.2951759398
5.676724911 -0.06935773045 -0.09839487821
5.726826191 -0.05997337028 0.09926749021
4.811239243 -0.05122483894 0.2499576956
5.746026516 -0.06318340451 0.4990283549
5.677619934 -0.064413324 0.6920307279
5.640358448 -0.06497513503 0.8867221475
5.694581985 -0.06758783758 1.098741055
5.68428421 -0.06945008785 1.302463293
5.687901497 -0.07048715651 1.512590528
2.759388685 -0.03804913908 -0.727851212
3.102325439 -0.0433194451 -0.7063429356
3.556635141 -0.05090497062 -0.6831590533
4.150863647 -0.06013458222 -0.650818944
4.976700306 -0.07383625209 -0.6059910059
5.747703552 -0.08728193492 -0.4992026985
5.765522003 -0.08855902404 -0.2999908328
5.734431267 -0.09008363634 -0.09940710664
5.676608562 -0.07827460766 0.09839487821
4.807036877 -0.06796240807 0.2497483343
5.737802505 -0.08312495053 0.4983311594
5.67340517 -0.08318242431 0.6915432215
5.651948929 -0.08484116942 0.8885993958
5.692363739 -0.08644156158 1.098359466
5.67233181 -0.08811785281 1.299763799
5.66830492 -0.09003440291 1.507414222
2.739931822 -0.04686897993 -0.7226748466
3.113846064 -0.05435238034 -0.7090423703
3.556446791 -0.06269892305 -0.6831590533
4.138777733 -0.07441037148 -0.6489417553
4.972442627 -0.09113496542 -0.6055034995
5.765292168 -0.1076794639 -0.5007715225
5.781153202 -0.1089850739 -0.3008282185
5.768070698 -0.1107526273 -0.1000004932
5.738282204 -0.099160254 0.09947691858
4.814758301 -0.08488251269 0.2501670122
5.727535248 -0.1019743979 0.4974596202
5.667126179 -0.1028777063 0.6908119917
5.631867886 -0.1042041853 0.8854706883
5.693990231 -0.1063477471 1.098741055
5.691473484 -0.1082881615 1.304262877
5.673750401 -0.1099321917 1.508967161
2.745535851 -0.05703137815 -0.7242277861
3.113637209 -0.06522139907 -0.7090423703
3.567969799 -0.07598432899 -0.6854487062
4.142427444 -0.08966475725 -0.6495674849
4.999878883 -0.1090977415 -0.6089158058
5.774841309 -0.1280242503 -0.5016431212
5.768733978 -0.12990354 -0.3002001941
5.759652138 -0.1307047904 -0.09986086935
5.743898869 -0.1193145812 0.09958163649
4.816429615 -0.1017308086 0.250271678
5.723138332 -0.1228806376 0.4971109927
5.666732311 -0.1226590499 0.6908119917
5.649243355 -0.1242533848 0.888286531
5.683748722 -0.126997292 1.096832991
5.691038132 -0.1291477233 1.304262877
5.669469833 -0.1296482831 1.507931948
2.741457462 -0.06652101874 -0.723192513
3.093895912 -0.07615348697 -0.7045433521
3.571608305 -0.08853570372 -0.6862120032
4.149988174 -0.1043225378 -0.650818944
5.00738287 -0.1276247948 -0.609890759
5.774359226 -0.1481814235 -0.5016431212
5.758262157 -0.1497797072 -0.2996768057
5.753137589 -0.1516560018 -0.09975615889
5.733427048 -0.1401219368 0.09940710664
4.810034275 -0.1192347407 0.2499576956
5.276518822 -0.1317197978 0.4580652118
5.650369644 -0.1430259794 0.6888620853
5.690219879 -0.1460222453 0.894856751
5.679345131 -0.146735087 1.096069813
5.676916122 -0.1486552954 1.301113486
5.67088747 -0.1504783034 1.508449554
2.754726171 -0.07646530867 -0.7268159389
3.101402998 -0.08717175573 -0.7063429356
3.567352295 -0.1008913964 -0.6854487062
4.149598598 -0.1188080683 -0.650818944
4.998970032 -0.1448730379 -0.6089158058
5.763848305 -0.1680464447 -0.5007715225
5.761697769 -0.1699966937 -0.299886167
5.746577263 -0.1715582758 -0.09965144843
5.734901905 -0.1601903141 0.09944202006
4.799606323 -0.1357418448 0.2494343072
5.249013424 -0.1512025297 0.6396269202
5.683751583 -0.1657112241 0.8939181566
5.684685707 -0.1667314768 1.09721458
5.674415112 -0.1684127003 1.30066371
5.672258377 -0.170330435 1.508967161
2.750580788 -0.0859599486 -0.7257806659
3.104975224 -0.09812023491 -0.7072427273
3.568940639 -0.1134055182 -0.6858303547
4.151132584 -0.133355543 -0.6511318088
4.998434067 -0.162321806 -0.6089158058
5.759243965 -0.1880350113 -0.5004229546
5.7550807 -0.1899101287 -0.2995721698
5.737948418 -0.1913499087 -0.09951182455
5.734307766 -0.1802078784 0.09944202006
4.809084415 -0.1528119296 0.2499576956
5.261530399 -0.1681079566 0.4568450153
5.252421379 -0.1696522385 0.640114367
5.691035748 -0.1858080626 0.8951696754
5.695842266 -0.1869601607 1.099504352
5.677687645 -0.1883483082 1.301563382
5.669698715 -0.1900645792 1.508449554
2.7406106 -0.09522532672 -0.723192513
3.116299152 -0.1093681306 -0.709942162
3.558712959 -0.1255167723 -0.6839222312
4.132874966 -0.1472120583 -0.6483160257
5.005772114 -0.1800540388 -0.609890759
5.750588417 -0.2078495026 -0.4997256696
5.75238657 -0.20992513 -0.299467504
5.733249187 -0.2112306952 -0.09944202006
5.72964716 -0.200083673 0.09937220812
4.808521748 -0.1695978642 0.2499576956
5.258920193 -0.1864024997 0.4566707015
5.273619652 -0.1887667179 0.6427955031
5.694300652 -0.205815047 0.8957953453
5.679459095 -0.2062711567 1.096451402
5.673100948 -0.2080231607 1.30066371
5.649695396 -0.2091397047 1.503273129
2.755705118 -0.1053818464 -0.7273336053
3.108108997 -0.1199447885 -0.708142519
3.577871084 -0.138698712 -0.6877384186
4.130362034 -0.1615603864 -0.6480031013
4.989244938 -0.1969000995 -0.6079408526
5.757791042 -0.2282371968 -0.5004229546
5.747627258 -0.2298437953 -0.2992581427
5.74246645 -0.231645152 -0.09961653501
5.716924667 -0.2196220756 0.0991627723
4.799917698 -0.1860722303 0.2495390028
5.260228634 -0.2048359662 0.4568450153
5.253093243 -0.2063946128 0.64035815
5.671835423 -0.2248299569 0.8923538327
5.653202534 -0.2250795662 1.091490269
5.660657406 -0.2273554802 1.297964215
5.643139839 -0.2286249399 1.50172019
2.755320311 -0.1150004044 -0.7273336053
3.095989466 -0.130301699 -0.7054431438
3.565595865 -0.1506895721 -0.6854487062
4.147535324 -0.1767339408 -0.650818944
4.98456049 -0.2141441852 -0.6074533463
5.75098753 -0.2480766624 -0.4998999536
5.734817982 -0.249384746 -0.2986300886
5.747616768 -0.2519514263 -0.09972125292
5.716123104 -0.2395765036 0.0991627723
4.805225372 -0.2030789256 0.2498530298
5.24753809 -0.2226894945 0.4557991624
5.244407177 -0.2243905962 0.6393831372
5.690751553 -0.2454782873 0.8954825401
5.656304836 -0.2449814528 1.092253566
5.653988361 -0.2468584478 1.296614528
5.638447285 -0.2481519133 1.500684857
2.762621641 -0.1249667481 -0.7294041514
3.107196093 -0.1416403651 -0.708142519
3.56897068 -0.163314417 -0.6862120032
4.168599129 -0.1922112852 -0.6542605162
4.999646187 -0.2322792709 -0.6094033122
5.760037422 -0.2686138749 -0.5007715225
5.741892815 -0.2697764337 -0.2990487814
5.730722427 -0.2712564766 -0.09944202006
5.72324276 -0.259890914 0.09930240363
4.792516708 -0.219303295 0.2492249757
5.274592876 -0.2422853708 0.4582394958
5.257472515 -0.2433380783 0.6410893202
5.658288479 -0.263868928 0.8904765844
5.655415535 -0.2647241354 1.092253566
5.63557291 -0.2657668889 1.292565346
5.641406536 -0.2680156231 1.50172019
2.754450321 -0.1342332065 -0.7273336053
3.110575676 -0.1526767313 -0.7090423703
3.556613684 -0.1751918942 -0.6839222312
4.150146484 -0.2058804035 -0.6514447331
5.002770424 -0.2499279678 -0.609890759
5.759064674 -0.2887185216 -0.5007715225
5.742910862 -0.2899183929 -0.299153477
5.725746632 -0.2910556793 -0.09937220812
5.722300529 -0.2798671722 0.09930240363
4.797706127 -0.236325711 0.2495390028
5.257795334 -0.2599087358 0.4568450153
5.252625942 -0.2614912093 0.6406018734
5.663251877 -0.2839151323 0.8914152384
5.660339355 -0.2847595513 1.093398452
5.646288395 -0.2860286534 1.29526484
5.638507366 -0.2876077592 1.501202583
2.744318962 -0.1433433741 -0.7247454524
3.106131554 -0.1633290648 -0.708142519
3.552059412 -0.1873988658 -0.6831590533
4.137567043 -0.2197373062 -0.6495674849
5.005832195 -0.2676013112 -0.6103782654
5.742105961 -0.3079660535 -0.4993770421
5.745851994 -0.3101784289 -0.2993628085
5.726746559 -0.3101494908 -0.09940710664
5.709306717 -0.2992121279 0.09909296781
4.80287981 -0.2525488138 0.2498530298
5.248897076 -0.277839005 0.4561477602
5.255645752 -0.2800359428 0.6410893202
5.668196678 -0.3030099571 0.8923538327
5.655389786 -0.3043051064 1.092635155
5.651093006 -0.3060522377 1.296614528
5.625948429 -0.3056752682 1.498096824
2.757303953 -0.1536744684 -0.7283688784
3.105572701 -0.1736284643 -0.708142519
3.574905634 -0.2011200637 -0.6877384186
4.148649216 -0.234124586 -0.6514447331
5.030682087 -0.2856628299 -0.6135468483
5.729061127 -0.3273259699 -0.4983311594
5.732828617 -0.3285450637 -0.2987347841
5.725628853 -0.33013767 -0.09940710664
5.708283424 -0.3181431592 0.09909296781
4.791998386 -0.2687532902 0.2493296415
5.248743057 -0.2971262038 0.64035815
5.671049118 -0.3230184913 0.8929796219
5.638669491 -0.3221614957 1.089582324
5.648102283 -0.3246784508 1.296164632
5.617132664 -0.3248654902 1.496026278
2.758707523 -0.1629310697 -0.7288864851
3.085494518 -0.1833121479 -0.7036435008
3.574218988 -0.2129737586 -0.6877384186
4.153722286 -0.2489591688 -0.6523833275
5.027672768 -0.3031019568 -0.6133031249
5.741865158 -0.3471641243 -0.499551326
5.727659225 -0.3483118713 -0.2985254526
5.730490685 -0.3494879305 -0.09951182455
5.709134102 -0.3381851017 0.09912787378
4.781111717 -0.2840503752 0.2488062829
5.670508385 -0.3388766646 0.4932760894
5.66379118 -0.3404593766 0.6915432215
5.673890114 -0.3420602679 0.8936052918
5.641429901 -0.3420798481 1.090345502
5.644988537 -0.3442733884 1.295714617
5.623737335 -0.3439625204 1.498096824
2.76390624 -0.1729216427 -0.7304394245
3.112098932 -0.1952513307 -0.709942162
3.561697483 -0.2247071117 -0.6854487062
4.154844761 -0.2628567517 -0.6526961923
4.998904228 -0.318008244 -0.609890759
5.758513451 -0.3683495224 -0.5011201501
5.728466034 -0.3674313724 -0.2986300886
5.717263222 -0.3687168062 -0.09930240363
5.703989029 -0.3568656445 0.09905806184
4.772118092 -0.3002361953 0.2483875901
5.68519783 -0.359674722 0.4946706295
5.66461277 -0.359365046 0.6917870045
5.658861637 -0.3609834909 0.8914152384
5.644183159 -0.3610362411 1.09110868
5.63603735 -0.3624905944 1.293915033
5.630214214 -0.3640895784 1.500167251
2.74972868 -0.1826367974 -0.7268159389
3.107401133 -0.2074828446 -0.7090423703
3.560808182 -0.238381356 -0.6854487062
4.147843361 -0.2791353166 -0.6517575979
5.001607418 -0.3374675512 -0.6103782654
5.743142128 -0.3895141482 -0.4998999536
5.726944923 -0.3904239535 -0.2986300886
5.70582962 -0.3899849057 -0.09912787378
5.712487221 -0.3804244101 0.09923259169
4.772922993 -0.3186906278 0.2484922856
5.667085171 -0.3823685646 0.6922744513
5.653491974 -0.3824425638 0.8907894492
5.646605492 -0.3839568496 1.091871977
5.634603977 -0.3841287494 1.293915033
5.619137287 -0.3850449324 1.497579098
2.752962112 -0.1920230389 -0.727851212
3.110583782 -0.2180587649 -0.709942162
3.563915253 -0.2504633963 -0.6862120032
4.135071754 -0.2920534909 -0.6498803496
5.028182507 -0.3560143709 -0.6137905717
5.741818428 -0.4085569084 -0.4998999536
5.735579967 -0.4101252556 -0.299153477
5.714478016 -0.4096188545 -0.09930240363
5.693241119 -0.3981101811 0.09891844541
4.769847393 -0.3343767822 0.2483875901
5.497643948 -0.3873254657 0.4784596264
5.533117771 -0.3917656541 0.6759439707
5.654163361 -0.4013280272 0.8911023736
5.637467861 -0.4021208286 1.090345502
5.633298874 -0.4028116167 1.293915033
5.600488186 -0.4024305046 1.492920399
2.748456955 -0.2008695006 -0.7268159389
3.102069378 -0.2278017402 -0.708142519
3.570851088 -0.2634801269 -0.6877384186
4.134080887 -0.3057642877 -0.6498803496
5.058583736 -0.3759177029 -0.6176903844
5.726449966 -0.4275586903 -0.4986797869
5.718179703 -0.428948462 -0.2983160913
5.709024906 -0.4292637408 -0.09923259169
5.695878506 -0.4172797203 0.09898825735
4.778610706 -0.3517577648 0.2489109784
5.504277706 -0.4061406851 0.4791569114
5.517930508 -0.4090846479 0.6742377877
5.662577629 -0.4217959344 0.8926666975
5.628198624 -0.4212107062 1.088819027
5.643518448 -0.4233477414 1.296614528
5.608681202 -0.4227032959 1.495508552
2.751554489 -0.2112375051 -0.727851212
3.093441963 -0.2385704964 -0.7063429356
3.573776007 -0.276869446 -0.6885016561
4.15853548 -0.3229023814 -0.6539476514
4.978008747 -0.3882811368 -0.6079408526
5.728816509 -0.4488556087 -0.4990283549
5.710595608 -0.4494336247 -0.2980020642
5.723361015 -0.451443404 -0.09951182455
5.692316532 -0.4379999042 0.09895334393
4.761358261 -0.3680384755 0.248073563
5.512684345 -0.4270815849 0.4800284207
5.506498337 -0.4285360277 0.6730191112
5.655085087 -0.4420856237 0.8917280436
5.618788242 -0.4412215054 1.087292552
5.634157658 -0.443417877 1.294814944
5.618649483 -0.444170773 1.498614311
2.766167164 -0.2225605249 -0.7319923043
3.108086109 -0.2511626184 -0.709942162
3.568874359 -0.2890256345 -0.6877384186
4.161261559 -0.3384622931 -0.6545734406
5.018171787 -0.4090420008 -0.6130593419
5.74707222 -0.4704757035 -0.5007715225
5.708992004 -0.4693646133 -0.2980020642
5.709793568 -0.4704337716 -0.09930240363
5.692666531 -0.4590211213 0.09898825735
4.746109486 -0.3835303485 0.2473408729
5.515054226 -0.4476060569 0.4803770781
5.508847713 -0.4490380585 0.6735065579
5.645632744 -0.4611795843 0.8904765844
5.625040531 -0.4614741802 1.088819027
5.620922565 -0.4621239901 1.29211545
5.617064476 -0.4637807608 1.498614311
2.746162653 -0.2301190645 -0.7268159389
3.103352547 -0.2611412406 -0.7090423703
3.556158066 -0.2998690307 -0.6854487062
4.158147812 -0.3520929813 -0.6542605162
5.012832165 -0.4253450036 -0.6125718951
5.723643303 -0.4876705408 -0.4988540709
5.717354298 -0.4891449511 -0.2985254526
5.700232029 -0.4886822701 -0.0991627723
5.70306921 -0.478900075 0.09919768572
4.752772331 -0.3999367952 0.2477595657
5.503612518 -0.4650533497 0.4795055091
5.515240192 -0.467974931 0.6744815111
5.638167858 -0.4793965816 0.8895379901
5.631303787 -0.4807930291 1.090345502
5.631009102 -0.48175776 1.294814944
5.603947163 -0.4814129472 1.495508552
2.741535425 -0.2388890088 -0.7257806659
3.117999792 -0.2727895975 -0.7126415372
3.559055805 -0.3120029569 -0.6862120032
5.03306818 -0.4447625279 -0.6152530313
5.715952873 -0.5071186423 -0.4983311594
5.723658085 -0.5088090897 -0.2989441156
5.698491573 -0.5085768104 -0.0991627723
5.689497471 -0.496765852 0.09898825735
4.755326748 -0.4168734848 0.247968927
5.496085644 -0.4827784002 0.4789825678
5.509703159 -0.4859127402 0.6739940047
5.644330025 -0.4997714162 0.8907894492
5.621856689 -0.4987704158 1.088819027
5.623470306 -0.5008920431 1.293465257
5.590687752 -0.4999390543 1.492402673
2.746413231 -0.2494598776 -0.7273336053
3.10538435 -0.2826120853 -0.709942162
3.467953444 -0.3168290854 -0.6686575413
3.101211548 -0.2844154835 -0.4865627587
5.059159279 -0.4648714662 -0.6186653376
5.710179329 -0.5267018676 -0.4979825318
5.705845356 -0.5283108354 -0.2981067598
5.700663567 -0.5288345814 -0.09923259169
5.673788071 -0.5153567195 0.09874392301
4.771743774 -0.435102433 0.2489109784
5.508168221 -0.5041906834 0.4802027345
5.507973194 -0.5051422119 0.6739940047
5.646485806 -0.5198329091 0.8914152384
5.612170696 -0.5186495185 1.087292552
5.625477314 -0.5218597651 1.294365048
5.600449562 -0.5205238461 1.495508552
2.755142212 -0.2599524558 -0.7299218178
3.104327679 -0.2939920127 -0.709942162
3.175609112 -0.3013018668 -0.6117964387
3.100199938 -0.2952390015 -0.4865627587
5.01789999 -0.4796333909 -0.6137905717
5.716144085 -0.5483883023 -0.4986797869
5.692037582 -0.5470782518 -0.2974787056
5.698687077 -0.5497249961 -0.09923259169
5.681814671 -0.5370896459 0.09891844541
4.754209995 -0.4510795772 0.248073563
5.508358479 -0.5236032605 0.4803770781
5.49027586 -0.5238182545 0.672044158
5.646508694 -0.5407131314 0.8917280436
5.614234924 -0.5386115313 1.088055849
5.610042572 -0.5401856899 1.291215658
5.602350235 -0.5414187312 1.496543884
2.759938717 -0.2706143558 -0.731474638
3.111040115 -0.3055883348 -0.7117417455
3.104147196 -0.3060052991 -0.5980582237
3.08730197 -0.3054329157 -0.4846855104
5.00236702 -0.4957757592 -0.6120843887
5.712212086 -0.5681408048 -0.4985054433
