# .PCD v0.7 - Point Cloud Data file format
VERSION 0.7
FIELDS x y z
SIZE 4 4 4
TYPE F F F
COUNT 1 1 1
WIDTH 1235
HEIGHT 1
VIEWPOINT 0 0 0 1 0 0 0
POINTS 1235
DATA ascii
-0.330699414 2.176364422 -0.5782538056
-0.3338802159 2.202480316 -0.5043368936
-0.3255959749 2.150357723 -0.4144999385
-0.3497444689 2.320795298 -0.2830371559
-0.3775655031 2.50837779 -0.2182125896
-0.3669023812 2.443330526 -0.1272821873
-0.3620379269 2.41667223 -0.04195378721
-0.8726473451 5.832052708 1.568495512
-0.3225328028 2.173683643 -0.5772185326
-0.3247638047 2.193993568 -0.5020873547
-0.3186615705 2.155365705 -0.4152632058
-0.3427965343 2.329858065 -0.2840121388
-0.3922718465 2.669348955 -0.2323318273
-0.3653233647 2.492023706 -0.1297943145
-0.3550461531 2.42781496 -0.04212831706
-0.3532556891 2.383610964 0.04136040807
-0.852003634 5.833152294 1.567977905
-0.3146668673 2.172884464 -0.5767009258
-0.3148738146 2.179684162 -0.4984881282
-0.3105746806 2.152578592 -0.4144999385
-0.3326885402 2.317285299 -0.2823059559
-0.3840821385 2.678590775 -0.2330290675
-0.3535132706 2.471534729 -0.1286429167
-0.3488282263 2.444876432 -0.04240754992
-0.3449348211 2.384829283 0.04136040807
-0.8294605613 5.820789814 1.563836694
-0.3062690198 2.16823101 -0.5751479864
-0.3067200482 2.176910639 -0.4975883365
-0.3011443615 2.140040874 -0.4118286371
-0.324321866 2.316467047 -0.2820622325
-0.3565191031 2.549684763 -0.2215245068
-0.3490216434 2.502425671 -0.1302130073
-0.3411190808 2.452020884 -0.0425122641
-0.3394008875 2.405819654 0.04170945287
-0.808072269 5.81599617 1.561766148
-0.2986980379 2.169286966 -0.5751479864
-0.2996501029 2.181829214 -0.4984881282
-0.2894032896 2.109958649 -0.4057227671
-0.3173078895 2.325452089 -0.2830371559
-0.3433142602 2.519327164 -0.2187355161
-0.3421678245 2.517482042 -0.1309456974
-0.3298709393 2.433381319 -0.0421632193
-0.3277322948 2.383217096 0.04129059985
-0.7864682674 5.809209824 1.559178114
-0.2893265784 2.15691328 -0.5715245008
-0.2920316756 2.182862043 -0.4984881282
-0.2833368182 2.120686054 -0.4076308608
-0.3102340698 2.334416866 -0.2840121388
-0.3308476508 2.492859364 -0.2162951678
-0.3380948603 2.554301023 -0.1328298002
-0.3279179931 2.484080076 -0.04303583875
-0.319145143 2.382364511 0.04125569016
-0.7631568313 5.788935661 1.552966356
-0.281796217 2.157910109 -0.5715245008
-0.2836557627 2.178070545 -0.4971384406
-0.2766925097 2.127502203 -0.4087756872
-0.3031014502 2.343360424 -0.284987092
-0.3213787377 2.488070965 -0.2157722414
-0.3309620321 2.569331884 -0.1335625052
-0.3217921257 2.505043745 -0.04338488355
-0.3061719537 2.347771645 0.04062740505
-0.6386443377 4.951118469 0.9621217847
-0.7414687276 5.780067921 1.549860477
-0.2742624581 2.158880711 -0.5715245008
-0.2748259902 2.169381142 -0.4948889017
-0.2697567344 2.132350683 -0.4095389545
-0.2944247127 2.340465069 -0.2844996154
-0.3114494681 2.479293346 -0.2149006724
-0.3197577298 2.55263567 -0.1326204538
-0.3160207272 2.529963017 -0.04380374402
-0.2924386561 2.305182934 0.03985949978
-0.7196153998 5.769201756 1.546237111
-0.266487509 2.157907486 -0.5710068941
-0.2660613656 2.160656452 -0.4926394224
-0.2615934312 2.127433538 -0.4083940983
-0.2857707739 2.337537766 -0.2840121388
-0.3035168648 2.4862988 -0.2154236138
-0.3132580221 2.573562622 -0.133667171
-0.3083927929 2.540976524 -0.04397827014
-0.285613358 2.316112995 0.04003402591
-0.699006319 5.76784277 1.545201778
-0.2587227225 2.156906366 -0.5704892278
-0.2587485015 2.163507223 -0.4930893183
-0.2525355518 2.114688158 -0.4057227671
-0.2771430612 2.334578276 -0.2835246325
-0.2938986123 2.479428768 -0.2147263587
-0.3045088649 2.57662344 -0.1337718368
-0.2981165349 2.530121565 -0.04376883805
-0.2756259739 2.301211596 0.0397547856
-0.6779668927 5.762573242 1.543131232
-0.2498523295 2.14628315 -0.5673834085
-0.2509696484 2.162461519 -0.4926394224
-0.2458308041 2.121407032 -0.4068675935
-0.26967296 2.341447592 -0.2842558622
-0.2825099528 2.45668745 -0.2126346231
-0.2993794382 2.611403465 -0.1355512738
-0.2901917696 2.539093971 -0.04390846193
-0.2650512755 2.280309916 0.0393708311
-0.6556585431 5.745710373 1.537954807
-0.2419249415 2.143302917 -0.5663481355
-0.2425496131 2.155578136 -0.490839839
-0.237766102 2.116399527 -0.4057227671
-0.2625987232 2.352238894 -0.2854745388
-0.2743758559 2.461618662 -0.2129832506
-0.267898351 2.418851137 -0.04177926481
-0.2566414177 2.277247429 0.03930102289
-0.6349598169 5.742204189 1.536401868
-0.2346534133 2.146054506 -0.5668658018
-0.2333340794 2.140913725 -0.4872405827
-0.230376482 2.117216825 -0.4057227671
-0.2543867826 2.353141308 -0.2854745388
-0.2666361034 2.470485449 -0.2136805058
-0.2590263486 2.415795326 -0.04170945287
-0.2519463599 2.307947397 0.03982459381
-0.6134737134 5.730939388 1.532778502
-0.2275668234 2.150702715 -0.5679010153
-0.226268664 2.145591021 -0.4881403744
-0.2223694026 2.112150431 -0.4045779109
-0.2434803993 2.32435751 -0.2818184793
-0.2582170665 2.473382473 -0.2138548046
-0.2751164734 2.644193172 -0.1371213496
-0.2508077621 2.414651871 -0.04167455062
-0.2407369763 2.278983355 0.03930102289
-0.6102746725 5.865458012 1.351502538
-0.5944669843 5.732941628 1.532778502
-0.2198422849 2.145680428 -0.5663481355
-0.218756929 2.14245224 -0.4872405827
-0.2133726329 2.093344927 -0.4007617235
-0.2323661298 2.291577816 -0.2776749134
-0.2488122731 2.462331533 -0.2128089517
-0.2655465901 2.637142181 -0.1367026567
-0.2421995848 2.409501314 -0.04156983644
-0.2333822101 2.281758785 0.03933592886
-0.2493475974 2.442049742 0.1264448166
-0.2596071661 2.55135417 0.2206529528
-0.5939457417 5.898472786 1.358700991
-0.5746795535 5.727193356 1.530707955
-0.2113924623 2.132940531 -0.5627246499
-0.2120335251 2.14704442 -0.4881403744
-0.2064301074 2.094040871 -0.4007617235
-0.2303837985 2.349628687 -0.2847433388
-0.2389024198 2.445296288 -0.2112401277
-0.2567993402 2.638008118 -0.1367026567
-0.2342085391 2.410291195 -0.04156983644
-0.2279793173 2.304409981 0.03971988335
-0.2365365326 2.395161152 0.1239326894
-0.2392424494 2.43124938 0.210019961
-0.5721151233 5.8771348 1.353302121
-0.5534474254 5.705993176 1.524496198
-0.2030285597 2.120168686 -0.5591012239
-0.2041725814 2.139975786 -0.4863407314
-0.1983675659 2.082987547 -0.3984720111
-0.2237131894 2.362237453 -0.2862057686
-0.231727317 2.455992937 -0.2121116966
-0.2473028451 2.630891323 -0.1362839788
-0.2262137681 2.411054611 -0.04156983644
-0.219575718 2.297190666 0.0395802632
-0.2299209237 2.409849644 0.1246653795
-0.2317449152 2.437979698 0.2105429024
-0.503041625 5.34152174 1.034629226
-0.5511648655 5.863478184 1.349702954
-0.5352415442 5.715490818 1.526566744
-0.1954170167 2.126703739 -0.5606541038
-0.1941772997 2.121337891 -0.4818417132
-0.1921546608 2.103284836 -0.4022881985
-0.2145866752 2.367070436 -0.2866932452
-0.221757248 2.45091176 -0.2115887552
-0.2350471318 2.607951403 -0.1350279152
-0.2159975469 2.405968189 -0.04146512225
-0.2138587385 2.331869364 0.04017364234
-0.2178825289 2.384896755 0.1233046502
-0.4842948616 5.362966537 1.038445473
-0.5150540471 5.725898266 1.317309976
-0.5098788738 5.690655708 1.519319892
-0.1886728853 2.135070324 -0.5627246499
-0.1871124357 2.125885487 -0.4827415645
-0.1841249466 2.096120119 -0.4007617235
-0.2058062702 2.361871958 -0.2859620154
-0.2131999731 2.451671124 -0.2115887552
-0.4716943204 5.446224689 -0.2842900753
-0.2063942403 2.392761707 -0.04122078791
-0.2078251839 2.356505632 0.0405925028
-0.2095568627 2.385642767 0.1233046502
-0.2138674557 2.439612865 0.2105429024
-0.4691929221 5.373672962 0.657176137
-0.4662613273 5.3617239 0.8457363844
-0.4682861567 5.395918846 1.044551373
-0.4933841825 5.708246708 1.312811017
-0.4905099571 5.698174953 1.520872831
-0.1807283759 2.129940987 -0.5611717105
-0.18001917 2.130409241 -0.4836413562
-0.1975610405 2.362576008 -0.2859620154
-0.2034814954 2.438501835 -0.2103685737
-0.2208050638 2.65729785 -0.1375400275
-0.1973816007 2.385495663 -0.04108116776
-0.2070224434 2.444889545 0.04212831706
-0.2008918524 2.382379293 0.1230953038
-0.2013412267 2.392695427 0.2063594162
-0.4600452483 5.490010738 0.6713129282
-0.4501719475 5.394815445 0.8507422805
-0.4527074695 5.436650753 1.052183747
-0.4737789631 5.71381855 1.313710809
-0.4696613252 5.68830061 1.517766953
-0.1728219986 2.124782324 -0.5596188307
-0.1728955954 2.134909391 -0.4845411479
-0.189947471 2.371166468 -0.2869369984
-0.1941739172 2.429267168 -0.2094970196
-0.4605986476 5.787848949 -0.3020842671
-0.1893686801 2.390156984 -0.04115097597
-0.1994580179 2.457556009 0.0423377417
-0.1924130619 2.381075382 0.122990638
-0.1928283125 2.391397953 0.2061851174
-0.4586692154 5.713201046 0.6986116767
-0.4551024735 5.693686962 0.8979854584
-0.4522871077 5.696011066 1.30921185
-0.4479795694 5.666795254 1.511555314
-0.1654045135 2.125372887 -0.5596188307
-0.1651417315 2.13161397 -0.4836413562
-0.1825783998 2.383690834 -0.2883994281
-0.185540542 2.427943468 -0.2093227059
-0.4384215772 5.763531685 -0.3007235527
-0.1820462495 2.398747683 -0.04129059985
-0.1887104064 2.430325747 0.04184907675
-0.184516564 2.381700277 0.122990638
-0.1834065467 2.37815094 0.2049649209
-0.4394845665 5.724663734 0.6998303533
-0.4354659319 5.685317039 0.8964211345
-0.434741348 5.701993465 1.103320479
-0.4310728014 5.680067062 1.305162668
-0.4277251959 5.64898634 1.506379008
-0.1579840034 2.125937223 -0.5596188307
-0.1566317528 2.11271596 -0.479142338
-0.1738018841 2.372404337 -0.2869369984
-0.1769210994 2.426589012 -0.209148407
-0.4187254906 5.756986141 -0.3003048599
-0.1728073955 2.387401581 -0.04108116776
-0.1800566465 2.422961235 0.04170945287
-0.176644206 2.388305187 0.1233046502
-0.1767124087 2.400633812 0.2068823576
-0.4199180901 5.718170643 0.6988554597
-0.4183519781 5.724234581 0.9023656249
-0.4165453911 5.713193417 1.105228543
-0.4119537175 5.677577496 1.304262877
-0.4088371992 5.662005424 1.509484768
-0.1510704756 2.128376484 -0.560136497
-0.1492554843 2.113249779 -0.479142338
-0.1652449667 2.369035959 -0.2864495218
-0.1692766696 2.43911767 -0.2101942748
-0.3973843455 5.740479946 -0.2993628085
-0.1643347293 2.385995626 -0.04104626551
-0.1671828479 2.372968912 0.1224672794
-0.1697300225 2.415118933 0.2081025243
-0.3984306753 5.697818279 0.696174264
-0.3956271708 5.686248302 0.8961082697
-0.3964626491 5.712654114 1.104846954
-0.3913284838 5.667316437 1.301563382
-0.3890690804 5.663398266 1.509484768
-0.1426204741 2.119278431 -0.5575482845
-0.1418773979 2.113758087 -0.479142338
-0.1568426341 2.367617607 -0.2862057686
-0.1602380127 2.431741238 -0.2094970196
-0.3759511709 5.735919476 -0.2990487814
-0.1550924778 2.372586489 -0.04080192745
-0.1650177389 2.452091694 0.04219812527
-0.1592993289 2.379516125 0.1227812916
-0.1603457034 2.407773256 0.207405284
-0.3785403669 5.699174404 0.696174264
-0.3748629391 5.673796654 0.8939181566
-0.3747508526 5.702315331 1.102557302
-0.370301187 5.664823532 1.30066371
-0.3677935898 5.641588688 1.503273129
-0.134729445 2.112051487 -0.5554777384
-0.1341296136 2.114263773 -0.479142338
-0.1484122574 2.372138977 -0.2866932452
-0.1505074054 2.412400723 -0.2077539116
-0.3556834161 5.73320961 -0.2988394499
-0.146517992 2.375134945 -0.04083683342
-0.1539984941 2.420749187 0.04163964465
-0.1513329297 2.392043829 0.1234093308
-0.3576478362 5.700523853 0.696174264
-0.3545581996 5.683018684 0.8951696754
-0.35435462 5.695750237 1.101030827
-0.3502828181 5.662191391 1.299763799
-0.3461659849 5.627473354 1.499131918
-0.1272403747 2.110580444 -0.554960072
-0.1261651069 2.104992867 -0.4768928289
-0.1405985504 2.38056922 -0.2876681983
-0.1419678777 2.410922289 -0.2075795829
-0.3356670737 5.734416485 -0.2988394499
-0.1377622187 2.367646694 -0.04069721699
-0.1424272209 2.369373798 0.04073211923
-0.1447699219 2.422463179 0.1249794066
-0.3372787833 5.69381094 0.6951993108
-0.3344848454 5.680277824 0.8945438862
-0.3334361911 5.679314137 1.097596169
-0.3302873969 5.659489155 1.298864126
-0.3262950778 5.624790192 1.498096824
-0.1203098297 2.118726969 -0.5570306182
-0.1176101789 2.08401823 -0.4719438851
-0.1322610229 2.37309432 -0.2866932452
-0.1338835061 2.417371273 -0.2081025243
-0.3155369163 5.733559132 -0.2987347841
-0.1304570735 2.378073931 -0.04087174311
-0.1307655722 2.309961557 0.03968497738
-0.1365113556 2.418941498 0.1247700602
-0.3216607273 5.735368729 0.4988540709
-0.3162954748 5.675133705 0.6927619576
-0.3152093291 5.673466682 0.8932924271
-0.3132834733 5.674562454 1.096451402
-0.3110907972 5.652769566 1.297064424
-0.3074282706 5.621983051 1.497061491
-0.1132836342 2.119114161 -0.5570306182
-0.1117315814 2.103856564 -0.4764429033
-0.1217940003 2.323960543 -0.2805997729
-0.125969395 2.419791698 -0.2082768381
-0.2951796651 5.708644867 -0.2973740697
-0.1230854243 2.388478756 -0.04104626551
-0.1275351495 2.401431084 0.1238280237
-0.3015912473 5.716507435 0.4971109927
-0.2970598638 5.668221474 0.6917870045
-0.2960857153 5.668562412 0.8923538327
-0.2942619324 5.671648979 1.095688224
-0.2911347151 5.630417347 1.291665673
-0.2885864079 5.619113445 1.496026278
-0.105191201 2.098254681 -0.5513366461
-0.1045609564 2.100322962 -0.4755431116
-0.1122270375 2.294630766 -0.2769437134
-0.1169739142 2.400295734 -0.20653373
-0.2765409052 5.715576172 -0.297688067
-0.1155142263 2.404872894 -0.04132550582
-0.116340369 2.328752756 0.03999911621
-0.2490830719 5.02104187 0.261262238
-0.2824373543 5.713495731 0.4967623055
-0.2782601714 5.669175625 0.6917870045
-0.2747569978 5.637992859 0.8873479366
-0.2752604187 5.668671608 1.094924927
-0.2711049914 5.623612881 1.28986609
-0.2680479288 5.600789547 1.490849733
-0.09696681052 2.079311609 -0.5461602807
-0.09749857336 2.106515169 -0.4768928289
-0.1073677316 2.364415169 -0.2854745388
-0.1080549061 2.388747454 -0.2054878622
-0.2558701634 5.700544357 -0.2968506813
-0.1081870869 2.429234266 -0.04174436256
-0.1087670028 2.341130018 0.04020854831
-0.2305439413 4.999934196 0.2601108253
-0.2616675198 5.696534634 0.4951935709
-0.2581993639 5.664163589 0.6910557747
-0.2552548051 5.642864704 0.8879736662
-0.2547655702 5.653907776 1.091871977
-0.2513003647 5.620631218 1.288966179
-0.247467041 5.578532219 1.484638214
-0.09062430263 2.100867748 -0.5518542528
-0.08964547515 2.095160961 -0.4741933942
-0.09961185604 2.376675844 -0.2869369984
-0.09913289547 2.385146141 -0.2051392347
-0.2038404047 4.925133705 -0.2561333179
-0.1003621221 2.445580959 -0.04202359915
-0.09930619597 2.311527729 0.03968497738
-0.2130905688 5.000708103 0.2601108253
-0.2416952848 5.695422649 0.4950192273
-0.2378403693 5.651147366 0.6893495917
-0.2351452559 5.633852482 0.8864092827
-0.2342114151 5.635147095 1.088055849
-0.2318408191 5.625368595 1.28986609
-0.2281490862 5.583222389 1.485673308
-0.08200892061 2.078021526 -0.5456426144
-0.08133630455 2.070146799 -0.4683446884
-0.09123940021 2.375025272 -0.2866932452
-0.09126181901 2.397423267 -0.2061851174
-0.1852616817 4.911877155 -0.2554006279
-0.09182535112 2.445916414 -0.04202359915
-0.09060648829 2.295875072 0.03940573707
-0.1953223199 4.993438721 0.2596921623
-0.2201255858 5.678352833 0.493450433
-0.2173484117 5.632106304 0.6869122386
-0.2151745856 5.626743793 0.8851578236
-0.213854596 5.643815041 1.089582324
-0.2106349468 5.610601425 1.286266804
-0.2082269788 5.572402 1.482567668
-0.07565697283 2.103393316 -0.5523719192
-0.07388748974 2.074326038 -0.4692444801
-0.08218973875 2.365424156 -0.2854745388
-0.08323740214 2.407683372 -0.2070566714
-0.1683185101 4.918482304 -0.2557146251
-0.07893304527 2.330320597 -0.03999911621
-0.08254925162 2.306183815 0.0395802632
-0.1764495224 4.978153229 0.2588547766
-0.200374499 5.68107748 0.4936247468
-0.1973263025 5.650720119 0.6891058087
-0.1939487308 5.638640881 1.088437438
-0.1903870702 5.591826439 1.281767726
-0.1878002733 5.573127747 1.482567668
-0.06750059128 2.078543425 -0.5456426144
-0.06677088141 2.078466892 -0.4701443017
-0.07374572009 2.35974431 -0.2847433388
-0.07433675975 2.392027617 -0.205662176
-0.06982832402 2.298601627 -0.03944064304
-0.07553094625 2.338436365 0.04013874009
-0.1590748727 4.978738785 0.2588547766
-0.1806043833 5.683733463 0.4937990308
-0.1771678329 5.637485504 0.6873996854
-0.1744755059 5.614318371 0.8829677701
-0.1742082685 5.637320995 1.088055849
-0.1707462817 5.588561058 1.280867934
-0.1679965258 5.562163353 1.479461789
-0.05990837514 2.067180157 -0.5425367355
-0.05934838951 2.072843552 -0.4687945843
-0.06572791934 2.36792469 -0.285718292
-0.06538277864 2.370364428 -0.2037447393
-0.06334707886 2.326059818 -0.1197458133
-0.06269168109 2.316811085 -0.0397547856
-0.1427911669 4.987224579 0.2592734694
-0.1599732786 5.656446934 0.4913586974
-0.1574313045 5.63608551 0.687155962
-0.1555263698 5.603018284 0.8810905218
-0.1542050391 5.626119614 1.085766077
-0.1512386948 5.589122772 1.280867934
-0.1492404044 5.551103115 1.47635591
-0.05249477178 2.059651852 -0.540466249
-0.05237605795 2.069132805 -0.4678947926
-0.05005542189 2.019247055 -0.3132333457
-0.05802121013 2.374083281 -0.2864495218
-0.05701166764 2.366594791 -0.2033961266
-0.05501292646 2.300299883 -0.1183850765
-0.05488617718 2.329010963 -0.03996421397
-0.125631243 4.997675419 0.259796828
-0.1399352551 5.645020008 0.4903128147
-0.138445884 5.624669552 0.6856935024
-0.1358752549 5.59957695 0.8804647923
-0.134978354 5.603047848 1.081186652
-0.1325197816 5.581801414 1.279068351
-0.1297706962 5.547727585 1.475320578
-0.04609400779 2.079128265 -0.5456426144
-0.04481247067 2.05371666 -0.4642955959
-0.04266962782 2.003610373 -0.3107303977
-0.04931853339 2.354424477 -0.2840121388
-0.04837772623 2.328923225 -0.2000841945
-0.04669805989 2.286500216 -0.1176523715
-0.04723705351 2.353179693 -0.04038307071
-0.05320667848 2.419058561 0.04153493047
-0.1079294607 4.986103535 0.2591688037
-0.1212133616 5.645452976 0.4903128147
-0.1184744313 5.609241486 0.6837435961
-0.1163267568 5.600017071 0.8804647923
-0.1152964681 5.597596169 1.080041766
-0.1129150018 5.576384544 1.277718544
-0.1103290245 5.544283867 1.474285364
-0.03858313337 2.065756083 -0.5420191288
-0.03771524504 2.057757616 -0.4651953876
-0.0358165428 2.011647224 -0.3119818568
-0.04082197696 2.338704348 -0.2820622325
-0.03990421444 2.309157372 -0.1983410865
-0.03928950056 2.369325638 -0.04066231102
-0.04546448588 2.457217455 0.04219812527
-0.09016019851 4.966480255 0.2581220865
-0.1015048176 5.645841599 0.4903128147
-0.09854773432 5.589772701 0.6813062429
-0.09664300084 5.592489243 0.8792133331
-0.09579394758 5.599927902 1.080423474
-0.09312111884 5.557260036 1.273219585
-0.09091031551 5.540771961 1.473250031
-0.03134217858 2.063946486 -0.5415015221
-0.03050263971 2.055927992 -0.4647454619
-0.02918961272 2.039412498 -0.3163620234
-0.03182712197 2.279285192 -0.2747500539
-0.03165059909 2.2953372 -0.1971209049
-0.03167356178 2.356667995 -0.1213158891
-0.03114901669 2.37944603 -0.04083683342
-0.03697865456 2.463359594 0.04230283946
-0.07288063318 4.970758915 0.258331418
-0.08156683296 5.630224705 0.4889183342
-0.07903370261 5.590082645 0.6813062429
-0.07690160722 5.576991081 0.8767104149
-0.07613757253 5.592375755 1.07889688
-0.07367157191 5.553654194 1.272319794
-0.07147023082 5.533328533 1.471179605
-0.02400236391 2.052453041 -0.5383957028
-0.02339169942 2.061867714 -0.4660951793
-0.02177076414 2.011848211 -0.3119818568
-0.0237672776 2.269457579 -0.2735313475
-0.0240273755 2.333287001 -0.2004328221
-0.02372573502 2.384724379 -0.1227812916
-0.02320824005 2.417532921 -0.04150002822
-0.0282177981 2.44947648 0.04205850139
-0.05566390976 4.982965469 0.2589594424
-0.06165147573 5.606567383 0.4868265986
-0.05952136219 5.590324402 0.6813062429
-0.05728993565 5.563398838 0.8745203018
-0.05657750368 5.588681221 1.078133702
-0.05432185903 5.557775021 1.273219585
-0.05204679072 5.52195406 1.468073726
-0.01690065861 2.060251474 -0.540466249
-0.01602637023 2.040501356 -0.4611462355
-0.01492215693 2.035615683 -0.3157362938
-0.01601094753 2.293347359 -0.2764562368
-0.01551544666 2.339336395 -0.2009557486
-0.01551679522 2.402767897 -0.123723343
-0.01491527539 2.441594839 -0.04191888496
-0.01958643273 2.439561844 0.04188397899
-0.0381917581 4.973143101 0.2584360838
-0.04207903519 5.606748581 0.4868265986
-0.03997722641 5.586528301 0.6808187366
-0.03791121021 5.569490433 0.8754589558
-0.03693731874 5.569212437 1.074317575
-0.034897957 5.554033279 1.272319794
-0.03274685889 5.518238544 1.467038393
-0.009305967018 2.050640345 -0.5378780365
-0.008827495389 2.023006439 -0.4570971429
-0.007402713876 2.01985383 -0.3132333457
-0.008033773862 2.301329613 -0.2774311602
-0.007555462886 2.405124664 -0.2067080289
-0.006727370899 2.408800364 -0.1240373552
-0.006433656905 2.457629681 -0.04219812527
-0.01110746525 2.447614193 0.04202359915
-0.02084979601 4.977241039 0.2586454451
-0.0215302296 5.606864929 0.4868265986
-0.02035846934 5.554872513 0.6769189239
-0.01845789887 5.565638542 0.8748331666
-0.01652611792 5.569310188 1.074317575
-0.01450914331 5.542431831 1.269620419
-0.01346669067 5.510591507 1.464967847
-0.002159430878 2.062251568 -0.5409839153
-0.001361895003 1.950921655 -0.4404507279
-0.0003593825095 2.059375048 -0.319490701
0.0004009116092 2.303328753 -0.2776749134
0.0008409200818 2.409121513 -0.2070566714
0.001696930733 2.43077898 -0.1251887381
0.004303136375 4.931259632 -0.08537537605
-0.002133485395 2.44363904 0.04195378721
-0.003466165392 4.965300083 0.258017391
-0.001961061032 5.610890865 0.4871752262
6.633631955e-08 5.562849998 0.677893877
0.0009677148191 5.559742928 0.8738945723
0.002913931385 5.565407753 1.073554277
0.004819469061 5.52296114 1.265121341
0.005774457473 5.51446867 1.46600318
0.0049207462 2.013950348 -0.5280429125
0.005336779635 2.038608789 -0.4606963694
0.006407286972 2.03961134 -0.3163620234
0.0080535179 2.307284832 -0.27816239
0.009273911826 2.415080786 -0.2075795829
0.009813307784 2.444740534 -0.125921458
0.02143920027 4.913217545 -0.08506122977
0.0138649419 4.965281963 0.258017391
0.01758855581 5.598909378 0.4861293435
0.01841969974 5.554879189 0.6769189239
0.02031115443 5.541926861 0.8710787296
0.0213559363 5.561440945 1.07279098
0.02313313633 5.522914886 1.265121341
0.02500481531 5.510550976 1.464967847
0.01127616409 1.957900405 -0.5130314231
0.01231050957 2.015192986 -0.4552974999
0.01567839459 2.245706081 -0.270606488
0.01732484624 2.421013832 -0.2081025243
0.03776162863 4.917118549 -0.08513104171
0.02934623323 4.94517231 0.08561971039
0.03030730598 4.961214066 0.2578080595
0.03605372831 5.582881451 0.4847348332
0.03780856729 5.55478096 0.6769189239
0.03866269067 5.53787899 0.8704530001
0.04070747271 5.553479671 1.071264625
0.04238310456 5.518902779 1.264221549
0.043095164 5.487256527 1.458756328
0.01837901026 1.986825585 -0.520796001
0.01891919598 2.00734663 -0.4534979165
0.02316576801 2.249611855 -0.2710939646
0.02590241469 2.432892323 -0.209148407
0.05496898293 4.920956135 -0.08520085365
0.04559588805 4.929050922 0.08534047008
0.04766229168 4.965072155 0.258017391
0.05550325289 5.578737259 0.4843862355
0.05612974241 5.544700146 0.6757002473
0.0579947345 5.53771019 0.8704530001
0.05891577527 5.533682346 1.067448378
0.06068573892 5.518731594 1.264221549
0.06225046515 5.487072468 1.458756328
0.02542925626 2.023455858 -0.5306310654
0.02595077083 2.009216785 -0.4539478421
0.03069040179 2.225698471 -0.2681691051
0.03410863504 2.44275403 -0.210019961
0.07214730233 4.920734406 -0.08520085365
0.06295304 4.940859318 0.0855499059
0.06499465555 4.964875698 0.258017391
0.07399892807 5.578522682 0.4843862355
0.07516121119 5.520651817 0.6727753878
0.07732079178 5.537474155 0.8704530001
0.07823304832 5.533442974 1.067448378
0.07988909632 5.514589787 1.263321757
0.08140500635 5.486822128 1.458756328
0.03255292401 2.027218103 -0.531666398
0.03302856535 2.013011217 -0.4548476338
0.03815019876 2.207714796 -0.2659754753
0.04187090322 2.398794413 -0.2061851174
0.0443376787 2.490302801 -0.1283289045
0.08917955309 4.912454605 -0.08506122977
0.08010341972 4.93461132 0.08544518799
0.08212281764 4.952636242 0.2573893666
0.09347264469 5.578230381 0.4843862355
0.0944955349 5.524325371 0.6732628345
0.09640986472 5.523344994 0.8682629466
0.09754408151 5.533136368 1.067448378
0.09878928959 5.494792938 1.258822799
0.1004143283 5.478777885 1.456685662
0.03985613585 2.038680792 -0.5347722173
0.04032605514 2.026521921 -0.4579969347
0.04592180997 2.24854207 -0.3495261073
0.04494993016 2.163905382 -0.260613203
0.04895002395 2.336883068 -0.2007814497
0.091218099 4.283264637 -0.2223242968
0.1061934903 4.906116486 -0.08495652676
0.09744755924 4.940299511 0.0855499059
0.09941156209 4.952319622 0.2573893666
0.1126225218 5.561933517 0.4829917252
0.1137799248 5.523962021 0.6732628345
0.115315862 5.505200386 0.865447104
0.1167763174 5.528837204 1.0666852
0.1178842634 5.490517616 1.257922888
0.1193711087 5.470668793 1.454615116
0.04643872753 2.015353203 -0.5285605788
0.04744580761 2.028317213 -0.4584468603
0.05207076669 2.177274942 -0.3382628262
0.05307944119 2.187549353 -0.2635380626
0.05696155503 2.330722332 -0.2002585232
0.1145027578 4.931931973 0.08541027457
0.1166990921 4.951942444 0.2573893666
0.1315599233 5.541588306 0.4812486172
0.1330629289 5.52353096 0.6732628345
0.1344850808 5.502788544 0.8651341796
0.135883078 5.520544529 1.065158725
0.1370504946 5.490072727 1.257922888
0.1379765868 5.450906754 1.449438691
0.05362664908 2.02097249 -0.5301134586
0.05447382852 2.026190996 -0.4579969347
0.0609360002 2.195288181 -0.2645130157
0.06370678544 2.280719042 -0.1959007382
0.06936274469 2.422650337 -0.04160473868
0.1313986927 4.919508934 0.08520085365
0.1344150454 4.967477322 0.2582267523
0.1509043425 5.541095734 0.4812486172
0.1519037932 5.507157803 0.6713129282
0.1535837501 5.498337269 0.8645085096
0.1546549499 5.502374649 1.061724186
0.1562150419 5.489561081 1.257922888
0.1568905711 5.446529865 1.448403478
0.06085532904 2.026566029 -0.531666398
0.06059809402 1.99482286 -0.4507984817
0.06797912717 2.175220966 -0.2620756328
0.07204260677 2.292431116 -0.1969465911
0.0728873238 2.293808222 -0.1180710569
0.07428820431 2.31246686 -0.03968497738
0.1487502456 4.925016403 0.08530557156
0.1512063444 4.949010849 0.2572847009
0.1702442914 5.540534973 0.4812486172
0.1708812714 5.498657703 0.670337975
0.1728985161 5.50171566 0.8651341796
0.1740483791 5.507688046 1.062869072
0.1748772413 5.473400116 1.254323721
0.1757782549 5.442086697 1.447368264
0.06760494411 2.016687393 -0.5290782452
0.06769343466 1.998494744 -0.451698333
0.07515759766 2.163066864 -0.260613203
0.08810959011 2.523142099 -0.2171667367
0.08047088236 2.28156352 -0.1174430177
0.08193327487 2.300203085 -0.03947554529
0.1658074707 4.920469761 0.08523575962
0.16813986 4.938472748 0.2567613423
0.1897210926 5.543889523 0.4815972447
0.1897986233 5.490092278 0.6693630219
0.1916872412 5.489233971 0.8632570505
0.1930650026 5.501160622 1.061724186
0.1934285313 5.457176208 1.250724435
0.194772467 5.441440105 1.447368264
0.07435779274 2.008716822 -0.5270076394
0.07466864586 1.998246193 -0.451698333
0.08225309104 2.150889635 -0.2591508031
0.09439200908 2.45711875 -0.2114144564
0.08866724372 2.287256002 -0.1177570373
0.08902359009 2.275924921 -0.03905668855
0.1832807213 4.927854538 0.08537537605
0.1856010556 4.943843842 0.2570753694
0.2086226344 5.531247616 0.480551362
0.2090384364 5.491379738 0.6696067452
0.210087657 5.468792439 0.8601283431
0.2121164948 5.496529579 1.060960889
0.2123236358 5.452573299 1.249824643
0.2134635299 5.43300581 1.445297718
0.08215162903 2.027747631 -0.5321840048
0.08212129772 2.009655952 -0.4543977082
0.09025681764 2.162489414 -0.260613203
0.09963172674 2.377148628 -0.2044419795
0.09631290287 2.278950691 -0.1173383594
0.09716337174 2.28960228 -0.03930102289
0.200236097 4.921190262 0.08527065814
0.2017511427 4.937213898 0.2567613423
0.2271074355 5.510578632 0.478808254
0.2287815362 5.504500389 0.6713129282
0.2282231748 5.468065739 0.8601283431
0.2310528606 5.489871502 1.059816003
0.2313568294 5.451798439 1.249824643
0.2308197916 5.416826725 1.441156507
0.09050296247 2.056398392 -0.5399485826
0.08792543411 1.989904165 -0.44989869
0.09760567546 2.166144371 -0.2611006796
0.107296899 2.362854004 -0.2032217979
0.1037782431 2.276623487 -0.1172336787
0.104880318 2.283256531 -0.0391963087
0.216025725 4.908513069 0.08506122977
0.2193393707 4.944460869 0.2571800351
0.2461650372 5.50577116 0.4784596264
0.245967254 5.479914188 0.6683880687
0.2470425665 5.461315632 0.8591897488
0.2482785285 5.467501163 1.055618286
0.2494358718 5.451001644 1.249824643
0.249547556 5.412128925 1.440121293
0.09723095596 2.054157257 -0.5394309759
0.09440550953 1.979852438 -0.4476491809
0.1035383642 2.147748232 -0.3338826895
0.1049743518 2.161824942 -0.260613203
0.1128492504 2.282876492 -0.0391963087
0.2333494127 4.911723614 0.08513104171
0.2367873192 4.947654247 0.2573893666
0.2644203603 5.504924774 0.4784596264
0.2647093236 5.471090794 0.6674131155
0.2661034465 5.460420132 0.8591897488
0.2672650814 5.464640141 1.055236578
0.2680772543 5.442312241 1.24802506
0.2682478726 5.407365799 1.43908596
0.1047587097 2.053786993 -0.5394309759
0.103408277 2.020381212 -0.4570971429
0.1114111319 2.147354126 -0.3338826895
0.1119002551 2.149551153 -0.2591508031
0.1195406094 2.265850306 -0.1167103201
0.1213463917 2.292453051 -0.0393708311
0.2499827594 4.900894165 0.08495652676
0.252828449 4.922862053 0.2561333179
0.2845939398 5.503918648 0.4784596264
0.2839097083 5.47211647 0.6676568985
0.2847489417 5.451567173 0.8579382896
0.2873941064 5.465584755 1.055618286
0.2869938314 5.421833038 1.243526101
0.2873278558 5.410254478 1.440121293
0.1108762249 2.034119129 -0.5342546105
0.1105987132 2.01609683 -0.4561973512
0.1175938249 2.123283863 -0.3301282823
0.1206622571 2.164982557 -0.2611006796
0.1256934255 2.248211622 -0.1932860464
0.1281068772 2.270054102 -0.03898688033
0.2684909105 4.909927845 0.08513104171
0.270116955 4.923944473 0.2562379837
0.3033666313 5.494934082 0.4777623713
0.3031920493 5.457164288 0.6659506559
0.3027888536 5.432789326 0.855122447
0.3061424494 5.458667755 1.0544734
0.3056944907 5.41690731 1.242626309
0.3057734966 5.401503563 1.438050628
0.1174170971 2.0240767 -0.531666398
0.1170578897 2.011827946 -0.4552974999
0.1248663813 2.126826286 -0.3307540119
0.127139315 2.152680635 -0.2596382499
0.1340136528 2.255714893 -0.1939833015
0.1359124929 2.280933857 -0.1175476983
0.1373466849 2.291550159 -0.0393708311
0.3171989322 5.46798563 0.09490438551
0.3196530044 5.477266312 0.2853367925
0.3216103613 5.477930546 0.4763679206
0.3215192854 5.460092545 0.6664381623
0.3217498362 5.431699276 0.855122447
0.3237755597 5.449783325 1.052946925
0.3236574233 5.415863514 1.242626309
0.3234686553 5.381119251 1.432874322
0.1237723306 2.017891169 -0.5301134586
0.1271999478 2.06197834 -0.466994971
0.1325355023 2.130320311 -0.3313797414
0.1346513182 2.152223825 -0.2596382499
0.1441235542 2.284432173 -0.1177570373
0.1457252949 2.297044039 -0.03947554529
0.2890119255 4.698414803 0.08146603405
0.3396349847 5.49007082 0.2860694826
0.3397729695 5.47683382 0.4763679206
0.3399600685 5.449030876 0.6652194858
0.3407095075 5.430542946 0.855122447
0.3419353962 5.434904575 1.050275683
0.3428078592 5.418590069 1.243526101
0.3420013487 5.376102448 1.431839108
0.1315439939 2.023207664 -0.531666398
0.1370576471 2.10235858 -0.4764429033
0.1465765685 2.224433422 -0.3463974297
0.1429489404 2.16362524 -0.2611006796
0.1558322161 2.34617281 -0.2020016313
0.1524971128 2.283888578 -0.1177570373
0.1537421048 2.296521425 -0.03947554529
0.3112503588 4.787174702 0.08303675801
0.3598456979 5.475551605 0.4763679206
0.3579332829 5.431964874 0.6632695198
0.3596650064 5.429320335 0.855122447
0.3615909219 5.42969656 1.049512386
0.3618834615 5.405631065 1.240826607
0.3610255122 5.378730297 1.432874322
0.1388691962 2.026590586 -0.5327016711
0.146772325 2.131004095 -0.4831914306
0.1507851332 2.172671556 -0.3382628262
0.1503250748 2.155165672 -0.2601257265
0.1614469886 2.297288895 -0.1184897348
0.1631450355 2.309905529 -0.03971988335
0.3267659843 4.732336998 0.2463988215
0.3784052134 5.466311932 0.4756706655
0.37783885 5.430616379 0.6632695198
0.3788718581 5.418112278 0.8535580635
0.3804034591 5.4264431 1.049130797
0.379108429 5.381008148 1.235427856
0.3804630637 5.373517036 1.431839108
0.1458792239 2.020287514 -0.5311487317
0.1547723413 2.138253689 -0.4849910736
0.1587468833 2.17210412 -0.3382628262
0.1598782092 2.182344913 -0.2635380626
0.1702768058 2.313205242 -0.1992126405
0.1728128791 2.336518288 -0.1205831841
0.3472267687 4.808758259 0.0834556073
0.3458858728 4.767023563 0.2482829243
0.3965049982 5.425304413 0.6627821326
0.3960451186 5.393116951 0.8498036861
0.4002911747 5.425012589 1.049130797
0.3991152346 5.383469105 1.236327648
0.3986465931 5.364450455 1.429768562
0.1503376514 1.994776368 -0.5244194269
0.1621560156 2.141614914 -0.4858908653
0.1655695289 2.171594858 -0.3382628262
0.168630898 2.201595545 -0.2659754753
0.1755600721 2.286834002 -0.1969465911
0.3616910279 4.765850544 0.2482829243
0.4139447808 5.441755772 0.4737532139
0.4144926965 5.423959732 0.6627821326
0.413926065 5.391773701 0.8498036861
0.416578263 5.413940907 1.047222614
0.4160248637 5.382188797 1.236327648
0.4152386189 5.347690105 1.425627351
0.1569955647 1.990387797 -0.5233841538
0.1683999151 2.12549448 -0.4822916389
0.1731493771 2.17100358 -0.3382628262
0.1772654653 2.212866068 -0.2674378753
0.4323939085 5.445478916 0.284080714
0.433568567 5.448221684 0.474450469
0.4327920675 5.41456461 0.6618071198
0.4330618978 5.394233227 0.8504293561
0.434058249 5.394840717 1.043788075
0.4348111451 5.380703449 1.236327648
0.4335893691 5.342357635 1.424592137
0.1648946553 2.00137949 -0.5264900327
0.1767819673 2.136546612 -0.4849910736
0.180726096 2.170386076 -0.3382628262
0.185980767 2.224102974 -0.2689003348
0.3720363975 4.439744473 -0.386074543
0.4502430856 5.430003166 0.2833480239
0.4517577291 5.436748028 0.4735789299
0.4497078657 5.38928318 0.6588822603
0.4517251253 5.390720367 0.8501164913
0.4532145858 5.39720583 1.044551373
0.4529370666 5.371385574 1.234528065
0.4519104362 5.336961269 1.423556805
0.1720456332 2.002716303 -0.5270076394
0.1883016378 2.169741869 -0.3382628262
0.1920195371 2.203664303 -0.2664629519
0.3871842325 4.434449673 -0.3857259452
0.4690240622 5.426409245 0.2832433581
0.4707316458 5.435138226 0.4735789299
0.4681746662 5.383724689 0.6583947539
0.4698511362 5.381239891 0.8488650322
0.4722240865 5.397546768 1.044932961
0.470318675 5.354241848 1.230928898
0.4705360532 5.335351467 1.423556805
0.1785187572 1.996331096 -0.5254547
0.1923206598 2.129724026 -0.332005471
0.2007865012 2.214842319 -0.2679253519
0.3997785151 4.401323795 -0.3829369545
0.4392953813 4.799215317 -0.08342070878
0.4877828062 5.422749043 0.2831386626
0.4893446863 5.42949295 0.4732302725
0.4873211682 5.386012077 0.6588822603
0.4872041643 5.363828182 0.8463620543
0.4907051921 5.391955376 1.044169784
0.4886524081 5.348686218 1.230028987
0.4888029993 5.329828262 1.422521472
0.1838776767 1.97838378 -0.520796001
0.1979079098 2.109372616 -0.3288767636
0.207586512 2.204246283 -0.2667066753
0.4147622287 4.395934582 -0.3825883269
0.4560463727 4.797652245 -0.08342070878
0.5067102313 5.421012878 0.2831386626
0.5071809888 5.415849209 0.4721844196
0.5061203241 5.384277821 0.6588822603
0.5062918663 5.366028309 0.8469878435
0.5084165335 5.378481865 1.041880012
0.5076842904 5.350828648 1.230928898
0.5059408545 5.31270504 1.418380499
0.1905955523 1.975807071 -0.5202783346
0.206035912 2.116533041 -0.3301282823
0.2160511315 2.211411238 -0.2676816285
0.4297173023 4.390493393 -0.3822396696
0.4637738168 4.798920155 0.0834556073
0.5245401263 5.398182392 0.4707899392
0.5237572193 5.370623589 0.6574198604
0.523316741 5.35645628 0.8457363844
0.5260397792 5.364951134 1.03959024
0.5259788036 5.345144749 1.230028987
0.5239361525 5.314842701 1.419415832
0.1982606053 1.982818961 -0.5223489404
0.2126582116 2.111907005 -0.3295024931
0.2225845009 2.202782393 -0.2667066753
0.4454436302 4.392931461 -0.3825883269
0.4733143449 4.659710407 -0.24325867
0.4813925028 4.722819328 -0.0821641311
0.4737154543 4.737662792 0.08240846545
0.5414021611 5.395579338 0.2819872797
0.5437807441 5.40028286 0.4711385667
0.5403649807 5.357007504 0.6559574008
0.5420124531 5.354596615 0.8457363844
0.5434305072 5.359270573 1.038827062
0.5421244502 5.327861309 1.22642982
0.5420891643 5.309138298 1.418380499
0.2038424313 1.972542286 -0.5197607279
0.2175701857 2.087575436 -0.325748086
0.229034096 2.190145969 -0.2652442455
0.4607741833 4.391349792 -0.3825883269
0.4895781577 4.658029556 -0.24325867
0.5054242015 4.792702198 -0.08342070878
0.4869569242 4.704154968 0.08184998482
0.5592026711 5.383722782 0.2814638913
0.5618908405 5.400431633 0.4713128805
0.5582380891 5.347190857 0.6549824476
0.5606964827 5.352672577 0.8457363844
0.5621333718 5.35734129 1.038827062
0.5603070855 5.322060585 1.225530028
0.5606195927 5.307213306 1.418380499
0.2102478445 1.964098334 -0.5176901221
0.2290370315 2.122115135 -0.3313797414
0.2371039838 2.193280458 -0.2657317221
0.504701972 4.638334751 -0.2423166335
0.5108857155 4.68753624 -0.08160565794
0.5012450814 4.682543755 0.08150094002
0.5788465142 5.389681339 0.2818826139
0.5810391307 5.392393112 0.4707899392
0.5777533054 5.353104115 0.6559574008
0.5778902769 5.33693552 0.8435462713
0.5821881294 5.359148979 1.03959024
0.5793912411 5.316095829 1.224630117
0.5783020854 5.297542095 1.416309953
0.2156168073 1.949911594 -0.5140666962
0.2325029522 2.085964918 -0.325748086
0.2451417297 2.192396641 -0.2657317221
0.526019454 4.682194233 -0.2447240949
0.5228078961 4.720425606 0.08219903708
0.5983750224 5.385538578 0.2817779183
0.5972155929 5.366569519 0.4686981738
0.5978088379 5.354896545 0.6564449072
0.5948078632 5.311223984 0.8397918344
0.5995798707 5.345377445 1.037300587
0.5975074172 5.310168266 1.223730445
0.5959826112 5.280029774 1.412168741
0.2200122476 1.92803359 -0.5083726645
0.2411375493 2.096915483 -0.3276253045
0.25347507 2.197443485 -0.2664629519
0.2785371542 2.411016941 -0.2086254656
0.6176268458 5.387385845 0.2819872797
0.6159436107 5.364452362 0.4686981738
0.6151359677 5.340944767 0.6549824476
0.6133452654 5.309114933 0.8397918344
0.6168826222 5.331550598 1.035010815
0.6164879203 5.311922073 1.224630117
0.6148553491 5.281755447 1.413204074
0.2242576182 1.90614903 -0.5026786327
0.232669875 1.968768477 -0.3771014214
0.2470600605 2.084290981 -0.325748086
0.2595912516 2.186734676 -0.2652442455
0.2959034443 2.485209703 -0.2152493
0.6392165422 5.352684498 -0.2803125083
0.6428191066 5.374884605 -0.09378743172
0.6350168586 5.381340981 0.2817779183
0.6351351142 5.366226673 0.4690468311
0.6304982901 5.31116724 0.6515701413
0.6309490204 5.307051659 0.8397918344
0.6350234747 5.325466156 1.034247637
0.6331766844 5.302108288 1.222830534
0.6323683858 5.279686928 1.413204074
0.2287212461 1.89005208 -0.4985375404
0.2477254719 2.038146973 -0.3908396661
0.2544490993 2.08738184 -0.3263738155
0.2666003108 2.183891535 -0.2650004923
0.2755723596 2.250855446 -0.1946805418
0.6574488878 5.354500771 -0.2805218697
0.6601501703 5.368754864 -0.09371762723
0.6498172283 5.361958027 0.0935780108
0.6494911313 5.351447582 0.2803125083
0.6529256105 5.364090919 0.4690468311
0.6485873461 5.312988281 0.6520575881
0.6478241682 5.299048424 0.83885324
0.6536343694 5.331125259 1.035774112
0.6488546729 5.284506321 1.219231367
0.6503440738 5.281395435 1.414239287
0.2323643565 1.868195415 -0.4928435087
0.2544834316 2.037314177 -0.3908396661
0.260387212 2.078686476 -0.3251223564
0.2729853392 2.173099279 -0.2637818158
0.2834282517 2.249879599 -0.1946805418
0.6757028103 5.356253624 -0.2807312012
0.6786371469 5.364433765 -0.09368272871
0.6680902839 5.363741398 0.09364781529
0.668168664 5.349147797 0.2803125083
0.6697223186 5.353988647 0.468349576
0.6657095551 5.30686903 0.6515701413
0.6645904183 5.283035278 0.8366631866
0.6713109016 5.328927994 1.035774112
0.666318953 5.274475574 1.217431784
0.6668346524 5.263761044 1.410098195
0.3185567558 2.476437092 -0.4770853221
0.2669939101 2.069881439 -0.3238708675
0.2808230519 2.174102068 -0.264025569
0.2887203693 2.22911787 -0.1929374188
0.6945570707 5.347799778 -0.2804171741
0.6965835094 5.356083393 -0.0935780108
0.6865539551 5.359393597 0.09361291677
0.6878532767 5.354706764 0.2807312012
0.6873036027 5.335689545 0.4669550657
0.6847367287 5.308450699 0.6520575881
0.684802711 5.2943964 0.83885324
0.6898267269 5.318645 1.034247637
0.6861504316 5.275862217 1.218331575
0.6837065816 5.249907494 1.406992435
0.3205106854 2.424705505 -0.4671632349
0.2726598084 2.057187557 -0.3219936788
0.2900977433 2.182897091 -0.2652442455
0.2949223816 2.216246843 -0.1918915659
0.6062406301 4.543558121 -0.2380250841
0.70410043 5.340981483 0.09333367646
0.7069526911 5.348189831 0.2805218697
0.7059258223 5.333257675 0.4669550657
0.7041898966 5.305904865 0.6520575881
0.700553894 5.264437199 0.8344730735
0.7057963014 5.296743393 1.030431509
0.7045612931 5.273435593 1.218331575
0.701919198 5.23970747 1.404921889
0.2811715007 2.06600976 -0.3235580027
0.2966417372 2.174003601 -0.2642692924
0.3013087213 2.205333233 -0.1910200119
0.5906531811 4.311876297 -0.2258831412
0.6671469808 4.857667446 -0.08488670737
0.7224728465 5.336509228 0.09329877049
0.7240014672 5.333815098 0.2798938453
0.724537015 5.330761433 0.4669550657
0.7189505696 5.275878429 0.6486452222
0.7237406373 5.297189236 0.8401046991
0.72481215 5.298137665 1.031194687
0.7219069004 5.263221264 1.216531992
0.7217828631 5.248708248 1.408027768
0.2832581401 2.033513069 -0.3908396661
0.288107872 2.06305933 -0.3232451379
0.3045044541 2.174920797 -0.2645130157
0.3092810512 2.206241131 -0.1911943108
0.6054239273 4.30780983 -0.2257784754
0.6827009916 4.84540844 -0.08471218497
0.7419233322 5.339896679 0.09340348095
0.7420659065 5.327299118 0.279684484
0.74314183 5.328199387 0.4669550657
0.7384634614 5.281200409 0.6496201754
0.7381122112 5.265287399 0.8354117274
0.7438463569 5.299464226 1.031957984
0.7391873598 5.252950191 1.214732409
0.7401013374 5.246156693 1.408027768
0.2936869264 2.055834293 -0.3954190612
0.2953080833 2.062041044 -0.3232451379
0.3120930195 2.173844814 -0.2645130157
0.3155635595 2.195287704 -0.1903227568
0.6218787432 4.315555096 -0.2263018191
0.6978963614 4.831120968 -0.0845027566
0.7605548501 5.337275028 0.09340348095
0.7600935698 5.320721626 0.2794751525
0.7606040835 5.317683697 0.4662578404
0.7574587464 5.282520294 0.6501076818
0.7567694187 5.264633656 0.8357245326
0.7612231374 5.2890625 1.030431509
0.7569637895 5.246480465 1.213832498
0.7567465305 5.232070446 1.404921889
0.299723208 2.047026396 -0.393892616
0.3025047183 2.060997725 -0.3232451379
0.3228583634 2.194345713 -0.2671941519
0.32177338 2.184317112 -0.1894512028
0.6366484165 4.311381817 -0.2261971533
0.7176829576 4.848436832 -0.08485180885
0.7774480581 5.322714806 0.09319405258
0.778660655 5.318036079 0.2794751525
0.7768511772 5.299225807 0.4648633599
0.7758924365 5.279844284 0.6501076818
0.7751432061 5.261959553 0.8357245326
0.779679656 5.286373138 1.030431509
0.7749893069 5.24187851 1.213382602
0.7721744776 5.210286617 1.399745464
0.3045377731 2.030435324 -0.3908396661
0.307933569 2.048208714 -0.3213679492
0.3314040899 2.199093819 -0.2679253519
0.3305836022 2.191061258 -0.1901484579
0.65229249 4.313082695 -0.2264064848
0.7343043089 4.843924999 -0.08481689543
0.7936546803 5.30414772 0.09291481972
0.7963320613 5.309360504 0.2791611254
0.7959372997 5.300422192 0.4652119577
0.7931373119 5.269251347 0.649132669
0.7935025096 5.259222031 0.8357245326
0.7957832813 5.268089294 1.02737844
0.7932785749 5.239141464 1.213382602
0.7903584838 5.207559586 1.399745464
0.2689824998 1.75780952 -0.4648910463
0.3128149211 2.037121773 -0.3923661113
0.3150818348 2.047121525 -0.3213679492
0.3390778601 2.19792366 -0.2679253519
0.3379262686 2.187924623 -0.1899741441
0.6636765003 4.28709507 -0.2251504362
0.7487567067 4.825523376 -0.08453766257
0.8127717972 5.305297852 0.09298462421
0.8142528534 5.302599907 0.2789517939
0.8144332767 5.297611713 0.4652119577
0.8088035583 5.248793125 0.6469390988
0.8118572235 5.256420135 0.8357245326
0.8141688704 5.265279293 1.02737844
0.8103692532 5.228637695 1.211583018
0.8103095889 5.216222286 1.402851343
0.3209320009 2.044763327 -0.4678947926
0.3229709566 2.055412292 -0.3961822987
0.3225325942 2.04796052 -0.3216807842
0.3464390934 2.194765806 -0.2676816285
0.3468049765 2.194603682 -0.1906713694
0.678950727 4.286724091 -0.2252551019
0.7188801169 4.528611183 -0.07933684438
0.8319066167 5.306379318 0.09305443615
0.8315161467 5.291833401 0.2785331011
0.8335410953 5.298673153 0.4655605853
0.8271192908 5.245938301 0.6469390988
0.8301994801 5.253554344 0.8357245326
0.8313124776 5.254648685 1.025852084
0.8273937702 5.218078136 1.209783316
0.8279076219 5.209546089 1.40181601
0.3252452016 2.030574083 -0.5394309759
0.3249793053 2.024389267 -0.4633957446
0.3989900947 2.482654572 -0.4805198908
0.3337634504 2.072175026 -0.325748086
0.3677008152 2.277811289 -0.27816239
0.3544640541 2.193379641 -0.1906713694
0.6948671937 4.290243149 -0.225569129
0.7840266824 4.830048084 -0.08471218497
0.8510564566 5.30739212 0.09312424809
0.8490337133 5.282982349 0.278219074
0.8513976932 5.291796684 0.4652119577
0.848587513 5.262617111 0.649376452
0.8463281989 5.236974239 0.8335344791
0.8502780199 5.255591393 1.026615262
0.8449808359 5.211310863 1.208883643
0.8448468447 5.198997498 1.399745464
0.3104772568 1.895974517 -0.5031962991
0.3355158567 2.044395685 -0.4683446884
0.4095628858 2.492870331 -0.4828095734
0.4886229932 2.967598438 -0.4696678221
0.4331771433 2.625145912 -0.3215478659
0.3611446619 2.186231852 -0.1901484579
0.7104922533 4.291732311 -0.2257784754
0.8005536795 4.825309753 -0.084677279
0.8669883013 5.288602352 0.09284500778
0.8674684763 5.279986382 0.278219074
0.8672765493 5.27306509 0.4638174772
0.8653368354 5.249829292 0.6481577158
0.8646048307 5.233987331 0.8335344791
0.8679765463 5.248717308 1.025852084
0.8631680012 5.208329201 1.208883643
0.8598256707 5.176959038 1.394569159
0.3206013739 1.915838122 -0.5088903308
0.3442611992 2.052821398 -0.4705941975
0.4221633673 2.514659643 -0.4873890281
0.492423594 2.926914692 -0.4634104371
0.4491339028 2.666760683 -0.3269101381
0.3710944057 2.198709965 -0.1913686246
0.7241355777 4.281348705 -0.2253597677
0.8118783236 4.795025349 -0.08418861777
0.8843135834 5.273141384 0.2780097425
0.8850185871 5.266075611 0.4634688497
0.8813505173 5.233074188 0.6464515924
0.8809703588 5.225248337 0.8325958848
0.8830234408 5.226297379 1.022035837
0.8817335963 5.213124752 1.210683227
0.8769873381 5.174079418 1.394569159
0.3279278874 1.92047739 -0.5104432106
0.358625859 2.095847607 -0.4809419215
0.4311623573 2.51711607 -0.4881522357
0.5054681897 2.944734812 -0.4665391445
0.44654423 2.598738194 -0.3186230063
0.384806931 2.234773874 -0.1946805418
0.7362926602 4.267115116 -0.2247317582
0.8298159242 4.804130077 -0.08439804614
0.8989236355 5.258925915 0.09242615104
0.9031414986 5.278054714 0.2784284353
0.9024755955 5.263112068 0.4634688497
0.8966811299 5.218384266 0.6449891329
0.8976222873 5.218404293 0.8319700956
0.8996840715 5.219470501 1.02127254
0.8963666558 5.19480896 1.20708406
0.8954583406 5.178756714 1.396639705
0.334626615 1.921282411 -0.5109608173
0.3699301481 2.119603157 -0.486790657
0.4384941161 2.509870291 -0.4870073795
0.5090997219 2.908018112 -0.4609074891
0.4590422809 2.616716146 -0.3210604191
0.7475038767 4.256680012 -0.3743956983
0.750436008 4.264650822 -0.2247317582
0.8392894864 4.759847641 -0.08366503567
0.9191045165 5.271675587 0.0927053839
0.9212955832 5.267940998 0.464166075
0.913982451 5.215381622 0.6449891329
0.9158337712 5.215239048 0.8319700956
0.9190258384 5.228060246 1.023562312
0.9131410718 5.183971405 1.205284357
0.9135266542 5.175600052 1.396639705
0.3413307071 1.920102715 -0.5109608173
0.3848445714 2.160506725 -0.4966884851
0.4479412436 2.512190104 -0.487770617
0.5178586245 2.898445129 -0.4596560299
0.462577045 2.583833218 -0.3171605766
0.7620076537 4.252083778 -0.3742213845
0.7653189898 4.262004852 -0.2247317582
0.834297359 4.636836052 -0.08153585345
0.8278467059 4.652210712 0.08178018034
0.9336565137 5.236227989 0.2765443325
0.9368793964 5.24900198 0.4627715945
0.9321808219 5.212159634 0.6449891329
0.9312465787 5.196455479 0.8294671774
0.937268436 5.224820137 1.023562312
0.9305428863 5.176916599 1.204384565
0.9295340776 5.160972118 1.393533826
0.3452734649 1.903692484 -0.506819725
