# .PCD v0.7 - Point Cloud Data file format
VERSION 0.7
FIELDS x y z
SIZE 4 4 4
TYPE F F F
COUNT 1 1 1
WIDTH 1296
HEIGHT 1
VIEWPOINT 0 0 0 1 0 0 0
POINTS 1296
DATA ascii
1.754244566 1.4114573 -0.5917124152
1.723936558 1.386082053 -0.5007376671
1.854341745 1.490396261 -0.4541882575
2.210896492 1.775703073 -0.4424482286
4.493011475 3.604737997 -0.500248611
4.634431362 3.715537071 -0.3090973198
4.69748497 3.763395786 -0.1043635979
4.6668787 3.753607512 0.1038400233
4.67036438 3.753727436 0.3118187785
4.684643269 3.763858557 0.5220375061
4.639618397 3.725019217 0.7254229188
4.637014389 3.720271587 0.9349039793
4.643304825 3.723982096 1.14873302
4.618374348 3.701343536 1.356451511
4.614887238 3.69590044 1.572636724
1.777273417 1.419793963 -0.5979240537
1.725718975 1.377623796 -0.4998378754
1.853394866 1.47901547 -0.4526617527
2.207814932 1.760584354 -0.4405709803
4.485572338 3.574382782 -0.6990991235
4.511802197 3.593997002 -0.5009458661
4.645809174 3.698093891 -0.3089926243
4.715289116 3.750708818 -0.1044683158
4.697140217 3.751021624 0.104223974
4.689684391 3.742383957 0.3122374713
4.70398283 3.752454042 0.5227348208
4.666563511 3.719935894 0.7276165485
4.653064251 3.706522942 0.9355297685
4.674706459 3.722425938 1.153312445
4.637366772 3.690052032 1.358251095
4.639856339 3.689388752 1.576777697
1.774649858 1.407580256 -0.5953358412
1.736626387 1.376433015 -0.5016374588
1.864700794 1.477415085 -0.4541882575
2.213947535 1.752866387 -0.4405709803
2.071003914 1.638516784 -0.3191104829
4.533697128 3.585640192 -0.5019916892
4.6806283 3.699191093 -0.3104580343
4.728350163 3.73423028 -0.1044683158
4.722741604 3.744540453 0.1045032144
4.712109566 3.733436346 0.3128654957
4.729548454 3.745906353 0.5241292715
4.695083618 3.715946913 0.7300539017
4.667523861 3.691482067 0.9358425736
4.696909428 3.713394403 1.155602217
4.662452698 3.683505297 1.361850262
4.658772469 3.67795682 1.578848243
1.765893221 1.390619755 -0.5906771421
1.752140045 1.378798723 -0.5047867298
1.885277271 1.483034611 -0.458004415
2.210734606 1.737803578 -0.4386937916
4.546323299 3.571181774 -0.7047051191
4.546807766 3.569000483 -0.5019916892
4.69665575 3.685294628 -0.3106673658
4.753946304 3.727572203 -0.1047475487
4.742065907 3.732982874 0.1046428308
4.737671852 3.726842642 0.3137028515
4.736331463 3.724446535 0.5234320164
4.725196838 3.713026047 0.7327350974
4.692809582 3.68492794 0.9383456111
4.719109535 3.704248428 1.15789187
4.6906147 3.679235935 1.366349339
4.671583652 3.661671162 1.578848243
1.786198974 1.396034598 -0.5958535075
1.758478403 1.373873591 -0.5052366853
1.875225067 1.464033723 -0.4541882575
2.162577152 1.687161922 -0.4277433455
4.565020084 3.560176611 -0.7056800723
4.573382854 3.564128399 -0.5035604835
4.719585419 3.675420046 -0.3112954199
4.774819851 3.717095613 -0.1049220785
4.761371136 3.721331596 0.1047824472
4.763244152 3.720118523 0.314540267
4.762515068 3.716869831 0.5248265266
4.738127708 3.696510315 0.7327350974
4.724339485 3.683097363 0.9420999885
4.726459026 3.682101727 1.156365395
4.716371059 3.67159462 1.369948626
4.696531296 3.654836893 1.582989454
1.798692942 1.395712376 -0.5984416604
1.761961699 1.366225481 -0.5047867298
1.89584136 1.469506025 -0.458004415
2.112232685 1.63605547 -0.416480124
4.581178665 3.5458498 -0.7061675787
4.598402023 3.557897568 -0.5049550533
4.735545635 3.661367178 -0.3115047514
4.80358696 3.712635756 -0.1052711233
4.784459591 3.711207867 0.104991883
4.782515049 3.708363295 0.31495893
4.788058758 3.709986448 0.5262210369
4.753214359 3.680332899 0.7329788208
4.751225948 3.677466869 0.9449158311
4.757919788 3.679993391 1.160944819
4.735325336 3.659877062 1.371748209
4.72454834 3.650230646 1.58816576
1.811205506 1.395320535 -0.6010298729
1.766482234 1.360375285 -0.5047867298
1.900959134 1.462879658 -0.458004415
2.127040148 1.636269093 -0.4183573127
4.729833603 3.635893822 -0.7273728251
4.734036446 3.636493206 -0.51855129
4.74766016 3.645644665 -0.3115047514
4.824450493 3.701930523 -0.1054456457
4.814164639 3.70874691 0.1053758338
4.798596382 3.694081545 0.3151682615
4.813612461 3.702969551 0.5276154876
4.781130314 3.676650524 0.7354161739
4.770297527 3.665675163 0.9461672902
4.779439449 3.671370029 1.163234591
4.74743557 3.644154787 1.371748209
4.752589226 3.645475388 1.593342185
1.817357302 1.390480161 -0.6015475392
1.783605337 1.363669395 -0.5083859563
1.912039399 1.461336017 -0.45953089
2.200244904 1.680389762 -0.4318106472
4.824555874 3.681985378 -0.740047276
4.803094387 3.664280176 -0.5248265266
4.779417992 3.643579245 -0.3127608001
4.836699486 3.685912848 -0.1054456457
4.836612701 3.699207544 0.1055852622
4.826685905 3.690280199 0.3162149787
4.835366249 3.694243193 0.5286613703
4.808134556 3.670781374 0.7376098633
4.788709641 3.654628277 0.9474188089
4.807836056 3.666570187 1.167050719
4.766327381 3.632284403 1.373547792
4.767725945 3.632035017 1.594377398
1.814507723 1.378285527 -0.5989593267
1.792773485 1.361283064 -0.5097357035
1.948408365 1.478387356 -0.4671632349
2.20737958 1.674277425 -0.4321235418
4.854140759 3.679157019 -0.7427283525
4.815855503 3.647493124 -0.5248265266
4.797843456 3.63253355 -0.3131795228
4.871861458 3.685899258 -0.105934307
4.85999918 3.691616297 0.1058295965
4.852264404 3.683071136 0.3170523643
4.851408005 3.67974925 0.5290099978
4.837679863 3.668010235 0.7402909994
4.809310913 3.643853903 0.9489831328
4.826227665 3.655349016 1.168577194
4.793886185 3.628217697 1.378046751
4.783457756 3.617699862 1.595412731
1.823695421 1.375750661 -0.6005122662
1.803739309 1.359708667 -0.5115352869
1.943893194 1.464828491 -0.4648735523
2.19427371 1.652303338 -0.4283691347
4.879642487 3.671740294 -0.7446783185
4.843847752 3.643478394 -0.5265696049
4.812091351 3.616962433 -0.3132841885
4.900687695 3.680878639 -0.1062833592
4.871258259 3.67342639 0.1057946905
4.881042957 3.678129435 0.3180990815
4.876312256 3.673234224 0.5304045081
4.855213642 3.654681921 0.7410221696
4.829893589 3.632982492 0.9505474567
4.842096806 3.640838146 1.169340372
4.822100639 3.623168945 1.382545829
4.814594746 3.614900589 1.60162437
1.833124995 1.372850657 -0.602065146
1.802233338 1.348733902 -0.5097357035
1.98986721 1.488611579 -0.4747956395
4.88653326 3.652935982 -0.959620595
4.901972771 3.661811113 -0.7461407185
4.869308949 3.636083364 -0.5279641151
4.840693951 3.61208868 -0.3143309057
4.932743073 3.678095341 -0.106702216
4.900060654 3.668382883 0.1061437428
4.900248528 3.665855646 0.3185177743
4.908252239 3.670507431 0.5324962139
4.86316967 3.634147644 0.7402909994
4.859957218 3.629100323 0.9539890289
4.867362499 3.633310556 1.172393322
4.844091892 3.613304138 1.385245204
4.842671871 3.609618664 1.606800795
1.850309014 1.375664234 -0.6062062383
1.813187242 1.347083807 -0.5115352869
2.058097124 1.528477669 -0.4900603294
4.918289661 3.64998436 -0.9633750916
4.91153717 3.642311573 -0.7456532121
4.897974491 3.630933046 -0.529707253
4.864508152 3.603490114 -0.3150635958
4.947160244 3.662042379 -0.1067371219
4.925676823 3.660797834 0.1064229831
4.919429302 3.653490305 0.3189364672
4.940232754 3.667602539 0.5345879793
4.894958019 3.631341219 0.7432158589
4.886875153 3.622704744 0.9568048716
4.902099133 3.632661104 1.177736044
4.858238697 3.597536087 1.3856951
4.867666721 3.601884127 1.610941887
1.981000423 1.462121606 -0.6481349468
1.824151993 1.345372677 -0.5133348703
2.069741249 1.525943756 -0.4915867746
4.9389534 3.638651371 -0.9649394751
4.940206528 3.636914492 -0.7480906248
4.920248032 3.62089777 -0.5307531357
4.893146992 3.598321438 -0.3161103129
4.959914207 3.64474988 -0.1067371219
4.952906132 3.65426755 0.1067371219
4.941799164 3.643405914 0.3195644915
4.962627411 3.657428741 0.5356338024
4.926785946 3.62835741 0.7461407185
4.899491787 3.605622768 0.9568048716
4.930564404 3.627159834 1.181552172
4.880188465 3.58747983 1.388394594
4.892664433 3.594021082 1.61508286
1.844283819 1.351296186 -0.6010298729
1.838271141 1.345904708 -0.5160343051
2.081391096 1.523349285 -0.4931133091
4.953219891 3.622553587 -0.9652522802
4.972105026 3.633702517 -0.7510154843
4.936075687 3.606050014 -0.5311017036
4.934715271 3.602415085 -0.3179944158
4.996836662 3.645095348 -0.1072606966
4.97853899 3.646407843 0.1070163622
4.967378139 3.635574102 0.3204018772
4.975365162 3.640082359 0.5356338024
4.952239037 3.620513439 0.7480906248
4.924809456 3.59781909 0.9593077898
4.952706337 3.616877317 1.183841944
4.909998417 3.58305788 1.393343449
4.908303261 3.579195976 1.616118193
1.864613056 1.356212974 -0.6062062383
1.84611094 1.341770649 -0.5169340968
2.080343246 1.511458039 -0.4915867746
4.969030857 3.607563496 -0.9658780098
5.000823975 3.627984524 -0.7534528971
4.95830965 3.595817089 -0.5321475863
4.948877811 3.586338282 -0.3180990815
5.022488117 3.637012482 -0.1075399294
4.991234303 3.629010916 0.1070163622
4.999429226 3.63229847 0.3216579258
4.997710705 3.629721403 0.5366796851
4.979307175 3.613697052 0.7502843142
4.954927444 3.593364239 0.9627493024
4.965302467 3.599565983 1.183841944
4.941412926 3.579616785 1.398742318
4.936416626 3.573367596 1.621294618
1.877166629 1.355350614 -0.6087944508
1.844462276 1.330756903 -0.5151344538
2.085606098 1.504187465 -0.4915867746
5.00723505 3.608674526 -0.9708839059
5.019901752 3.615145206 -0.7544278502
4.987001896 3.590126753 -0.5338907242
4.962985516 3.570211411 -0.3182037473
5.046518326 3.627629995 -0.1077842638
5.016844273 3.620927095 0.1072955951
5.021796227 3.621835947 0.3222859502
5.029745579 3.62623477 0.5387714505
4.991889954 3.596295118 0.7502843142
4.985076427 3.588740587 0.9661909342
4.993771076 3.593680382 1.187658072
4.966536045 3.571447134 1.402341604
4.962977409 3.566263676 1.625953317
1.87560606 1.344287992 -0.6067239046
1.855432749 1.328850508 -0.5169340968
2.081266403 1.490040541 -0.4892971218
5.032651424 3.600372314 -0.9733868837
5.030876637 3.596444607 -0.7541841269
5.018953323 3.586601257 -0.5359824896
5.009552002 3.57723856 -0.3204018772
5.067290306 3.615798473 -0.1079587936
5.048960686 3.617367268 0.1077144593
5.031161308 3.601957798 0.3220766187
5.05857563 3.62024951 0.5405145884
5.015716553 3.586930275 0.7519904375
5.005606651 3.577063322 0.9677551985
5.022261143 3.587637424 1.191474319
4.978971958 3.554090023 1.402341604
4.987978458 3.557891607 1.630094409
1.892880201 1.346691489 -0.6108650565
1.869589686 1.329140067 -0.519633472
2.080054045 1.478216767 -0.487770617
5.07256937 3.602225542 -0.9787056446
5.064445019 3.593796968 -0.7573527098
5.041193962 3.57597518 -0.5370283127
5.03504324 3.56897068 -0.321239233
5.08088398 3.600131989 -0.1079936922
5.077852249 3.611311674 0.1080635041
5.062611103 3.599142313 0.3233326674
5.080927372 3.609494448 0.5415604711
5.050869465 3.585485935 0.7554028034
5.020664215 3.562729597 0.9683809876
5.050769806 3.581439495 1.195290446
5.010427475 3.550209284 1.407740355
5.004479885 3.544679642 1.631647348
1.880355597 1.327428102 -0.521433115
2.08520031 1.470948577 -0.487770617
5.087716579 3.587659359 -0.9793314338
5.086071491 3.583842039 -0.7588151097
5.04875946 3.554913759 -0.5365054011
5.051751137 3.555701733 -0.3215532601
5.109776974 3.593877316 -0.1083427444
5.09633255 3.599068165 0.1082031205
5.094725609 3.595268726 0.3245887458
5.090239525 3.589438438 0.5412117839
5.072466373 3.57558012 0.7568652034
5.04437542 3.55314374 0.9705710411
5.0658288 3.56693244 1.196053743
5.031736374 3.540301323 1.41043973
5.023142815 3.531634569 1.633717895
2.884242058 2.022571087 -0.9323183298
1.888169289 1.323093414 -0.5223329067
2.099715233 1.470783234 -0.4900603294
2.383029699 1.667996407 -0.4540243745
5.118070126 3.579720497 -0.7617399693
5.079100609 3.549824715 -0.538422823
5.078866482 3.548342228 -0.3224953115
5.130488396 3.58174324 -0.1085172668
5.113778114 3.584698677 0.1083078384
5.126874924 3.591211796 0.3258447945
5.118434906 3.583967924 0.5429549217
5.091421127 3.562405348 0.7578401566
5.079411507 3.551361799 0.9749512076
5.081465721 3.551477909 1.196816921
5.063236713 3.536103964 1.415838599
5.054450035 3.527346849 1.639929533
2.90114975 2.018606901 -0.9354240894
1.889577031 1.314268351 -0.521433115
2.105091572 1.463077903 -0.4900603294
5.129484177 3.562428951 -0.9824601412
5.135425568 3.565230608 -0.762471199
5.112742901 3.546835661 -0.5406888723
5.106611729 3.539942503 -0.3234373331
5.161040306 3.57633996 -0.1089012176
5.139390469 3.575964689 0.1085870713
5.139380455 3.573292255 0.3258447945
5.144627094 3.574276686 0.5443493724
5.107087612 3.546874523 0.7583276629
5.10313797 3.541491985 0.9771412611
5.110580921 3.544018269 1.200633049
5.085772991 3.524183512 1.418538094
5.079435825 3.518483639 1.644070745
2.917716742 2.015053749 -0.9385299683
1.900796533 1.311761737 -0.5232326984
2.103722095 1.451261163 -0.4885338843
5.164656639 3.560199022 -0.9868402481
2.385667801 1.64330554 -0.3505527973
5.149707317 3.545917988 -0.5433035493
5.151844501 3.544739008 -0.3255307674
5.193263531 3.571902514 -0.1093200818
5.172210693 3.570735693 0.1090059355
5.161684513 3.562138319 0.3264728487
5.176754475 3.569871426 0.5464411378
5.139667511 3.541649818 0.7612524629
5.123602867 3.529261351 0.9787056446
5.142327785 3.539513826 1.205212474
5.098042965 3.506410122 1.418538094
5.107606888 3.511675358 1.649247169
2.926326513 2.005948305 -0.939047575
1.917996168 1.314263821 -0.5268319249
2.102295876 1.439471483 -0.4870073795
5.182953835 3.547516584 -0.9880917072
5.173300266 3.538254261 -0.7644211054
5.181793213 3.541409016 -0.5453952551
5.176764965 3.536647558 -0.3263681829
5.205701351 3.553751707 -0.1093200818
5.197219849 3.562608004 0.1092851758
5.187270641 3.553127289 0.3273102343
5.195759296 3.556281567 0.5471383929
5.161214352 3.531310797 0.7627149224
5.142412663 3.515815496 0.9799571037
5.170247078 3.533517838 1.209028721
5.12895298 3.502674103 1.423936844
5.129408836 3.500356674 1.65235281
2.931364298 1.995148182 -0.9385299683
1.922572374 1.307560325 -0.5268319249
2.110303879 1.434701204 -0.487770617
5.20511055 3.536062002 -0.9899689555
5.213540077 3.539129972 -0.7685647011
5.181967258 3.516376019 -0.5441750884
5.207261562 3.53088665 -0.3275195658
5.234628201 3.546776295 -0.1096691266
5.2294631 3.557944059 0.1097040325
5.216156006 3.54623127 0.3283569515
5.217412472 3.545750141 0.5481842756
5.193215847 3.526656866 0.7656398416
5.167731762 3.506716013 0.9824601412
5.195546627 3.52426672 1.212081671
5.154054642 3.493495226 1.42753613
5.144794464 3.484598398 1.653388143
2.9383111 1.984902859 -0.9385299683
1.930355072 1.303022265 -0.5277317166
2.115299463 1.427325487 -0.487770617
5.21905899 3.51897645 -0.9902818203
5.239033222 3.529781818 -0.7705146074
5.209082603 3.50828433 -0.5457438827
2.419274092 1.628137112 -0.1506240219
5.273526669 3.546337843 -0.1102276072
5.23522234 3.535190105 0.1095644161
5.248371124 3.541405916 0.3296130002
5.239668846 3.534199715 0.5492301583
5.215370178 3.515165806 0.7671022415
5.199601173 3.501898527 0.9862145185
5.211073399 3.508303165 1.212844849
5.188855171 3.490709782 1.433834672
5.176166534 3.479550362 1.6595999
2.958059072 1.98323977 -0.9426710606
1.934892058 1.296275735 -0.5277317166
2.130056858 1.426487207 -0.4900603294
5.252653599 3.515017986 -0.994349122
5.264521599 3.520303726 -0.7724644542
5.247800827 3.507793665 -0.5485329032
5.253374577 3.50887084 -0.3288802803
5.285874367 3.527907133 -0.1102276072
5.262478828 3.526917696 0.1098785549
5.268999577 3.528619766 0.3301363587
5.275150299 3.531408787 0.5516704917
5.227609634 3.496937752 0.7671022415
5.231501579 3.49689889 0.9899689555
5.236348152 3.498816729 1.215897918
5.207490444 3.476905584 1.435634255
5.207562923 3.474330425 1.665811419
2.9762218 1.980394244 -0.9462944865
1.949142098 1.295987129 -0.5304311514
5.272676945 3.504486322 -1.222385406
5.278057098 3.505403042 -0.9968520403
5.286702633 3.508490086 -0.7739269137
5.273295879 3.498263836 -0.5499273539
5.283903599 3.502649307 -0.330031693
2.447360039 1.621102095 -0.05054037273
5.296404362 3.522922754 0.1103323177
5.294590473 3.519051313 0.3309737146
5.313997746 3.530613661 0.5544594526
5.266244411 3.49623704 0.7710021138
5.260138035 3.489535093 0.9930976629
5.268162727 3.493537903 1.220477223
5.226093769 3.463011026 1.437433839
5.234156609 3.465728998 1.670470238
1.976424575 1.304203272 -0.5367298126
5.286517143 3.487139463 -1.222766995
5.308400631 3.498919487 -1.000293612
5.30886507 3.496564388 -0.7753893733
5.30211401 3.490794897 -0.5516704917
5.311115265 3.494061232 -0.3309737146
5.33209753 3.505198717 -0.1106813699
5.317014217 3.50992012 0.1105068401
5.318513393 3.50824523 0.3317064345
5.344587326 3.524105787 0.5563768744
5.291678429 3.486569166 0.7729519606
5.270634651 3.470069647 0.9927847981
5.29672575 3.485918999 1.224293351
5.252801418 3.454387903 1.441483021
5.260753632 3.456984043 1.675128937
1.997894883 1.309379101 -0.6284646988
1.990746975 1.303701401 -0.5394291878
2.128451824 1.39335084 -0.4862441719
5.333807468 3.489017963 -1.002796531
5.349285126 3.496476412 -0.7795329094
5.324275017 3.478803158 -0.5527163744
5.34836483 3.49187994 -0.3325438201
5.369423389 3.502952814 -0.1112049371
5.342614651 3.50010705 0.1107860804
5.340753078 3.496223688 0.3323344588
5.351853848 3.502156496 0.5558539629
5.323754787 3.481111765 0.7758768797
5.297598839 3.461373329 0.9956005812
5.322012424 3.475996017 1.22734642
5.286044121 3.44987607 1.447331786
5.274405956 3.439656019 1.675646544
2.004072666 1.303450823 -0.6289823651
2.008357286 1.305240393 -0.5430284142
5.302500248 3.444802761 -1.220858932
5.344296455 3.469303608 -1.002483726
5.359789371 3.475373507 -0.5551567078
5.372255802 3.480790615 -0.3332765102
5.395044804 3.492886543 -0.1114841774
2.435987234 1.583762169 0.0500168018
5.381396294 3.496057987 0.3341138661
2.439869881 1.584469676 0.250808835
5.349193096 3.471155405 0.7778267264
5.324565411 3.452533722 0.9984164238
5.334111214 3.457401276 1.22734642
5.306233406 3.436698437 1.449581265
5.296112537 3.427520037 1.678752422
2.008610487 1.296446919 -0.6289823651
2.00962615 1.296108961 -0.5421286225
5.362344742 3.457120895 -1.231925726
5.250095367 3.382159948 -0.9824601412
5.391994953 3.46957922 -0.5572484732
5.392771721 3.467418194 -0.3337998688
5.417299747 3.480517149 -0.1116936132
5.390444279 3.477900743 0.111274749
5.396924973 3.47941494 0.3343232274
5.401294231 3.480897427 0.5584686399
5.372961044 3.459984064 0.7795329094
5.353197575 3.44461441 1.001545072
5.362659931 3.449379921 1.231162548
5.332950592 3.427639246 1.453630328
5.327549458 3.421540737 1.68496418
2.018003702 1.292553902 -0.6305352449
2.020703793 1.293287516 -0.543928206
5.399185658 3.454253674 -1.237650037
5.409997463 3.458506107 -1.010305405
3.222539425 2.058524847 -0.4643787742
5.43933773 3.473252773 -0.5609089732
5.386321068 3.436756611 -0.3326484859
5.439531326 3.46803689 -0.1119030342
5.421075344 3.470925331 0.1116586998
5.415766239 3.464861631 0.3347419202
5.440267563 3.479198456 0.5612576008
5.396713734 3.448691368 0.7812390924
5.373514652 3.431221724 1.003109455
5.387906075 3.439091206 1.234215498
5.354741573 3.415289164 1.456329823
5.357381821 3.41434288 1.690658092
2.025764465 1.287573934 -0.631570518
2.041655779 1.296674132 -0.5484272242
3.219645977 2.040885925 -0.4629163444
5.456675053 3.45223403 -0.1120077446
5.463540554 3.471282482 0.1122869924
5.439631939 3.453427792 0.3354746103
5.470883846 3.471929073 0.5631750226
5.425484657 3.440461874 0.7836764455
2.39198184 1.515656829 0.441822499
5.423098564 3.43496871 1.239558101
5.392976284 3.413252831 1.463528275
5.379063606 3.401818275 1.693763971
2.028612375 1.279464722 -0.6310528517
2.06430459 1.300969124 -0.5533761978
3.22219944 2.029913902 -0.7320061326
3.260754347 2.05261302 -0.6035757661
2.440357924 1.534992456 -0.3488466144
5.424659252 3.410802603 -0.5568998456
5.477829933 3.441570044 -0.3368353546
5.495790958 3.450176001 -0.1125662252
5.489155769 3.460722923 0.1125662252
5.475311756 3.449324608 0.3369400501
5.476225376 3.448565245 0.5624778271
5.459303379 3.435245037 0.7868450284
5.434127808 3.416755915 1.00999248
5.44669199 3.423329592 1.242229462
5.426312447 3.407878876 1.469376922
5.39417696 3.385075569 1.694799185
2.311456442 1.446602941 -0.7190513611
2.125010014 1.328886509 -0.5686728954
5.46835804 3.418336391 -1.245282412
3.242768049 2.025521755 -0.5988827348
3.218659639 2.008899212 -0.4607226849
5.338488579 3.330681562 -0.5467897654
5.505064964 3.431936502 -0.337777406
5.531562328 3.445774794 -0.1130548939
5.497813225 3.439418793 0.1124964207
5.512722969 3.446069717 0.3385100961
5.503437996 3.438929796 0.5640466213
5.477996349 3.420373917 0.7878200412
5.456074715 3.404043674 1.011869788
5.463604927 3.407413721 1.243374228
5.459675312 3.40231657 1.475225687
2.375573397 1.475215435 -0.737686336
5.501946926 3.412678957 -1.250243425
3.271218777 2.025871992 -0.4673036337
5.407680511 3.347681284 -0.5527163744
5.525503159 3.41795373 -0.3383007646
5.538454533 3.423289299 -0.112950176
5.519978523 3.426535606 0.1127058417
5.521325588 3.424699068 0.3383007646
5.532341003 3.430198193 0.5657896996
5.483153343 3.397047997 0.7868450284
5.469604492 3.386015892 1.012182593
5.493830681 3.399684191 1.247572184
5.499693871 3.400661707 1.482874036
2.403565884 1.485053182 0.7454509139
2.382352591 1.467927933 -0.7382039428
2.449529171 1.508139014 -0.6541542411
3.264740705 2.006125927 -0.4653537273
5.395566463 3.314184189 -0.5502759814
5.371379852 3.294168949 -0.1092851758
5.555744171 3.421926975 0.1131945178
5.528141022 3.402267933 0.3379867673
5.301289082 3.256274939 0.9787056446
5.503227234 3.376346827 1.480624557
2.496245861 1.526108384 -0.7723681331
2.413203478 1.474182606 -0.6429067254
5.378646851 3.275412083 -0.3278335631
5.582124233 3.397990942 -0.1133690327
5.379962444 3.287808418 0.1093549803
5.387702465 3.291250467 0.3286709487
5.579963684 3.406021595 0.5682300925
5.405049801 3.296668291 0.7722207308
5.492527008 3.348704576 1.012182593
5.552639008 3.382699251 1.255586028
5.534367085 3.37024045 1.486023307
5.484016418 3.327781677 -1.707222581
2.431409359 1.474255681 -0.6465059519
3.258559942 1.973455548 -0.5966926217
5.397541523 3.265008926 -0.5481842756
5.624168873 3.398076057 -0.1139973253
5.609681129 3.402700901 0.1138227955
5.604857922 3.395762444 0.5696246028
5.507653713 3.334239244 0.785382688
5.566132545 3.368313789 1.023758769
5.570546627 3.368329287 1.257112503
5.572196007 3.367999077 1.49322176
5.518188953 3.323532343 -1.714469433
2.488045692 1.497334003 -0.6604529023
2.465905428 1.483423591 -0.5511191487
2.41178894 1.44972229 -0.4390066564
2.423802137 1.455793381 -0.3420219123
2.421859741 1.452901959 -0.145809114
5.66686964 3.39692831 -0.1146256104
5.631212234 3.390269518 0.1140322313
5.643405914 3.393586397 0.5724135637
5.619071007 3.376278877 0.7997632027
5.571080685 3.344797611 1.02250731
5.590102196 3.354890823 1.259020686
5.59394598 3.354542255 1.495921135
2.43397975 1.452671885 -0.5427235961
2.379510164 1.419035077 -0.4321235418
5.580248356 3.325178146 -0.7924510241
2.524744987 1.502663255 -0.1517754197
5.694160938 3.38632679 -0.1149397567
5.670481205 3.3869977 0.1145907044
5.673416138 3.386064291 0.344057709
5.677461624 3.387135267 0.5746796131
5.618885517 3.349530458 0.7980570197
5.6149683 3.344535828 1.0284518
5.632142067 3.353437424 1.265889764
5.619019985 3.342964888 1.499520302
2.549836636 1.515789986 0.7832384706
2.471921206 1.465386152 -0.7583918571
5.667010784 3.350126505 -0.8031755686
2.58006978 1.524633765 -0.2584785521
2.519656181 1.487747431 -0.1511473805
2.523160458 1.488629222 -0.05043565854
5.690872192 3.37227869 0.1147652268
5.708111763 3.378457785 0.5765970349
2.486624241 1.470585465 0.3495778143
5.655519009 3.342000723 1.033770561
5.66409874 3.345737457 1.270469189
5.644080162 3.331255913 1.503119588
2.435302734 1.436221361 0.7459685206
2.565277815 1.508653402 -0.785826683
2.556312561 1.500380397 -0.4627847075
2.633502483 1.543832302 -0.2633592784
2.500729084 1.463650465 -0.04987718165
2.523025751 1.482025981 0.1511473805
2.529410601 1.483995557 0.3549400866
2.443636179 1.429663658 0.7470038533
2.499947309 1.45675683 -0.5541720986
2.564948082 1.493436337 -0.4634104371
2.517893076 1.463096619 -0.1504146755
2.528303623 1.467965722 -0.05033094063
2.524732113 1.471199393 0.1509380341
2.503692865 1.457183957 0.3505527973
2.490595102 1.448397398 0.449644208
2.455295086 1.425003171 0.7490743995
2.498834848 1.44619453 -0.7620153427
2.574530125 1.488803625 -0.6766493917
2.496518135 1.443109393 -0.5522640347
2.510276556 1.449893713 -0.4524600506
2.517613173 1.452959657 -0.3517715037
2.516506672 1.451735497 -0.2504602075
2.51435113 1.448153615 -0.04994699359
2.570417404 1.48702395 0.05113375187
2.529851913 1.462377906 0.1509380341
2.517217636 1.454488754 0.250634551
2.503606558 1.445458531 0.3498215675
2.485369205 1.433772802 0.4477669895
2.49972868 1.441475153 0.5526456833
2.509324789 1.445841908 0.6586532593
2.466951847 1.420278907 0.7511449456
2.482087374 1.424959779 -0.7552860379
2.495193005 1.431324244 -0.6541542411
2.498133659 1.432433367 -0.5515007973
2.511894703 1.439157605 -0.4518342614
2.515779018 1.440216899 -0.3507965207
2.532186985 1.448438525 -0.2515060902
2.526312113 1.444491267 -0.1503100097
2.54543519 1.454248309 -0.05047056451
2.525295496 1.449177861 0.05012151599
2.522812366 1.446584225 0.150205344
2.522279739 1.44569242 0.250634551
2.48968792 1.425859094 0.3471404314
2.493788481 1.427050233 0.4483927488
2.5286026 1.446388245 0.557988286
2.524508238 1.442875266 0.661352694
2.532286406 1.446148515 0.769779861
2.542697668 1.447390079 -0.7723681331
2.58486104 1.470793724 -0.6766493917
2.576755524 1.464991212 -0.5679103732
2.625360012 1.49141252 -0.4715450406
5.886878014 3.3428545 -0.826086998
5.881700516 3.337199688 -0.5879272819
2.587188244 1.466743231 -0.1536595076
2.555715561 1.44831121 -0.0505752787
2.524374723 1.435793638 0.1499959975
5.855118752 3.327522993 0.5854868889
2.532623053 1.438730597 0.3525027037
5.800597668 3.292521477 1.049726963
5.799040794 3.288962126 1.287642002
5.784998894 3.278329849 1.525164843
5.779774666 3.274036884 1.768303871
5.791283131 3.267215252 -1.525164843
2.499769688 1.409698725 -0.5495927334
5.862542152 3.303371906 -1.059113026
5.834514618 3.286241293 -0.817068696
5.87595129 3.306875467 -0.586184144
2.609701633 1.467492104 -0.1547062248
2.609565258 1.466816068 -0.05155261233
2.620933056 1.479231 0.05183185264
2.545027256 1.435804844 0.1509380341
5.868434906 3.308041334 0.5856612325
2.545001745 1.432864189 0.4559015632
5.809427738 3.26676774 1.528764009
5.801880836 3.25053978 -1.770374417
5.824189186 3.260371685 -1.531013608
5.890704155 3.293556929 -1.062241673
5.881770611 3.287210941 -0.8221871853
5.904279709 3.297086954 -0.5879272819
2.614553452 1.458830476 -0.1547062248
2.602190495 1.451335311 -0.05130828172
2.601397514 1.456852674 0.05134318396
2.558487415 1.432237029 0.1514613926
5.882849693 3.290509224 0.58600986
5.859243393 3.27462101 0.8190185428
2.605324745 1.454277396 0.5717265606
5.837245941 3.256981373 1.533263087
5.808675289 3.238381863 1.770374417
5.799118996 3.223773956 -1.766233206
5.862226963 3.256178141 -1.538211942
2.519607544 1.398365617 -0.5518824458
5.899867535 3.273044825 -1.061928868
5.910571575 3.276281834 -0.8246245384
5.919237614 3.278389215 -0.5882759094
2.589921713 1.433255434 -0.1529268175
2.593241215 1.43450129 -0.05102904141
2.539792299 1.41130805 0.0500168018
2.563471556 1.423296809 0.1514613926
5.928571224 3.290318012 0.5894960761
5.882222176 3.2619133 0.8207247853
2.585797071 1.432741761 0.4615332186
2.567445755 1.421401024 0.5621861219
5.869039536 3.247910023 1.538661838
5.838541508 3.228367567 1.77606833
5.839657784 3.218350649 -1.775033116
2.51955533 1.386282921 -0.5507375598
5.929133415 3.260916471 -1.065057516
5.948635578 3.268938303 -0.8282806277
5.983606339 3.28544116 -0.5935052633
2.572394133 1.411264062 -0.1515660733
2.577440739 1.413449168 -0.05061018094
2.553705215 1.406814694 0.0501913242
2.573920012 1.416781545 0.1517754197
2.573717594 1.413743734 0.458404541
2.555427074 1.402535796 0.5583699346
5.896281242 3.234811306 1.5427109
5.870662689 3.218091249 1.782280087
5.864979267 3.20433116 -1.779174209
5.969408035 3.257328272 -1.313591957
5.967060089 3.253348589 -1.069750547
5.965239525 3.251002073 -0.8290118575
6.019536495 3.277872324 -0.5959455967
2.558006048 1.391776562 -0.1504146755
2.557765722 1.391067386 -0.05012151599
2.562354088 1.399362922 0.05026113242
2.563072443 1.399174571 0.1508333683
2.609966278 1.423591733 0.2563868165
2.583735943 1.408113003 0.356158793
2.542207956 1.384906769 0.4518342614
2.565480709 1.396422267 0.5595148206
5.917807102 3.21979928 1.545410395
5.905622482 3.210494995 1.789526939
5.904443741 3.200519085 -1.787974119
2.570543766 1.392207742 -0.6649519205
6.000403404 3.245759249 -1.073817849
5.984717846 3.235924482 -0.8302305341
6.040891647 3.26357317 -0.5969914794
2.523940802 1.362415075 -0.1481119096
2.550045967 1.37593019 -0.04987718165
2.556431293 1.385142922 0.05005170777
2.572967291 1.393520236 0.1511473805
2.612920284 1.41398108 0.2562125027
2.583152533 1.39670527 0.3554275632
2.54852438 1.377408743 0.452147156
2.575279236 1.390706301 0.560659647
5.954173565 3.214043617 1.552158952
5.936639786 3.201899529 1.795738697
2.523647308 1.356005073 -0.6514548659
5.997797012 3.221385002 -1.315118551
6.02505827 3.233317375 -1.076320767
6.034464359 3.235652924 -0.8355928063
6.043466568 3.237760782 -0.5961199403
2.547812939 1.364408851 -0.1492632926
2.544254541 1.361359239 -0.04966775328
2.541635752 1.366242409 0.04966775328
2.569017887 1.379805803 0.1506240219
2.600041151 1.39588356 0.2544693947
2.591268301 1.390008807 0.3559150398
2.551575899 1.3675704 0.4518342614
2.564302444 1.373813748 0.5572250485
5.985974789 3.204274654 1.557557821
5.952890396 3.183892012 1.797291636
2.579960108 1.374679565 -0.6649519205
6.030359745 3.210449696 -1.319697857
6.042099953 3.213997126 -1.077259421
6.059745312 3.22202301 -0.8375427723
6.077602863 3.22880125 -0.5983859897
2.547503948 1.352252841 -0.1489492804
2.561355352 1.359032512 -0.04991208389
2.534037352 1.350776911 0.04942341894
2.557953119 1.362380505 0.1496819854
2.610415936 1.389153123 0.2549923062
2.582083702 1.373497605 0.3539651334
2.57028842 1.366072655 0.4543372393
2.569320202 1.364406466 0.5572250485
6.021778107 3.195102215 1.563856363
5.981035233 3.172142982 1.802467942
2.482483864 1.312189698 -0.7407921553
6.022732735 3.180802822 -1.562506676
6.069307804 3.204046249 -1.325803757
6.070754528 3.202100992 -1.080388069
6.097854614 3.213675261 -0.841198802
6.111753464 3.219637156 -0.6006520391
2.545139313 1.339630365 -0.1485305876
2.576702118 1.35566926 -0.05012151599
2.549579144 1.347085595 0.04963284731
2.553863049 1.348778963 0.1491586268
2.641680956 1.39397943 0.2576069832
2.576565027 1.358469009 0.3525027037
2.596012115 1.368143439 0.4580916464
2.581015348 1.359088898 0.5587515235
6.046691418 3.181319714 1.56745553
6.026267529 3.169231415 1.812820792
2.499026775 1.309794426 -0.7444156408
6.055688858 3.172568083 -1.568355441
6.090890884 3.18830514 -1.328093529
6.109345436 3.19660306 -1.085394025
6.119033337 3.198955774 -0.8426612616
6.149443626 3.212121725 -0.6032666564
2.553108931 1.333031058 -0.1487399191
2.570780754 1.34111762 -0.04991208389
2.561116934 1.342337251 0.04977246746
2.558555365 1.339856625 0.1491586268
2.634174109 1.378283381 0.2563868165
2.586766481 1.351753592 0.4555887282
2.597688913 1.356885791 0.5614228845
6.074484825 3.170265436 1.571954608
6.057849407 3.158893585 1.819032311
2.595915079 1.3496207 -0.7723681331
6.084018707 3.160394907 -1.5728544
6.11536932 3.175325155 -1.331146479
6.145013809 3.187994957 -1.089774132
6.147787094 3.186710835 -0.8450986147
6.16592741 3.193383694 -0.6037896276
2.571935654 1.331457138 -0.1495773047
2.575446844 1.332135081 -0.04991208389
2.576432705 1.338922262 0.04998189583
2.566762209 1.332757473 0.1493679583
2.658181906 1.379637122 0.2583042383
2.579191446 1.33635509 0.4533986151
2.614613056 1.354129314 0.5640941858
6.099359989 3.156208515 1.575553894
6.087715626 3.147489548 1.824726462
6.061192513 3.123059511 -1.815408826
6.120999813 3.152523994 -1.579602957
6.14791441 3.163671017 -1.335725904
6.177737713 3.176291227 -1.093528628
6.187121868 3.179750919 -0.8489984274
6.191216469 3.179120302 -0.6051841378
2.585684061 1.326579452 -0.1501006633
2.587198973 1.326786518 -0.05005170777
2.588201761 1.333583713 0.05012151599
2.585604429 1.331103683 0.150205344
6.188995838 3.183441401 0.6051841378
2.680452824 1.378157973 0.3649334013
2.59789753 1.334564328 0.4559015632
6.161704063 3.162610531 1.338015556
6.145567894 3.15161562 1.58455193
6.1106987 3.132390022 1.828349829
6.08754158 3.10979104 -1.820067644
6.146399975 3.137154102 -1.583202243
6.179907322 3.152896643 -1.340305328
6.199347496 3.160088301 -1.095405698
6.223498344 3.169666529 -0.8524107933
6.224134445 3.167251348 -0.6072758436
2.59385848 1.319358468 -0.1503100097
2.599174738 1.320919275 -0.0501913242
2.578824043 1.316813946 0.04984227568
2.59402442 1.323432684 0.1504146755
2.67310524 1.362015128 0.3632271886
6.177376747 3.140743732 1.589950681
6.141084671 3.119594812 1.83404386
6.119580746 3.097929955 -1.826279402
6.167747498 3.120957613 -1.585901618
6.210693359 3.139970064 -1.344503045
6.22851944 3.146253347 -1.098534465
6.252245426 3.156868696 -0.8548481464
6.261834621 3.15896821 -0.6098905206
2.596894026 1.308941841 -0.150205344
2.619842291 1.319936752 -0.05050547048
2.586973667 1.30960989 0.04991208389
2.602192402 1.316173196 0.1506240219
2.637089968 1.332090735 0.3576211929
6.21222496 3.132580996 1.344121456
6.20624876 3.126850843 1.594449639
6.165739536 3.105092287 1.838185072
6.151724339 3.089963198 -1.833008647
6.197220325 3.110103369 -1.590850472
6.236320019 3.128366947 -1.347937703
6.263097763 3.139060259 -1.102914691
6.269780159 3.139671803 -0.8558230996
6.315038681 3.159582853 -0.6140739918
2.592061758 1.296310663 -0.1496819854
2.61883831 1.308560848 -0.0504007563
2.616322041 1.313584685 0.0504007563
2.595831156 1.302164197 0.1499959975
2.668114901 1.336676359 0.3612772822
6.250127316 3.127105951 1.350227356
6.223015308 3.110821724 1.596249342
6.205383778 3.099301338 1.846984863
6.156089783 3.0639534 -1.830937982
6.237699509 3.103209496 -1.598498821
6.26181078 3.112474918 -1.350990534
6.306405544 3.131900311 -1.108546257
6.302039623 3.128357172 -0.8587480187
6.329599857 3.139288902 -0.6144226193
2.598584652 1.287688851 -0.1497866511
2.615519762 1.301772833 0.05029603839
2.603937626 1.294872999 0.150205344
2.62653923 1.304397345 0.3549400866
6.279138565 3.112892389 1.354043603
6.255329132 3.098373175 1.601648092
6.233478546 3.086191654 1.852161169
6.163283348 3.040734768 -1.829902768
6.278745174 3.094974756 -1.60614717
6.300812244 3.104485989 -1.357096434
6.324388504 3.113358974 -1.109797716
6.341417313 3.120367289 -0.8626478314
6.354824066 3.124205589 -0.6158171296
6.371261597 3.1295259 -0.3698070049
6.377693653 3.131304026 -0.1233169138
6.359664917 3.136238337 0.1230725795
2.624177456 1.291256666 0.3539651334
2.599522352 1.278559804 0.452147156
6.307584286 3.099618196 1.357859731
6.288309097 3.088780165 1.607496858
6.251148224 3.067822456 1.854231715
6.169862747 3.018580198 -1.828867435
6.306480885 3.082695961 -1.610646129
6.339296818 3.097362757 -1.363202333
6.348878384 3.099303246 -1.112300754
6.376707077 3.111506462 -0.8660601377
6.384848595 3.11272049 -0.6177345514
6.381604195 3.108382225 -0.3698070049
6.402424812 3.117141247 -0.1235961467
6.395178795 3.12743187 0.1235612407
6.388022423 3.122554779 0.3704350591
6.344635487 3.094486237 1.1113621
6.328417778 3.083842754 1.360149503
6.323044777 3.07985878 1.613795519
6.289081097 3.060600281 1.862514019
6.186790943 3.001477718 -1.830937982
6.316669941 3.06176424 -1.610646129
6.370734692 3.086597204 -1.367781878
6.376902103 3.08683753 -1.115429401
6.398252964 3.094412804 -0.8675225973
6.41845417 3.102804422 -0.6200006008
6.400869846 3.09154439 -0.3703303933
6.433076859 3.10433507 -0.1239801049
6.398318768 3.102715731 0.1234216243
6.411466122 3.106331587 0.3711677492
2.690060377 1.302742958 0.257781297
2.639831543 1.277282476 0.3549400866
6.360733032 3.074901104 1.112300754
6.35982132 3.073091269 1.364728808
6.351305485 3.06624198 1.618294597
6.327567577 3.052055359 1.870796204
6.197231293 2.979861975 -1.830937982
6.35893774 3.054884434 -1.618744493
6.402707577 3.074536562 -1.372361183
6.416135788 3.078228951 -1.120435357
6.430495739 3.082358122 -0.8704474568
6.461589336 3.095875502 -0.6231381893
6.442247391 3.083843946 -0.3721098006
6.470934868 3.094800472 -0.1245036721
6.439747334 3.095093012 0.1240150034
6.43127346 3.088253498 0.3716911077
2.73590374 1.313174844 0.2617904842
6.40668869 3.072321415 0.8672788739
6.407057762 3.069748163 1.118558049
6.398841858 3.064438581 1.370834708
6.379549503 3.052462578 1.622793555
6.364325523 3.042448759 1.878560662
6.211082458 2.959874868 -1.831973314
6.387156963 3.041047573 -1.623243451
6.420491695 3.055544376 -1.373887777
6.458954334 3.071080446 -1.126066923
6.462731361 3.070115089 -0.8733723164
6.480092049 3.075590372 -0.6238354445
6.472821236 3.070755482 -0.3732611835
6.496153355 3.079047203 -0.1247829199
6.483008862 3.088072538 0.1246432811
6.467261791 3.07780242 0.3731565177
6.431716919 3.056757212 0.8692287803
6.415950775 3.046515703 1.118245244
6.437876701 3.055554152 1.376940608
6.413056374 3.041028023 1.628642321
6.392364502 3.028487206 1.883737087
6.218394279 2.935442209 -1.830937982
6.418882847 3.028710842 -1.628642321
6.452956676 3.042038679 -1.378467083
6.480888844 3.052438259 -1.127944112
6.502144814 3.061066866 -0.8772721291
6.50881815 3.061430216 -0.6255785823
6.518378735 3.063148499 -0.3752499521
6.524962425 3.064852238 -0.1251319647
6.51002264 3.073107719 0.1249574274
6.492418289 3.062022686 0.3739938736
2.680346966 1.262989998 0.2555152476
6.481857777 3.052894592 0.8745909929
6.444418907 3.032513142 1.121373892
6.466800213 3.040288687 1.380756855
6.45238018 3.030759573 1.635840654
6.408143997 3.008616447 1.885290027
6.225104332 2.912079334 -1.829902768
6.452890873 3.015892267 -1.634491086
6.491996765 3.032788515 -1.384572983
6.505823135 3.036482096 -1.13044703
6.538508892 3.048958302 -0.8806844354
6.542940617 3.049634933 -0.6278446317
6.539893627 3.045436621 -0.3758780062
6.557907581 3.051040411 -0.1255508214
6.524866581 3.050919056 0.1250272393
6.543406487 3.056805134 0.3762966692
6.540810108 3.054201603 0.6278446317
6.507394314 3.035832167 0.8765408993
6.485927105 3.023061275 1.126692653
6.484491348 3.02101469 1.382283211
6.484120369 3.018087626 1.641239524
6.450658321 2.999773502 1.894607544
6.24574852 2.895205021 -1.833008647
6.477526188 2.999898672 -1.638090253
6.531050682 3.023303032 -1.390678883
6.541484833 3.0253613 -1.134827256
6.563527107 3.03277874 -0.8826344013
6.586105347 3.041812897 -0.6309822202
6.563178539 3.02844882 -0.3766106963
6.592126846 3.039012194 -0.1260045767
6.559063435 3.039054871 0.1254810095
6.568537235 3.04065609 0.3771340549
6.578554153 3.043902874 0.6304593086
6.530565739 3.018927813 0.8782470822
6.523340702 3.012825012 1.131385684
6.519952774 3.009879351 1.387625933
6.514082432 3.004411697 1.646188378
6.473371029 2.982898951 1.89823103
6.25757122 2.874193192 -1.833526254
6.518066883 2.991087914 -1.645738602
6.559408188 3.008673429 -1.39449501
6.577146053 3.014031172 -1.139207482
6.588513374 3.016458273 -0.8845843077
6.627480984 3.032900095 -0.6339455247
6.597323895 3.016314745 -0.3779714406
6.620883465 3.024292707 -0.1263536215
6.602344036 3.031157017 0.1261092871
6.593633652 3.024372101 0.3779714406
6.610873222 3.030883074 0.6325510144
6.566329956 3.007688284 0.8816594481
6.549983501 2.997435093 1.134201527
6.55898428 3.000169992 1.393731833
6.535165787 2.986513138 1.648887873
6.524163723 2.978737116 1.9101367
6.271083355 2.853931427 -1.834561467
6.55685091 2.98122406 -1.652937055
6.591319084 2.995504141 -1.399074554
6.620001793 3.005755424 -1.144839048
6.620697498 3.00328064 -0.8875091672
6.650729179 3.015508175 -0.6351656914
6.622367382 2.999858379 -0.3788087964
6.647796631 3.008581638 -0.1266677678
6.642007351 3.021341324 0.1266677678
6.625971317 3.011252165 0.3792274892
6.643181801 3.017674923 0.6346427798
6.598481178 2.994591713 0.8845843077
6.580195427 2.983527422 1.137643099
6.598028183 2.990221024 1.399837732
6.566851616 2.973333359 1.654286742
6.552124023 2.963905811 1.915313005
6.263393879 2.82408762 -1.829385042
6.590316772 2.968721628 -1.658785701
6.625005245 2.982960701 -1.404035568
6.644866467 2.98911047 -1.147342086
6.660109997 2.993173122 -0.8914089799
6.672120094 2.997170925 -0.6362115741
6.663774967 2.990627527 -0.3805882037
6.694227219 3.002890587 -0.1273658723
6.665276527 3.003887653 0.1269121021
6.665055752 3.002389193 0.3809022307
6.668209076 3.00101018 0.6360372305
6.639670849 2.985383749 0.8887278438
6.615279198 2.973025322 1.142023325
6.626336575 2.975211382 1.40365386
6.612752438 2.966342688 1.663284779
6.579545498 2.950063705 1.92048943
6.274978161 2.802993298 -1.829902768
6.617920399 2.954794168 -1.663284779
6.660480022 2.971012354 -1.409378171
6.67098093 2.974296808 -1.150157928
6.69901228 2.983995914 -0.8953087926
6.706204891 2.984395027 -0.6384776235
6.691903591 2.976631641 -0.3816349208
6.730250835 2.990875244 -0.127854526
6.69345808 2.989925623 0.1272611469
6.697381973 2.988874435 0.3821583092
6.707760334 2.990695 0.6388261914
6.678546429 2.976276398 0.8926276565
6.652686596 2.961965561 1.146716237
6.657689095 2.962804556 1.408233285
6.654605389 2.958646059 1.671382904
6.618049145 2.939630747 1.928771615
6.294838905 2.786859989 -1.833008647
6.640667439 2.937197685 -1.66643405
6.697230339 2.960814714 -1.415102363
6.703003883 2.96057415 -1.153912306
6.734814167 2.971811295 -0.8987211585
6.745230675 2.975005388 -0.6412665844
6.709565163 2.956474066 -0.3820536435
6.776732922 2.984662294 -0.1285526305
6.725799084 2.976251602 0.1276800185
6.729175091 2.976344824 0.3834143877
6.739509106 2.978099585 0.6409179568
6.694343567 2.955349207 0.8933588862
6.689580441 2.951851368 1.151409388
6.689548492 2.949048281 1.41281271
6.688074589 2.945614576 1.677231669
6.654283047 2.929341555 1.936536193
6.306298256 2.765644073 -1.833526254
6.680713654 2.928458691 -1.674082398
6.725509167 2.945292473 -1.41891861
6.747168064 2.953378201 -1.159856796
6.75918293 2.955822468 -0.9006710052
6.788438797 2.965797901 -0.6444041729
6.741297245 2.943797588 -0.3833096921
6.799941063 2.966584444 -0.1287969649
6.768596172 2.968385935 0.1283082962
6.757817745 2.960850954 0.3844611049
6.782716274 2.968938351 0.6440555453
6.738660812 2.948252916 0.8979899287
6.719752789 2.93718648 1.154850841
6.728075027 2.939425707 1.41891861
6.708522797 2.928095579 1.679931164
6.692801952 2.918449402 1.944818377
6.306574345 2.740870476 -1.830937982
6.714133263 2.91520834 -1.679931164
6.749644756 2.929230928 -1.42197156
6.78643465 2.942378998 -1.164862752
6.794959545 2.943261623 -0.9040834308
6.815207481 2.94920373 -0.6459730268
6.779026985 2.932146311 -0.3848797679
6.817598343 2.946001291 -0.1289365888
6.819265366 2.962273836 0.1290761977
6.793761253 2.948376656 0.3859264851
6.810801506 2.95435977 0.6457986832
6.770768642 2.934182882 0.9009147882
6.74628067 2.920774221 1.157666683
6.763520718 2.926836729 1.424261332
6.743746281 2.915485382 1.686229825
6.715360641 2.900435925 1.948441863
6.304156303 2.712391138 -1.827314496
6.760072231 2.907152891 -1.6889292
6.785590172 2.915320635 -1.427314162
6.818955898 2.926836729 -1.168617129
6.830732822 2.930480003 -0.9074957371
6.854760647 2.937955618 -0.6487619877
6.815434456 2.918281317 -0.3863451779
6.853577137 2.933202028 -0.1294252574
6.831401348 2.939240694 0.1291111112
6.829701424 2.935684681 0.3873918951
6.832569599 2.934092283 0.6468445659
6.804682732 2.920710564 0.9040834308
6.781850815 2.908107996 1.162046909
6.792248249 2.909759998 1.428077459
6.766927242 2.896117687 1.689379096
6.727221489 2.877735138 1.948959589
6.30647707 2.687341213 -1.825244069
6.781440735 2.886934757 -1.691628575
6.831854343 2.90699172 -1.434946537
6.843675137 2.909196854 -1.171120048
6.867007256 2.91628933 -0.9109080434
6.88331461 2.921793222 -0.6505051255
6.840289593 2.900712729 -0.3871825635
6.895583153 2.921325207 -0.1300186366
6.86420536 2.923587322 0.1295299679
6.873495579 2.924710274 0.3892759979
6.868438244 2.921142817 0.6492849588
6.844573975 2.908172607 0.9079832435
6.825195312 2.897123098 1.167678595
6.824050903 2.895235538 1.432656765
6.800321102 2.882363558 1.695227861
6.748398781 2.857577562 1.952065468
6.330058098 2.671318293 -1.829385042
6.802250385 2.86778903 -1.69432795
6.876335621 2.897609711 -1.442197323
6.882917881 2.897554636 -1.176126003
6.906423092 2.90461278 -0.9148079157
6.922858715 2.910103083 -0.6532940865
6.866945744 2.883779287 -0.3881245852
6.944462776 2.913481712 -0.1307516396
6.903849602 2.912041903 0.1300884485
6.913112164 2.913106918 0.3909507692
6.911644936 2.911068201 0.6524225473
6.867492199 2.889650106 0.9096894264
6.862581253 2.884764671 1.172371507
6.855836391 2.880521536 1.437236309
6.831902504 2.867660522 1.700626612
6.790399075 2.847452164 1.961382866
6.346475124 2.65218401 -1.831455708
6.840991974 2.856041193 -1.701526403
6.906339169 2.881903887 -1.44639504
6.920340061 2.884910583 -1.180819035
6.938509464 2.88964653 -0.9177327752
6.964245319 2.898934603 -0.656257391
6.902787685 2.870529652 -0.3895900249
6.974398613 2.898877621 -0.1311355829
6.943494797 2.900258303 0.1306469291
6.937478065 2.896323204 0.391788125
6.958539963 2.902264595 0.6559087634
6.906856537 2.877874851 0.9135892391
6.893991947 2.871106625 1.176126003
6.898477077 2.870145559 1.444105387
6.865265369 2.853516817 1.706475377
6.819428921 2.833069563 1.967076778
6.348553181 2.62706089 -1.829385042
6.879238605 2.845254898 -1.708724856
6.930871964 2.863778114 -1.449448109
6.959081173 2.874011993 -1.185824871
6.966405392 2.874191046 -0.920170188
6.992742062 2.882200956 -0.6580005288
6.94181633 2.859793901 -0.3912647367
7.00666523 2.883649111 -0.1315544546
6.988182068 2.891742468 0.1313101053
6.977077961 2.884299278 0.3934628665
6.990727901 2.887081861 0.6580005288
6.954894066 2.870862246 0.9187077284
6.922234535 2.854553461 1.179254651
6.938814163 2.859973431 1.450592875
6.890907288 2.837414265 1.71052444
6.850715637 2.818068743 1.973288536
6.346504688 2.601598978 -1.826279402
6.936016083 2.840427637 -1.720422387
6.962132931 2.849704504 -1.454027414
6.994668484 2.860171556 -1.190205097
7.013150215 2.864868402 -0.9250449538
7.024394512 2.868035078 -0.6600922346
6.981346607 2.847612143 -0.392939508
7.038410664 2.869455099 -0.1319732964
7.018587589 2.875672579 0.1316940635
7.005087376 2.868713617 0.3945095837
7.018704414 2.871425867 0.659743607
6.992435455 2.857833862 0.9223637581
6.960922241 2.843533278 1.184260607
6.990561485 2.852797747 1.459370136
6.936861038 2.828054905 1.719522476
6.879701614 2.803355694 1.978982449
6.362708092 2.582333803 -1.828349829
6.970677853 2.82766819 -1.726720929
7.004790306 2.838655233 -1.460896611
7.018760681 2.842894793 -1.192708015
7.055734158 2.855000019 -0.9294322133
7.06022501 2.853949785 -0.6625326276
7.016676903 2.834921837 -0.394404918
7.078052998 2.856845856 -0.132531777
7.039203167 2.856892347 0.1319034994
7.052077293 2.859250784 0.396603018
7.050842762 2.85588932 0.6618353128
7.025794983 2.844312668 0.9255324006
6.998272896 2.830331802 1.188953519
7.02182579 2.838427782 1.463949561
6.964268684 2.812337637 1.724021554
6.912736416 2.788717747 1.985711813
6.388264179 2.565476894 -1.833008647
6.995953083 2.806684971 -1.730320096
7.047946453 2.826116085 -1.467765689
7.055298328 2.826205492 -1.197088122
7.081389427 2.833785534 -0.9313821197
7.102086067 2.840633631 -0.6654958725
7.047912598 2.816108704 -0.3955563009
7.116332054 2.842010736 -0.1330553591
7.076102734 2.840269566 0.132392168
7.088459969 2.843797445 0.398068428
7.094553947 2.843363762 0.6649729609
7.049564362 2.822481155 0.9272385836
7.047115326 2.820070028 1.195523858
7.063663006 2.82383585 1.47043705
7.003973007 2.797138453 1.731220007
6.958794117 2.777687788 1.996064544
6.449241161 2.563856602 -1.848020077
7.023331642 2.790667534 -1.734819174
7.083316326 2.811635494 -1.473108411
7.103189945 2.8180933 -1.203658462
7.11658287 2.82052803 -0.9347944856
7.147155762 2.829759121 -0.6688078046
7.083211422 2.803011894 -0.3970217109
7.148525715 2.825972795 -0.133474201
