# .PCD v0.7 - Point Cloud Data file format
VERSION 0.7
FIELDS x y z
SIZE 4 4 4
TYPE F F F
COUNT 1 1 1
WIDTH 1307
HEIGHT 1
VIEWPOINT 0 0 0 1 0 0 0
POINTS 1307
DATA ascii
6.879636765 2.923070192 0.1297743022
6.870531082 2.916366816 0.3889619708
6.88565731 2.921373367 0.6506794095
6.848937988 2.902970314 0.9082269669
6.833178043 2.893477201 1.168617129
6.839231491 2.894632816 1.435328126
6.806423187 2.877946138 1.696127653
6.763346195 2.856949568 1.955688834
6.336412907 2.66618681 -1.830420375
6.829898834 2.872428894 -1.700626612
6.877556324 2.889647245 -1.441815734
6.905983448 2.89875555 -1.179567575
6.908955574 2.898585081 -0.9148079157
6.936927319 2.907473087 -0.6543399096
6.886541843 2.883529902 -0.3890666366
6.941468239 2.905104637 -0.1306469291
6.922976494 2.912996531 0.1304025948
6.921174049 2.909394979 0.3912647367
6.925711155 2.908457756 0.65346843
6.884654045 2.889802694 0.9116392732
6.865096092 2.878775358 1.172371507
6.882388592 2.883202553 1.442197323
6.831306458 2.859000444 1.69972682
6.792881012 2.841525793 1.961382866
6.338549137 2.641078472 -1.828349829
6.872765541 2.860855341 -1.708724856
6.916604042 2.877687216 -1.447921634
6.932477951 2.881453514 -1.182383418
6.952532291 2.886947155 -0.9191952348
6.965940952 2.889661074 -0.6560830474
6.922394753 2.87018466 -0.3905320466
6.98532486 2.893416166 -0.1312752068
6.961295605 2.899136066 0.130926162
6.953920364 2.893213034 0.3925208151
6.950537205 2.890386581 0.6548628807
6.937363625 2.882064342 0.9172452688
6.899320126 2.863436222 1.176438808
6.915986538 2.868938446 1.447158337
6.873650074 2.848564625 1.707825065
6.8157444 2.821783781 1.965006351
6.333898067 2.611938238 -1.824208736
6.902528286 2.845017672 -1.71367383
6.950704098 2.862036228 -1.452882528
6.957606316 2.862038612 -1.184886336
6.991943359 2.874736547 -0.9230949879
7.005472183 2.877440929 -0.6588720679
6.962432861 2.856922865 -0.3922067881
7.024983883 2.881157398 -0.1318336874
6.980617523 2.878629208 0.1311006844
6.989830494 2.87957406 0.3939862251
6.994249821 2.878539562 0.6580005288
6.967575073 2.866139412 0.919926405
6.936679363 2.850599766 1.18113184
6.946432114 2.851773977 1.451356053
6.912891865 2.835185051 1.715023518
6.859515667 2.811895609 1.974841475
6.360861301 2.597116709 -1.829385042
6.929149628 2.826321602 -1.717722893
6.989740372 2.84961319 -1.458988428
6.996826172 2.849654198 -1.189892173
7.020321846 2.857795 -0.9255324006
7.041313648 2.8634758 -0.6613124609
6.983464241 2.837114096 -0.3928348422
7.062790394 2.867901325 -0.1323572546
7.020744324 2.865115166 0.131659165
7.029429913 2.867224693 0.3956609666
7.037466526 2.867641926 0.6611381173
6.996419907 2.848065138 0.9223637581
6.985011101 2.842004061 1.18770206
6.99090147 2.841553211 1.458606839
6.951142311 2.823982716 1.722221971
6.899721146 2.800282955 1.983641267
6.387347698 2.583253622 -1.834561467
6.963779449 2.813549757 -1.724021554
7.020994663 2.835245132 -1.463567853
7.039212227 2.839740276 -1.195523858
7.051850796 2.843412161 -0.9284572601
7.082187176 2.852766752 -0.6642757058
7.024333477 2.826613665 -0.3946142495
7.08524847 2.849689245 -0.132601589
7.061724663 2.854556084 0.1322525442
7.053713799 2.849885702 0.3964983523
7.07280302 2.85472703 0.6635784507
7.031599522 2.835246325 0.9257761836
7.014552116 2.826945543 1.191143632
7.036709309 2.833020687 1.466239214
6.964084625 2.802369356 1.723121643
6.939440727 2.789634705 1.992441058
6.385120392 2.55774641 -1.831455708
7.01649332 2.807816029 -1.734819174
7.048587322 2.819235802 -1.4673841
7.090781212 2.833237648 -1.202719808
7.0912323 2.830552101 -0.9323570728
7.111965656 2.837384939 -0.6661931276
7.067064285 2.816616297 -0.3964983523
7.108156681 2.830119133 -0.1328459233
7.102710724 2.843759775 0.1328459233
7.100706577 2.840081692 0.3985917866
7.10073185 2.838654757 0.6653215885
7.074146748 2.825163364 0.9301634431
7.044560432 2.810493231 1.194585204
7.0843606 2.824942827 1.474253297
6.963494778 2.771113634 1.996582389
6.368867874 2.52547121 -1.824208736
7.06610918 2.799100876 -1.744717002
7.094893932 2.809067249 -1.475016475
7.115321159 2.814286232 -1.205222726
7.134302139 2.81891036 -0.9367443323
7.144062042 2.821329117 -0.668284893
7.110295296 2.80512166 -0.3983824551
7.157062054 2.820685387 -0.1335789263
7.138620377 2.829262257 0.133334592
7.136575222 2.825569868 0.4000571966
7.129123688 2.821180582 0.6670647264
7.111657619 2.811398029 0.9338195324
7.080048084 2.79604888 1.19896543
7.121571541 2.811006546 1.479977489
7.085000515 2.793717384 1.748316288
7.048617363 2.776524782 2.018322945
6.388435364 2.507457495 -1.827314496
7.068580627 2.771571159 -1.742917418
7.133903027 2.795743704 -1.481122375
7.141657352 2.795911312 -1.208038568
7.173677444 2.805559635 -0.9406442046
7.179846287 2.806527615 -0.6707252264
7.142368317 2.789004326 -0.3996385336
7.205987453 2.810944557 -0.1343119293
7.170792103 2.813091993 0.1337534487
7.179867744 2.813757181 0.4019412994
7.168609619 2.807905912 0.6698536873
7.14730835 2.796681404 0.9372318387
7.130241394 2.787137508 1.205848575
7.156941891 2.796130657 1.485320091
7.123755455 2.780303478 1.755514622
6.398948669 2.485846519 -1.827832222
7.114545822 2.760982275 -1.751915455
7.174733162 2.782899141 -1.487609863
7.177161217 2.780955076 -1.212418795
7.209345818 2.790531874 -0.9440565705
7.226763725 2.795824051 -0.6742114425
7.178143024 2.774133921 -0.4011039138
7.247467518 2.79802227 -0.1349053085
7.206665993 2.798175097 0.1342421174
7.215713501 2.79879427 0.4034067094
7.219236851 2.798707485 0.6736885309
7.173686028 2.778172493 0.939425528
7.167562008 2.772920609 1.210541487
7.1959548 2.782464981 1.491425991
7.153414726 2.763142109 1.760463595
7.123702049 2.748807907 2.034369707
6.402178288 2.461413622 -1.826279402
7.138694286 2.741718531 -1.755514622
7.206398964 2.766278505 -1.492189288
7.225557327 2.770739317 -1.218989015
7.239432812 2.773162127 -0.9467376471
7.269970417 2.783405066 -0.6773490906
7.212034702 2.758333683 -0.402464658
7.287078857 2.784124136 -0.1354637891
7.257454872 2.788784027 0.1350100189
7.240356922 2.779313564 0.4042440653
7.266165257 2.787765741 0.677174747
7.225973129 2.769452572 0.9450315237
7.201179504 2.757067442 1.214608788
7.229461193 2.766448975 1.496387005
7.179397583 2.744418859 1.764512658
7.171154022 2.738395214 2.045240164
6.410730362 2.439052105 -1.826279402
7.1810112 2.729243279 -1.763612986
7.238033772 2.74947381 -1.496768594
7.273970127 2.760215998 -1.225559235
7.273199081 2.757023573 -0.9499062896
7.305727005 2.767891645 -0.6797894239
7.24963665 2.743751764 -0.4040347338
7.309845924 2.763622284 -0.1357081234
7.293312073 2.773385525 0.1354986876
7.279886723 2.765372515 0.4059188366
7.298203945 2.77087307 0.6792665124
7.265293598 2.75547719 0.9489313364
7.232927322 2.740310431 1.218363285
7.275793552 2.755103111 1.50401938
7.227211475 2.733818531 1.77396071
7.204159737 2.722229004 2.05196929
6.415589809 2.415296555 -1.825244069
7.216029644 2.713765383 -1.769911528
7.27331686 2.733860731 -1.502111316
7.305751801 2.743142366 -1.229313731
7.319952488 2.745559454 -0.9547810555
7.330268383 2.747969627 -0.6811839342
7.300319672 2.733836412 -0.4063374996
7.345669746 2.747896433 -0.1361967772
7.332894325 2.759176016 0.1360571682
7.323148727 2.752591133 0.4078029394
7.32648325 2.752385378 0.6810095906
7.310180187 2.743349552 0.9535623193
7.277592659 2.72822237 1.224307775
7.30559063 2.737264156 1.508217216
7.267735958 2.720188379 1.781609058
7.229904652 2.70315218 2.056628227
6.425792217 2.393559933 -1.825761676
7.247375011 2.696717024 -1.775310397
7.315937996 2.720771313 -1.508980393
7.333799839 2.724504471 -1.232442379
7.368573189 2.734496355 -0.9598995447
7.373440266 2.734838486 -0.6843215227
7.336037159 2.718053102 -0.4078029394
7.388974667 2.734730005 -0.1368250698
7.359347343 2.739843607 0.1363713145
7.373896122 2.742326021 0.4101057053
7.369661331 2.739290953 0.6841471791
7.33646059 2.724032164 0.9557560086
7.314851761 2.713107824 1.229000807
7.326146126 2.715838671 1.510506868
7.313737392 2.7083354 1.790607214
7.275533676 2.691304684 2.066981077
6.448609352 2.376460552 -1.829902768
7.293318748 2.684868097 -1.784308434
7.373295784 2.712844849 -1.518902659
7.376639366 2.711152077 -1.238074064
7.402298927 2.717650652 -0.9630681276
7.420351028 2.722808599 -0.6878077388
7.367984295 2.700675249 -0.4090589881
7.439785957 2.724048376 -0.1375929713
7.39513731 2.723812103 0.1368599832
7.405916691 2.724847078 0.4113617837
7.409098625 2.72454977 0.6869361997
7.366421223 2.705937386 0.9584370852
7.355804443 2.699123859 1.234319568
7.381661892 2.707150221 1.520047426
7.348763466 2.692175388 1.796905756
7.3247962 2.680495739 2.078368902
6.45141983 2.351952553 -1.828349829
7.280673504 2.651389599 -1.778909564
7.397478104 2.692463875 -1.52195549
7.419475079 2.697537661 -1.24370575
7.437862873 2.701283932 -0.9664805532
7.463520527 2.709127903 -0.6909453273
7.403654099 2.684469461 -0.4105243683
7.471812248 2.706232071 -0.138011843
7.44029808 2.710990429 0.1375231743
7.434150696 2.705811501 0.4124085009
7.459754944 2.713656425 0.6907710433
7.407540321 2.691730976 0.9625806808
7.391176701 2.682868481 1.238699794
7.424287319 2.693416834 1.526916504
7.380101204 2.674476147 1.802304626
7.368622303 2.667402744 2.088204145
6.4486866 2.325487852 -1.825244069
7.410891056 2.66954565 -1.808603287
7.46788168 2.685658455 -1.25027597
7.469665527 2.683356047 -0.9694053531
7.499184608 2.69248271 -0.6933857203
7.443058968 2.669398785 -0.4121991396
7.503801823 2.688232183 -0.1384306997
7.491102695 2.699916601 0.1382910758
7.477374554 2.692024469 0.4142925739
7.49917841 2.698391438 0.6935600042
7.457986832 2.68063426 0.9679428935
7.422807217 2.665060282 1.242454171
7.466903687 2.679425478 1.533785582
7.426081657 2.661847591 1.811302662
7.396075249 2.648178816 2.093380451
6.462224007 2.304908752 -1.826796889
7.438520908 2.650202513 -1.813102126
7.466031075 2.65853548 -1.532259226
7.499544144 2.667519569 -1.254030347
7.523880005 2.67321372 -0.9752551317
7.523556709 2.671624422 -0.6947801709
7.493744373 2.658088446 -0.4145019352
7.552722454 2.676044941 -0.1391636878
7.530620575 2.684492826 0.1388495415
7.530002594 2.681314707 0.4167000651
7.531076908 2.680212498 0.6956517696
7.508449078 2.669211149 0.9733052254
7.465571404 2.65103364 1.248085856
7.502114773 2.662535906 1.539128304
7.468388557 2.647631407 1.819400787
7.427127361 2.63008213 2.09959197
6.470230579 2.28233552 -1.826796889
7.467945099 2.631342888 -1.8180511
7.52526474 2.650063276 -1.542562842
7.55563879 2.654836655 -0.9781799912
7.562915802 2.655906439 -0.6975691915
7.531245232 2.641836405 -0.416072011
7.582777977 2.656936884 -0.139547646
7.558803082 2.664844036 0.1391986012
7.571342468 2.666289806 0.4184794426
7.56293726 2.661850452 0.697743535
7.54393959 2.652200937 0.9767175913
7.506465435 2.636082649 1.253404737
7.533592224 2.644132137 1.543707609
7.510687828 2.633148909 1.827499032
7.474550247 2.617554188 2.110462427
6.483629704 2.261646748 -1.828349829
7.493644714 2.61103487 -1.822100163
7.569696426 2.636048079 -1.549813628
7.559031963 2.629372358 -1.260913491
7.594862461 2.63886857 -0.9820798039
7.611666203 2.643214464 -0.7012297511
7.557404041 2.621419668 -0.4170140326
7.626016617 2.642237425 -0.1401759386
7.602047443 2.650289536 0.1398268789
7.603236675 2.647727966 0.4197355211
7.613580704 2.649840593 0.7015783191
7.562525749 2.629112244 0.9779361486
7.558541775 2.624766588 1.260600567
7.578016281 2.630051136 1.550958395
7.545611382 2.615849972 1.833797693
7.520152092 2.604088068 2.120815277
6.492919922 2.240765095 -1.828867435
7.524371147 2.593789577 -1.827499032
7.598813534 2.617967844 -1.554011464
7.582650185 2.609438419 -1.263416409
7.561974525 2.597896099 -0.6958260536
7.60006094 2.608011007 -0.4188981652
7.661219597 2.626013517 -0.1406646073
7.642932415 2.636148214 0.1404202729
7.627080917 2.627706528 0.4205728769
7.663771629 2.638846874 0.7054132223
7.610622883 2.617579222 0.9830547571
7.600830078 2.611244917 1.266232252
7.63683033 2.622122526 1.561262012
7.57636404 2.598401308 1.839196444
7.572609901 2.59416008 2.133238554
6.47876215 2.210598946 -1.822655797
7.555514812 2.575050592 -1.832897902
7.607906342 2.591424942 -1.554011464
7.664647102 2.607766867 -1.275618315
7.659635067 2.603082657 -0.9881732464
7.64268589 2.595830917 -0.7024499178
7.64883709 2.59494257 -0.4210962653
7.710111618 2.612730026 -0.1413975954
7.689938545 2.622366905 0.1411183625
7.674019814 2.61394453 0.4226663113
7.699340343 2.621073961 0.7078536153
7.66106081 2.605054855 0.9884169698
7.626732349 2.590412378 1.269048095
7.683118343 2.608068228 1.568894386
7.633371353 2.588210344 1.850893974
7.605405807 2.575768709 2.139967918
6.497421741 2.191676617 -1.825761676
7.581078529 2.5542593 -1.836946964
7.694299698 2.587921381 -1.279059887
7.72701025 2.59592557 -0.995729208
7.632813931 2.562793493 -0.7007068396
7.695720196 2.580930471 -0.4231896996
7.751418591 2.596600533 -0.1419909894
7.727470875 2.605088472 0.1416419297
7.734202862 2.604351759 0.4254924655
7.734879494 2.603076935 0.7102939487
7.707740307 2.59094882 0.9932917356
7.675054073 2.576976061 1.275618315
7.707065582 2.586231947 1.571947455
7.679314137 2.573933363 1.859892011
7.643660069 2.559019566 2.148249865
6.501368523 2.167759418 -1.824726462
7.595493317 2.529633284 -1.838296771
7.737027168 2.572266817 -1.284691572
7.76240015 2.577693701 -0.9991415739
7.7740798 2.580065966 -0.712908566
7.790809155 2.579581738 -0.1425494552
7.766871452 2.588211536 0.1422004104
7.775463104 2.588059664 0.4272719026
7.777948856 2.587379217 0.7134315968
7.74499464 2.573414803 0.9969477654
7.717749119 2.56137085 1.28125
7.745862007 2.569200516 1.578053236
7.717848778 2.556918859 1.867090344
7.680058002 2.541424513 2.156014681
6.505224705 2.143843889 -1.82369113
7.585767269 2.497009516 -1.833797693
7.750250816 2.549653769 -1.577671647
7.779737949 2.556345224 -1.290323138
7.57689476 2.482369423 -0.4156533182
7.800549507 2.569218397 0.1426541805
7.788363934 2.5531528 1.584922433
7.7563591 2.539667368 1.874288917
7.729277134 2.527813196 2.167402744
6.527364731 2.125907898 -1.827832222
7.579611301 2.465693951 -1.830198526
7.538732052 2.448031664 -1.248711586
7.553614616 2.449946165 -0.9698927999
7.579627991 2.456925154 -0.6933857203
7.762228489 2.513117313 -0.4253877997
7.875222683 2.546664 -0.1437711418
7.567313194 2.46022892 0.4148159325
7.873512745 2.558258772 0.7205783129
7.447451115 2.416949511 0.956243515
7.835035324 2.53971529 1.297832012
7.840184689 2.539868355 1.593699574
7.783718586 2.518574238 1.878787756
7.774817944 2.512696981 2.177755356
6.531067371 2.101927996 -1.826796889
7.599304676 2.442797184 -1.832897902
7.737956047 2.485877037 -1.571565866
7.881595612 2.52595377 -1.011084676
7.823440075 2.505810022 -0.7150003314
7.925969601 2.532550573 -0.1445390433
7.907767296 2.543475628 0.144294709
7.90136385 2.536851883 0.7223213911
7.857021809 2.516566038 1.300022006
7.888268948 2.525056601 1.601713657
7.837010384 2.505633354 1.889585495
7.814827919 2.495534897 2.186555386
6.527318001 2.075606108 -1.82369113
7.622644424 2.420973063 -1.836497068
7.924711704 2.512343645 -1.310033917
7.933892727 2.512207031 -1.016690731
7.528213501 2.382306337 -0.6871105433
7.89575386 2.495582819 -0.4317728281
7.967178822 2.515103817 -0.1451324075
7.941373348 2.523728132 0.1447484642
7.858431816 2.494354248 0.4298886955
7.934860706 2.517085314 0.7245874405
7.494420528 2.374494553 0.9601433277
7.88647604 2.495678663 1.303463697
7.926983356 2.506979465 1.607819557
7.894023895 2.493520737 1.901283026
7.852968216 2.477538109 2.19483757
6.538210392 2.05396533 -1.824726462
7.612454414 2.388517857 -1.83199811
7.904986858 2.478788853 -1.602095246
7.940973759 2.487029314 -1.311285377
7.969136715 2.492795706 -1.020103097
7.998579979 2.500473261 -0.7294682264
7.873911381 2.458483458 -0.430098027
8.015999794 2.499777555 -0.1458654255
7.978752136 2.504978657 0.1452720314
7.990965843 2.505749464 0.4366923869
7.996832371 2.50605607 0.7294682264
7.953546047 2.489442825 1.018153191
7.9328475 2.479924202 1.309720993
7.958174229 2.486317158 1.612398982
7.939884663 2.477561712 1.910281062
7.891079903 2.45930624 2.203119755
6.549029827 2.03227663 -1.825761676
7.631914616 2.365390301 -1.834697366
7.993010998 2.472720146 -1.318481326
7.769160748 2.40050292 -0.9932917356
8.039622307 2.482528687 -0.7324314713
7.861450195 2.424510241 -0.4289466143
8.060988426 2.4829638 -0.1465286165
8.018006325 2.486591339 0.1458305269
8.037819862 2.489660978 0.4387858212
8.047403336 2.491090298 0.7333030701
7.996325016 2.472216606 1.022540331
7.984867096 2.465620756 1.316916943
8.000572205 2.468941212 1.619268179
7.9745574 2.457864761 1.916579604
7.940234184 2.44425559 2.214507818
6.556084156 2.009402037 -1.825761676
7.628942966 2.335318327 -1.83199811
8.02723217 2.455703497 -1.623465776
8.054267883 2.459363461 -1.028877616
8.097786903 2.469566584 -0.7369635701
7.988323689 2.433132172 -0.4354363084
8.099786758 2.465533733 -0.1470870823
8.072526932 2.472641706 0.1466682255
8.06512928 2.468840599 0.4398325086
8.096061707 2.475214958 0.7369635701
8.042876244 2.455884933 1.027415156
8.02134037 2.447778463 1.321610093
8.057969093 2.455882311 1.629190207
8.005034447 2.43822217 1.921978474
7.992654324 2.43140316 2.226931095
6.555315495 1.985411644 -1.82369113
7.644106865 2.31226182 -1.833797693
8.042847633 2.431344748 -1.624992371
8.100426674 2.445665359 -1.333498955
8.100388527 2.444111109 -1.033752322
8.14408493 2.454194784 -0.7404497862
8.074761391 2.430226088 -0.4397278428
8.130896568 2.445577383 -0.1475059539
8.118960381 2.457442522 0.1473663151
8.105772018 2.451910496 0.4416119456
8.129020691 2.455842257 0.7392296195
8.088985443 2.440670729 1.032289863
8.059674263 2.430287838 1.32661593
8.107424736 2.441603899 1.637585759
8.054128647 2.424016237 1.931876302
8.041374207 2.417121172 2.238319159
6.558162212 1.962552905 -1.822655797
7.651732445 2.286901951 -1.833797693
7.411279678 2.213624239 -1.495242238
8.131207466 2.425567627 -1.337253451
8.152626991 2.428854704 -1.039358377
8.175093651 2.433998823 -0.7425415516
8.126808167 2.416530609 -0.442135334
8.191141129 2.432548761 -0.1484483778
8.153886795 2.438528776 0.1478549838
8.154468536 2.435602188 0.4438100755
8.167665482 2.437991381 0.74201864
8.146495819 2.428575993 1.038627148
8.107863426 2.413982153 1.33318615
8.153111458 2.425900936 1.645218134
8.114844322 2.411436081 1.944473743
8.083098412 2.398927927 2.247636795
6.564971447 1.939653158 -1.822655797
7.652192593 2.257970333 -1.83199811
8.164258957 2.404422045 -1.341320753
8.208666801 2.414387226 -1.04545188
8.221770287 2.416682482 -0.7460277677
8.177353859 2.400526285 -0.4444380999
8.241799355 2.416316032 -0.1492162794
8.18919754 2.417980909 0.1483436525
8.212730408 2.42180872 0.4465315342
8.206703186 2.418479204 0.744807601
8.193011284 2.41133213 1.043501854
8.157936096 2.397919178 1.340069413
8.18036747 2.402957439 1.649034142
8.164351463 2.395161867 1.954371452
8.111815453 2.376674652 2.253330469
6.582830429 1.919969201 -1.825761676
7.364411354 2.145138741 -1.760913491
8.20506382 2.388454437 -1.652850509
8.220023155 2.389697075 -1.349142551
8.251358986 2.395679474 -1.049839139
8.28798008 2.403179884 -0.7512571812
8.208704948 2.378635883 -0.4456941783
8.303967476 2.403102875 -0.1501936167
8.251343727 2.405046463 0.1493210047
8.270992279 2.407645702 0.4492529929
8.283967972 2.409850597 0.7510828376
8.249033928 2.396569729 1.049595356
8.234554291 2.389242172 1.351332545
8.233957291 2.387515545 1.658193111
8.202611923 2.375318766 1.961569786
8.173881531 2.363907099 2.268342257
6.582397461 1.893690825 -1.82369113
7.649041176 2.199108362 -1.827499032
8.243954659 2.367031813 -1.658956289
8.27050209 2.371529579 -1.356025577
8.288295746 2.375066757 -1.053495288
8.330797195 2.384099245 -0.7543947101
8.253853798 2.358963251 -0.4476829469
8.360375404 2.387829065 -0.1510662287
8.315419197 2.392264128 0.1503332257
8.308139801 2.387030363 0.4508230686
8.331046104 2.390464067 0.7545691133
8.291696548 2.377607107 1.053982735
8.282723427 2.371905565 1.357902765
8.284180641 2.369194746 1.666588664
8.237495422 2.352732897 1.967868447
8.226667404 2.348083258 2.280765295
6.574100494 1.866482973 -1.819550037
7.675797939 2.176376104 -1.83199811
8.289944649 2.34894681 -1.666588664
8.333850861 2.358245373 -1.365098834
8.335150719 2.355466843 -1.058369994
8.369746208 2.363670349 -0.7571837306
8.310095787 2.343688726 -0.4502997398
8.387906075 2.364057779 -0.1514152884
8.381845474 2.378143072 0.1513803899
8.360616684 2.37054801 0.4532305598
8.373846054 2.371137142 0.7577066422
8.353839874 2.362327337 1.060807347
8.315665245 2.349960327 1.361970067
8.341525078 2.354129076 1.676510692
8.290673256 2.336653471 1.978666186
8.262706757 2.327210426 2.288530111
6.584296227 1.844564199 -1.820585251
7.679219723 2.149857283 -1.831098199
8.337800026 2.331093788 -1.674602747
8.364456177 2.336972713 -1.368853331
8.392629623 2.341686487 -1.064707279
8.412494659 2.344064474 -0.7603213787
8.363998413 2.328978539 -0.4528118372
8.438492775 2.34654808 -0.15218319
8.422419548 2.359506845 0.1519737542
8.415002823 2.354261875 0.4557426572
8.424287796 2.353689432 0.7615415454
8.392221451 2.343151093 1.064707279
8.369483948 2.333653927 1.36947906
8.390893936 2.338045597 1.684906363
8.335925102 2.319593906 1.987664223
8.300559998 2.306631565 2.296812296
6.582928658 1.820661187 -1.818514705
7.694190502 2.125115395 -1.832897902
8.37954998 2.31283164 -1.681471705
8.399224281 2.315111637 -1.373233438
8.452427864 2.326602459 -1.071288228
8.462890625 2.326300621 -0.7641561627
8.41059494 2.310350895 -0.4549052715
8.508343697 2.334004164 -0.1533001363
8.45566082 2.33701992 0.1524275243
8.477077484 2.33975029 0.458673507
8.474300385 2.33739686 0.765376389
8.434797287 2.323328733 1.069094419
8.411864281 2.313853025 1.375110745
8.421721458 2.314983845 1.689485908
8.389073372 2.302860498 1.998461962
8.353275299 2.289902925 2.309235573
6.60074091 1.799568534 -1.821620584
7.675238132 2.091074944 -1.82659924
8.43343544 2.294475317 -1.690630674
8.457215309 2.29777503 -1.381368041
8.489233017 2.304883242 -1.074944258
8.524802208 2.311345816 -0.7690368891
8.455636024 2.289424419 -0.4568940401
8.551183701 2.313693285 -0.1539284289
8.515856743 2.321689129 0.1533699483
8.504463196 2.315393686 0.4597201943
8.528953552 2.318868637 0.7695598602
8.473505974 2.302201033 1.072994351
8.475174904 2.299478054 1.384183884
8.471837044 2.295398235 1.697881341
8.435079575 2.282278776 2.007459879
8.404109955 2.272325516 2.321141243
6.60325098 1.775514603 -1.820585251
7.679088593 2.06191349 -1.825699329
8.492589951 2.278762341 -1.700934291
8.516703606 2.282041788 -1.38981545
8.528306007 2.281964779 -1.078843951
8.575163841 2.29289484 -0.7728717923
8.504097939 2.270716906 -0.4590921402
8.590521812 2.290576696 -0.1544869095
8.568727493 2.302398205 0.1541727632
8.495531082 2.279551506 0.4587781727
8.579332352 2.300432444 0.7733947039
8.529825211 2.28396678 1.079087853
8.519804955 2.278092384 1.390128374
8.525318146 2.27797699 1.70704031
8.476887703 2.26186204 2.015558243
8.462783813 2.254939079 2.33511734
6.598204136 1.749481678 -1.817479372
7.716378689 2.043081522 -1.832897902
8.513777733 2.252616644 -1.703605652
8.566632271 2.263406038 -1.396698594
8.582285881 2.264333248 -1.084693789
8.617790222 2.272096395 -0.7760093212
8.556396484 2.252711773 -0.4614996314
8.639077187 2.271255493 -0.1552198976
8.6192379 2.28373909 0.1549406648
8.547844887 2.261630297 0.4611855745
8.629686356 2.281672478 0.7772294879
8.579972267 2.265324354 1.084450006
8.558264732 2.256402493 1.395134211
8.593969345 2.264207602 1.719251871
8.529959679 2.244163752 2.026355743
8.507972717 2.235200167 2.34547019
6.604271889 1.726437211 -1.817479372
7.715921879 2.014163256 -1.831098199
8.559584618 2.232792616 -1.711237907
8.624182701 2.24643302 -1.404833198
8.63240242 2.245357037 -1.090055943
8.652667046 2.249015808 -0.7784497142
8.620269775 2.237383366 -0.4645350873
8.691475868 2.252622604 -0.1560227126
8.663917542 2.26324296 0.1556038558
8.663913727 2.260007381 0.4670472443
8.672302246 2.260583639 0.780367136
8.632011414 2.24685955 1.090055943
8.617711067 2.239929914 1.403581738
8.636025429 2.243076801 1.726121068
8.583013535 2.226114511 2.037153482
8.541904449 2.212270498 2.352716923
6.599032402 1.700485826 -1.814373612
7.722906113 1.987215281 -1.831098199
8.62436676 2.217573881 -1.722686529
8.645364761 2.219751835 -1.407023191
8.690184593 2.22802639 -1.096393228
8.714506149 2.232641697 -0.7833305001
8.664793015 2.216682434 -0.4665238559
8.74578476 2.234154463 -0.156860441
8.70855999 2.24245882 0.1562670469
8.722042084 2.242688894 0.469768703
8.718734741 2.240211964 0.7838533521
8.685948372 2.228560686 1.095905781
8.671401978 2.221598387 1.411090493
8.670427322 2.219740391 1.731463671
8.636045456 2.207722425 2.047951221
8.601986885 2.195817232 2.367211103
6.608673096 1.678389668 -1.815408826
7.714683533 1.95641458 -1.827499032
8.692955017 2.202885866 -1.734898329
8.706680298 2.203130245 -1.415783525
8.739864349 2.209904194 -1.1017555
8.77633667 2.215867281 -0.7882111669
8.69765377 2.192767859 -0.4678846002
8.807440758 2.218815804 -0.1578377783
8.758974075 2.222874165 0.1570349485
8.76815033 2.223569632 0.4718621373
8.776717186 2.222486496 0.7883854508
8.732165337 2.207957506 1.100780487
8.724687576 2.204442263 1.418599486
8.720004082 2.20002532 1.739859462
8.688670158 2.190502882 2.058748722
8.650435448 2.177656889 2.378598928
6.62169838 1.658340812 -1.817479372
7.721128941 1.930822611 -1.827499032
8.726878166 2.180707693 -1.740241051
8.767603874 2.187637806 -1.424543977
8.781814575 2.189551115 -1.106142759
8.831969261 2.198786497 -0.7925689816
8.753333092 2.175964832 -0.4705014229
8.857444763 2.200204611 -0.158605665
8.816734314 2.20643568 0.1579424739
8.806476593 2.20223546 0.4735368788
8.830432892 2.204951525 0.7925689816
8.783741951 2.190031528 1.106386542
8.77411747 2.186010122 1.425482512
8.784406662 2.185312986 1.751307845
8.737490654 2.172026873 2.068646669
8.717609406 2.163849354 2.395163536
6.615908623 1.633596182 -1.814373612
7.74262619 1.908937454 -1.831098199
8.768750191 2.158685446 -1.747110128
8.820847511 2.169873714 -1.432052732
8.835670471 2.170249701 -1.111992478
8.872487068 2.176009417 -0.7955322266
8.807434082 2.156795979 -0.47301355
8.89226532 2.175924778 -0.1590943336
8.872538567 2.189163685 0.1588151008
8.864531517 2.18390131 0.4762583375
8.887996674 2.188041449 0.7971010804
8.856496811 2.177004099 1.114673615
8.810470581 2.16242981 1.430175543
8.8453722 2.167722702 1.76199317
8.790447235 2.152636051 2.07944417
8.758886337 2.141666889 2.404480934
6.610588074 1.606600642 -1.811267853
7.745782852 1.879629135 -1.830198526
8.830029488 2.139469862 -1.757795453
8.861379623 2.145433187 -1.437371612
8.897592545 2.150908709 -1.11881721
8.915265083 2.151891947 -0.7986698747
8.869647026 2.13760519 -0.47594437
8.950728416 2.155493021 -0.1600018591
8.925199509 2.167476892 0.1596179157
8.930706978 2.165518284 0.4793985188
8.926939011 2.162950516 0.7998900414
8.89528656 2.151998997 1.118573427
8.864420891 2.141257048 1.437684417
8.891427994 2.144491911 1.769625425
8.847535133 2.132276058 2.091141701
8.800485611 2.117682695 2.413798332
6.631462097 1.58595705 -1.815408826
7.745038509 1.849414468 -1.828398824
8.887094498 2.12048316 -1.767717481
8.909536362 2.122551203 -1.443941832
8.951393127 2.13087225 -1.124666929
8.976996422 2.133656263 -0.8035505414
8.915921211 2.115852356 -0.4780378044
9.0126791 2.137152672 -0.1609792113
8.966146469 2.142653227 0.1602112949
8.984834671 2.145461798 0.4819106162
8.981320381 2.141309023 0.8040735126
8.953324318 2.131331921 1.124910593
8.933339119 2.124927044 1.447696209
8.925601959 2.119795322 1.774968266
8.900430679 2.11217618 2.10193944
8.860459328 2.099423885 2.428292274
6.644206524 1.565728188 -1.817479372
7.720777512 1.816581249 -1.82120049
8.943766594 2.102684736 -1.777639627
8.96268177 2.103830576 -1.451450706
9.004794121 2.112057686 -1.130516648
9.030582428 2.114776373 -0.8077340722
8.954004288 2.093551636 -0.4797125161
9.074240685 2.119989395 -0.1619565338
9.019917488 2.123910427 0.1610490084
9.030784607 2.124805927 0.4840041101
9.042678833 2.124273777 0.8089542389
8.997063637 2.110244513 1.129541755
8.992263794 2.107462883 1.456143737
8.989930153 2.103606224 1.786416769
8.952926636 2.093299389 2.11273694
8.927573204 2.084085226 2.444856882
6.64183569 1.541937351 -1.815408826
7.738149166 1.793609858 -1.823899865
8.981292725 2.080099583 -1.783745408
9.027345657 2.087450266 -1.460836649
9.046927452 2.088647604 -1.134903908
9.084136963 2.09557271 -0.8119175434
9.019287109 2.077292919 -0.4828526974
9.124458313 2.098162174 -0.1627244353
9.085350037 2.107541084 0.1620961428
9.080952644 2.103181124 0.4863068759
9.104024887 2.106850863 0.8138349056
9.065903664 2.094695091 1.13734138
9.039985657 2.085387707 1.462713957
9.061902046 2.088773251 1.799391747
9.001958847 2.071652174 2.122634888
8.979980469 2.063289642 2.457279921
6.639644623 1.517023802 -1.813338399
7.763362885 1.770919681 -1.828398824
9.038266182 2.06008172 -1.793667436
9.082731247 2.066881895 -1.468658447
9.104492188 2.068491697 -1.141241074
9.141914368 2.075316191 -0.8164496422
9.073230743 2.0563941 -0.4853647947
9.172684669 2.075568676 -0.1634574383
9.129692078 2.084272623 0.1627593488
9.133026123 2.081680298 0.4887143075
9.154062271 2.084794521 0.8176698089
9.131230354 2.076242208 1.14465344
9.091517448 2.063875437 1.469910026
9.11125946 2.066684961 1.807787418
9.060452461 2.051835537 2.134782314
9.036119461 2.04300952 2.470738649
6.656208038 1.49638164 -1.816444159
7.758089066 1.741247058 -1.825699329
9.102872849 2.041409969 -1.805116057
9.136155128 2.045520306 -1.476167321
9.162027359 2.047955036 -1.147578359
9.200016975 2.053079844 -0.820981741
9.138836861 2.03774786 -0.488504976
9.232574463 2.055271387 -0.1643998623
9.193493843 2.065098763 0.1637715995
9.198702812 2.062900782 0.4918544888
9.204054832 2.062409639 0.8215046525
9.181041718 2.053892136 1.150015831
9.139152527 2.041167021 1.476480246
9.168236732 2.045987844 1.817709446
9.118917465 2.031635761 2.146929502
9.080911636 2.019841671 2.481091261
6.657874107 1.471143126 -1.815408826
7.7717309 1.715837955 -1.827499032
9.163976669 2.019862652 -1.815801382
9.187961578 2.02178669 -1.483363271
9.223405838 2.02789855 -1.15440309
9.253833771 2.031202793 -0.8251652122
9.193066597 2.014501333 -0.491017133
9.294389725 2.035004616 -0.1653772146
9.249459267 2.043787479 0.1646441966
9.250705719 2.040672064 0.4942619205
9.25825119 2.038947821 0.8256881833
9.240499496 2.033347607 1.156596661
9.207961082 2.022818089 1.486492038
9.214029312 2.020775795 1.825341821
9.19102478 2.012372971 2.1622262
9.136975288 1.998862982 2.49454999
6.681847572 1.451994419 -1.820585251
7.774158478 1.686517 -1.82659924
9.217020035 1.997845411 -1.824960232
9.245161057 2.000566721 -1.491497874
9.283166885 2.005394459 -1.160984039
9.303714752 2.008133888 -0.8290001154
9.242997169 1.99165225 -0.493319869
9.35422039 2.013910055 -0.1663196385
9.295974731 2.018352032 0.165342316
9.31828022 2.021497011 0.4975067675
9.327625275 2.020110846 0.8312661648
9.292515755 2.009116411 1.162202597
9.263237953 2.001089334 1.494313717
9.282438278 2.001850843 1.83755362
9.234190941 1.988068461 2.17077446
9.200554848 1.979151249 2.510079145
6.694432259 1.430274248 -1.822655797
7.798766136 1.664797425 -1.831098199
9.260419846 1.973431706 -1.832210779
9.300045013 1.980184078 -1.499319553
9.330540657 1.98326838 -1.166102529
9.36913681 1.988054395 -0.8342294097
9.292534828 1.97010541 -0.4956226349
9.410101891 1.991598606 -0.1671922654
9.369105339 2.001721621 0.1665290743
9.368253708 1.998120904 0.4998095334
9.393078804 1.999992847 0.8364954591
9.332136154 1.98530972 1.166346192
9.324269295 1.980239153 1.50307405
9.331276894 1.980020761 1.845949173
9.284580231 1.966730595 2.181122303
9.256548882 1.957412481 2.523537874
6.699138641 1.408064961 -1.822655797
7.785458565 1.633560658 -1.82659924
9.295736313 1.948751926 -1.837935209
9.357172012 1.958226681 -1.507454157
9.387928009 1.961243033 -1.172439694
9.430630684 1.966724396 -0.8391100764
9.358012199 1.9498806 -0.4987628162
9.420911789 1.959550977 -0.1672620773
9.444529533 1.983391523 0.1677507311
9.425995827 1.976059437 0.5025310516
9.421110153 1.973323703 0.8384128809
9.377871513 1.96084559 1.171221018
9.340792656 1.949694753 1.504638433
9.34389782 1.948636413 1.84709394
9.281850815 1.932320952 2.178872585
9.312501907 1.935311079 2.536996365
6.673983097 1.377256632 -1.814373612
7.821650505 1.612668633 -1.833797693
9.254742622 1.904776096 -1.828394771
9.263669014 1.903247833 -1.491185069
9.453053474 1.940433264 -1.179751873
9.472570419 1.940999031 -0.8422477245
9.42771244 1.928373814 -0.5021123886
9.431611061 1.927461267 -0.1673318744
9.423977852 1.944751143 0.1672620773
9.419141769 1.940330267 0.5017983317
9.420474052 1.937172771 0.8377156258
9.380768776 1.927306294 1.170733571
9.345606804 1.916678071 1.504325509
9.366363525 1.91752851 1.850147009
9.325145721 1.905703664 2.187420845
9.362734795 1.911678791 2.548902035
6.667388916 1.351650119 -1.811267853
7.81222868 1.580899596 -1.830198526
9.236319542 1.867399335 -1.823433757
9.239275932 1.864644885 -1.486179113
9.508418083 1.917230964 -1.185845375
9.533978462 1.918926716 -0.8471283913
9.477464676 1.904110074 -0.5044151545
9.493179321 1.905543804 -0.1683092117
9.460440636 1.916153908 0.1677856445
9.474797249 1.917340517 0.5044151545
9.468190193 1.912563562 0.8413761258
9.434473038 1.902320981 1.176583171
9.410334587 1.895749569 1.513711572
9.424967766 1.895269752 1.860450745
9.388731003 1.886282802 2.200917721
9.435646057 1.892277598 2.567019224
6.686991215 1.33255446 -1.815408826
7.813606262 1.554222107 -1.829298735
9.219352722 1.832174301 -1.818854213
9.226031303 1.83014977 -1.483050466
9.571191788 1.896887302 -1.192913771
9.606744766 1.900444031 -0.8530550599
9.595414162 1.89472723 -0.5103814602
9.540646553 1.882178068 -0.1690422148
9.509888649 1.893363714 0.168553561
9.569253922 1.903442025 0.5091253519
9.605414391 1.907154441 0.8530550599
9.571191788 1.896887302 1.192913771
9.559962273 1.892927885 1.536863804
9.560241699 1.88951087 1.886019111
9.458024025 1.867598057 2.215764523
9.502522469 1.872933984 2.583583593
6.691373825 1.310370445 -1.815408826
7.80724144 1.526061177 -1.82659924
9.200328827 1.796697497 -1.813893199
9.208782196 1.795011759 -1.479295969
9.620623589 1.871803999 -1.198276043
9.675578117 1.880743504 -0.8586329818
9.683994293 1.878871918 -0.5147776604
9.547157288 1.848865509 -0.1690422148
9.639752388 1.886003971 0.1707525551
9.654248238 1.885341644 0.5133122206
9.693818092 1.891312838 0.8603761196
9.639780998 1.877277374 1.200713396
9.622746468 1.8704741 1.545937181
9.630054474 1.870150566 1.898612499
9.49509716 1.840502977 2.222963095
9.550729752 1.847827911 2.594971895
6.688318729 1.285548091 -1.813338399
7.827830791 1.501738548 -1.830198526
9.202688217 1.763834238 -1.813130021
9.2324543 1.766198635 -1.482111931
9.660247803 1.844537139 -1.202419639
9.715353966 1.85330677 -0.8615962863
9.706190109 1.848042846 -0.5156149864
9.551589012 1.815152407 -0.1690073162
9.601110458 1.843667746 0.1699497402
9.715693474 1.862159371 0.5162430406
9.71014595 1.859334588 0.8612477183
9.677472115 1.849581361 1.204613209
9.64085865 1.83909595 1.547814369
9.642309189 1.837623954 1.899757266
9.520607948 1.810991168 2.227462053
9.551426888 1.813394547 2.593418837
6.68137455 1.26004374 -1.81023252
7.863667488 1.480170727 -1.83739686
9.23773098 1.737140059 -1.818854213
9.238563538 1.733958006 -1.482111931
9.670528412 1.811538339 -1.202907085
9.67899704 1.809627891 -0.8577615023
9.702765465 1.812319279 -0.5150917172
9.689577103 1.806356072 -0.1713459343
9.709672928 1.829397202 0.171764791
9.708395004 1.825647831 0.5155103207
9.689163208 1.820280433 0.858807385
9.664358139 1.812128305 1.202175736
9.614211082 1.799251914 1.542495489
9.631297112 1.800709605 1.896322727
9.524954796 1.777387023 2.227012157
9.523511887 1.773677945 2.5841012
6.693546772 1.236952543 -1.812303066
7.826626778 1.444930553 -1.827499032
9.282649994 1.710387468 -1.826486588
9.275940895 1.705803871 -1.487117767
9.657269478 1.774181366 -1.200469613
9.667615891 1.772598743 -0.8561926484
9.689696312 1.773146987 -0.5140449405
9.693856239 1.772164583 -0.1713110358
9.684536934 1.789680719 0.1712063104
9.697031021 1.78848958 0.5145683289
9.668336868 1.779703259 0.8563669324
9.647197723 1.774076343 1.199251056
9.602948189 1.762469411 1.539679766
9.599210739 1.758320093 1.888690352
9.510318756 1.738611579 2.222063065
9.506842613 1.736256719 2.577889919
6.713030815 1.216336966 -1.816444159
7.83570528 1.416926265 -1.828398824
9.344592094 1.688098073 -1.83755362
9.328496933 1.68182373 -1.494626641
9.644169807 1.735260725 -1.19803226
9.660017967 1.736371756 -0.8549724221
9.656508446 1.732261658 -0.5119515061
9.684538841 1.733801246 -0.171031788
9.679224968 1.752033472 0.1709968746
9.679935455 1.748677731 0.5133122206
9.666646957 1.744530439 0.8556697369
9.612607002 1.731318355 1.194132447
9.603509903 1.726214409 1.538741112
9.589830399 1.722028017 1.885637522
9.42809391 1.689588428 2.201367617
9.497926712 1.698681712 2.573748589
6.705823421 1.190868139 -1.813338399
7.844440937 1.390247941 -1.829298735
9.271166801 1.641433477 -1.821907163
9.38099575 1.657501578 -1.502135396
9.611070633 1.694688916 -1.193157554
9.650322914 1.699878454 -0.8535779715
9.650694847 1.696466327 -0.511323452
9.666897774 1.695841074 -0.1706129462
9.671499252 1.715788364 0.1707525551
9.65058136 1.708607674 0.5114281178
9.656982422 1.707998395 0.8542752266
9.602953911 1.694990635 1.192182541
9.58613205 1.688571215 1.534986615
9.580313683 1.685822845 1.882584572
9.399385452 1.650603175 2.193269491
9.496189117 1.664181113 2.571678162
6.713746548 1.168113708 -1.814373612
7.845406055 1.36218822 -1.828398824
9.226546288 1.600335121 -1.811985135
9.536600113 1.650685072 -1.526226282
9.616926193 1.661136389 -1.193157554
9.652272224 1.665502191 -0.8532294035
9.662462234 1.663792372 -0.5116375089
9.662903786 1.660390973 -0.1704384089
9.667577744 1.680312634 0.1705780178
9.656486511 1.674907923 0.5114281178
9.658957481 1.673604965 0.853926599
9.606856346 1.661118984 1.191938758
9.562767982 1.65005827 1.530293584
9.578401566 1.651034355 1.881057978
9.385885239 1.614476919 2.188770533
9.427681923 1.618283391 2.551490307
6.698738575 1.141427755 -1.809197307
7.8577981 1.336098909 -1.830198526
9.450791359 1.605270743 -1.855108023
9.653317451 1.636199832 -1.544059873
9.68138504 1.637485743 -1.200469613
9.714999199 1.64142251 -0.8582843542
9.733203888 1.641008973 -0.5150917172
9.74357605 1.639260292 -0.171764791
9.706897736 1.652258039 0.1711714119
9.695748329 1.646878123 0.5132075548
9.707958221 1.647208929 0.8577615023
9.68892765 1.640501022 1.201444626
9.547044754 1.613045335 1.526852012
9.560875893 1.613670707 1.876478553
9.379933357 1.579759955 2.186070919
9.370405197 1.574796319 2.534408092
6.698675632 1.118572593 -1.808161974
9.603733063 1.600225687 -2.237809896
9.541273117 1.588106871 -1.871899128
9.680124283 1.607741237 -1.547501326
9.702429771 1.607966185 -1.202419639
9.714491844 1.6082232 -0.8577615023
9.738592148 1.608720779 -0.5150917172
9.74501133 1.60629189 -0.1716949791
9.737965584 1.624334097 0.1716251671
9.748439789 1.622588992 0.5157197118
9.727125168 1.617291808 0.8589816689
9.694314957 1.608364344 1.201444626
9.542596817 1.579766154 1.525287747
9.546805382 1.578755736 1.872662544
9.369738579 1.546109915 2.182471752
9.451823235 1.556266069 2.555113554
6.725419044 1.09891963 -1.814373612
9.599643707 1.565122128 -2.235560179
9.540946007 1.553842783 -1.870754361
9.683728218 1.573626876 -1.54718852
9.71973896 1.576001287 -1.203881979
9.751513481 1.579402089 -0.8605504036
9.748090744 1.575351477 -0.5153010488
9.801887512 1.580539703 -0.1726025045
9.751469612 1.591627717 0.171764791
9.757987022 1.589190125 0.5159290433
9.762207031 1.588133454 0.8615962863
9.709668159 1.576102734 1.202663302
9.534403801 1.544237971 1.523097754
9.529001236 1.541656375 1.868083
9.373153687 1.513085485 2.182021856
9.436218262 1.519881845 2.549419641
6.71013689 1.072389603 -1.809197307
9.635839462 1.536510825 -2.242758512
9.546311378 1.520531297 -1.870754361
9.716475487 1.544152737 -1.551568627
9.748707771 1.545791388 -1.206806898
9.778614998 1.548779249 -0.862467885
9.792985916 1.54755652 -0.5173944831
9.836975098 1.550988913 -0.1731260717
9.780662537 1.561359048 0.1721836478
9.783197403 1.558262348 0.5169757605
9.799173355 1.559053302 0.8643852472
9.713150024 1.541890979 1.202419639
9.522175789 1.508163452 1.520281792
9.512992859 1.505011916 1.863885164
9.420726776 1.487039804 2.191919804
9.422383308 1.483935237 2.544243336
6.706204891 1.047765493 -1.807126641
9.702758789 1.512477398 -2.257155418
9.582598686 1.492029071 -1.876860142
9.760845184 1.51629293 -1.557826042
9.769738197 1.514182329 -1.208756685
9.807588577 1.518295765 -0.8645596504
9.814119339 1.515799403 -0.5182318091
9.812683105 1.512071133 -0.1726025045
9.841376305 1.535839796 0.1731609851
9.82015419 1.529016852 0.5186505318
9.804555893 1.524835706 0.8643852472
9.706702232 1.506147385 1.200957179
9.490292549 1.469175816 1.514337301
9.508488655 1.470293641 1.8619771
9.44704628 1.457416773 2.196868658
9.404592514 1.447506785 2.538031578
6.709821701 1.024348378 -1.807126641
9.688714981 1.475662589 -2.252656698
9.578043938 1.457091689 -1.874952078
9.750453949 1.479842782 -1.555323124
9.759262085 1.477694988 -1.206806898
9.783277512 1.479584813 -0.8619449139
9.80355072 1.479150772 -0.5173944831
9.825553894 1.480716705 -0.1727421284
9.820977211 1.497560859 0.1727072299
9.80542469 1.493438363 0.5176038146
9.790122032 1.487611175 0.862642169
9.700125694 1.470467806 1.19949472
9.481440544 1.435628653 1.512147188
9.484444618 1.432692885 1.856252789
9.428952217 1.420948625 2.191469908
9.38068676 1.411996245 2.530267
6.720999241 1.002061486 -1.809197307
9.685845375 1.442374706 -2.250856876
9.557826996 1.419900775 -1.869991064
9.7240448 1.442859411 -1.550317287
9.75625515 1.444158673 -1.205832005
9.768673897 1.442512631 -0.8602018356
9.784691811 1.443133235 -0.5161383748
9.806921959 1.442914605 -0.1723232716
9.802155495 1.461443782 0.1722883582
9.792798996 1.45655942 0.5166617632
9.767664909 1.44933176 0.8602018356
9.683347702 1.435093641 1.196813583
9.46880722 1.399920702 1.509331465
9.461953163 1.397220016 1.850910187
9.425900459 1.388534665 2.189670086
9.370266914 1.376997828 2.526125908
6.739578247 0.9819979668 -1.813338399
7.851055145 1.141148567 -1.821650267
9.570254326 1.389328241 -1.871517539
9.7153368 1.406927705 -1.548127174
9.737659454 1.406690359 -1.202907085
9.761816978 1.406701922 -0.8591559529
9.758039474 1.404419184 -0.5144636631
9.788146019 1.405265212 -0.1719044
9.78345108 1.423765182 0.1718695015
9.772128105 1.418634534 0.5153010488
9.768473625 1.416363239 0.8598532081
9.666686058 1.398159981 1.194132447
9.46581459 1.365733504 1.508079886
9.453169823 1.362225056 1.848238945
9.403684616 1.351739287 2.183371544
9.371191978 1.343734741 2.525090694
6.735481262 0.9562049508 -1.811267853
7.951462746 1.127412677 -1.844145536
9.548067093 1.350395203 -1.866174936
9.704780579 1.369099736 -1.545624256
9.714990616 1.36881566 -1.19949472
9.746937752 1.369842649 -0.8574128151
9.755209923 1.367533088 -0.5140449405
9.7672472 1.367482543 -0.1714506447
9.774501801 1.387640595 0.1716251671
9.759223938 1.381991982 0.5143589973
9.757816315 1.378318548 0.8584586978
9.649887085 1.361355662 1.19145143
9.452920914 1.330203652 1.505264163
9.444489479 1.32566011 1.845567584
9.385417938 1.314023733 2.177973032
9.356692314 1.308341622 2.519914389
6.122596264 0.8474028707 -1.644588351
6.272205353 0.8658785224 -1.451830745
6.407889366 0.883470118 -1.249098539
9.705586433 1.334679127 -1.544998407
9.700276375 1.330499291 -1.197057247
9.743763924 1.334731579 -0.8567156196
9.746072769 1.331577659 -0.5133122206
9.738510132 1.327086568 -0.1708572656
9.773579597 1.350981951 0.1715204418
9.744438171 1.34348762 0.5133122206
9.730987549 1.33990252 0.8556697369
9.637111664 1.323549151 1.189257622
9.432289124 1.292064786 1.501196861
9.435443878 1.290819287 1.842896223
9.374499321 1.279148698 2.174373627
9.338456154 1.270905972 2.513702631
6.11785841 0.8249915242 -1.642517805
6.279052734 0.844497025 -1.452730656
6.410934448 0.8610953689 -1.249098539
6.444429874 0.8633044958 -1.023133039
6.450436115 0.8618203998 -0.7939134836
6.46412611 0.8624981642 -0.5668355823
6.493878841 0.8641642332 -0.3411269188
6.488123894 0.8610906601 -0.1135435626
9.758418083 1.314190626 0.1711714119
6.453228951 0.866776228 0.3390334845
9.715857506 1.303280234 0.853926599
9.625932693 1.287792802 1.187307715
9.413245201 1.255994558 1.497442365
9.424323082 1.255798578 1.839843154
9.371181488 1.245388389 2.172574043
9.327513695 1.236276627 2.509561539
6.122616768 0.8038840294 -1.643035412
6.239451885 0.8170118928 -1.442832708
9.524698257 1.245496273 -1.85892415
9.715515137 1.258378386 -0.5112187862
9.721755028 1.25573647 -0.1704035103
6.493433952 0.8514185548 0.1136133671
6.49186182 0.8489077091 0.3409175575
9.706518173 1.267548919 0.8527063727
9.677613258 1.260338902 1.193157554
9.405286789 1.21986568 1.835263968
9.360010147 1.210666895 2.168974638
9.310695648 1.200988889 2.503867388
6.13496685 0.7837295532 -1.645623565
6.168807507 0.785867393 -1.425736427
9.513407707 1.210256577 -1.855871201
6.270009995 0.7954240441 -0.994349122
6.33419323 0.801320076 -0.7788016796
9.690126419 1.220710397 -0.5096487403
9.716158867 1.220544696 -0.170228973
9.715781212 1.239452839 0.1702638865
9.712403297 1.2355721 0.510904789
9.695072174 1.231652617 0.8513119221
9.642566681 1.221557617 1.188282728
9.397800446 1.185550928 1.832974195
9.340976715 1.175074816 2.163576126
9.295663834 1.166074276 2.498691082
6.114659309 0.7594566345 -1.639411926
6.237268448 0.7724713683 -1.441033125
9.513676643 1.176565886 -1.855108023
9.682433128 1.185423732 -0.5090206861
9.696333885 1.185408115 -0.1698101163
9.710125923 1.204297543 0.1700893492
9.698607445 1.201150298 0.5099627376
9.689426422 1.196579456 0.8504403234
9.656620979 1.189110994 1.189501405
9.382546425 1.153694868 1.49055934
9.390189171 1.151312113 1.830684423
9.317941666 1.139148474 2.157277346
9.291809082 1.134312272 2.496620655
6.245599747 0.7524811625 -1.442382812
9.509928703 1.142410636 -1.853581548
9.670445442 1.151422024 -0.5081833601
9.67459774 1.14849174 -0.169356361
9.698184013 1.170176625 0.1698101163
9.67497921 1.163950682 0.5084973574
9.673762321 1.160374403 0.8486973047
9.621091843 1.152357936 1.184626579
9.359057426 1.117655039 1.486179113
9.380309105 1.118536949 1.828013182
9.306186676 1.106399536 2.15367794
9.276526451 1.099594355 2.491444111
6.248188019 0.7306796908 -1.442382812
9.525364876 1.112231731 -1.855871201
6.641831398 0.7708358169 -0.8158500195
9.66646862 1.116739273 -0.5077646375
9.660669327 1.112652421 -0.1690422148
9.690293312 1.134918213 0.1696006954
9.669064522 1.129010916 0.507973969
9.649850845 1.12506032 0.8462569118
9.615198135 1.117618561 1.183408022
9.347202301 1.083166122 1.483676076
9.360754013 1.083076477 1.823433757
9.298376083 1.072574615 2.150978565
9.253440857 1.064114213 2.48419714
6.12023592 0.6962317228 -1.6388942
6.244891644 0.7082045674 -1.441033125
9.525287628 1.078535557 -1.855108023
9.609365463 1.081261754 -1.182189226
9.636658669 1.0826298 -0.8446880579
9.646490097 1.080324888 -0.5065085888
9.656544685 1.078033566 -0.1689025909
9.656443596 1.09679997 0.1689374894
9.665008545 1.094355941 0.507555306
9.637879372 1.089580536 0.8448623419
9.603259087 1.082267284 1.181457996
9.339148521 1.049206138 1.481799006
9.333260536 1.046890736 1.817327738
9.294316292 1.039242148 2.14917922
9.239819527 1.029883146 2.479538441
6.237639904 0.6853386164 -1.438783526
9.525091171 1.04485333 -1.854344726
9.595321655 1.045774102 -1.179995656
9.626513481 1.047478318 -0.8434678912
9.626374245 1.044058919 -0.5052524805
9.656272888 1.043891668 -0.1688327938
9.650274277 1.061989665 0.168762967
9.640974045 1.057565093 0.5060899258
9.633703232 1.05506134 0.8441651464
9.579350471 1.045729756 1.17804563
9.330971718 1.015319824 1.479921818
9.325148582 1.013035059 1.815038204
9.27463913 1.004272699 2.143780231
