# .PCD v0.7 - Point Cloud Data file format
VERSION 0.7
FIELDS x y z
SIZE 4 4 4
TYPE F F F
COUNT 1 1 1
WIDTH 1235
HEIGHT 1
VIEWPOINT 0 0 0 1 0 0 0
POINTS 1235
DATA ascii
-0.7856686115 0.4506852329 0.1367752552
-0.8067613244 0.4629718363 0.1725541353
-0.7910591364 0.4543280602 0.2006528974
-0.7980830073 0.4587328732 0.2350597382
-0.7869232893 0.454147011 -0.1683563292
-0.8732767105 0.5043897033 -0.1530444473
-0.8925021887 0.5159096122 -0.1214384139
-2.447840214 1.416680813 -0.1460184604
-2.448759079 1.41778326 -0.04869041964
-2.456426859 1.416504383 0.04879513383
-2.444626093 1.410267949 0.1457044482
-0.8371272683 0.4833156466 0.08085514605
-0.7929022908 0.4581511319 0.107301563
-0.7721982002 0.4463680685 0.1345851719
-0.8102385402 0.468734324 0.1736989766
-0.7894684076 0.4570866525 0.2006528974
-0.7999007702 0.4633134604 0.2360950261
-0.7617132068 0.4427939355 -0.1934544742
-0.77006042 0.4480060041 -0.1649217755
-0.8408684134 0.4893970788 -0.1474127918
-0.8839251995 0.5148699284 -0.1204634607
-2.460382223 1.434852362 -0.1470651776
-2.447249651 1.428337812 -0.04876022786
-2.455174208 1.426651239 0.04886494204
-2.455227375 1.42782855 0.1466464847
-0.8354350924 0.4862348437 0.08085514605
-0.8033871055 0.467769891 0.1090077311
-0.7774623632 0.4530390203 0.135836646
-0.800199151 0.4664748907 0.1717908978
-0.7946811914 0.4636301696 0.2024525106
-0.7799275517 0.4553876519 0.2304009944
-0.7778186798 0.4563432932 -0.1361495107
-0.8718516231 0.511921525 -0.119001016
-2.445027828 1.437358856 -0.1464371532
-2.456289291 1.444555283 -0.04903946444
-2.439826012 1.429148912 0.04865551367
-2.44703269 1.433943152 0.1464371532
-0.833818078 0.489002645 0.08085514605
-0.7931893468 0.4655472934 0.1077890396
-0.7827695608 0.4596155584 0.13708812
-0.7951805592 0.4672761858 0.1710276604
-0.7930580378 0.4664011598 0.2024525106
-0.7800781131 0.4589510858 0.230918631
-0.7619224787 0.4502408803 -0.1637769192
-0.7711996436 0.4559043646 -0.1352109015
-0.8325627446 0.4925724566 -0.1136387661
-0.9294836521 0.5503519177 -0.09079090506
-2.486644983 1.472942114 -0.1492632926
-2.449511528 1.452100754 -0.04900455847
-2.441962242 1.441297293 0.04879513383
-2.440292358 1.441460252 0.1463324726
-0.837251544 0.4949517846 0.0813780874
-0.7762632966 0.4590806365 0.1055953875
-0.7845603824 0.4643571973 0.1377138644
-0.7936267257 0.4699103832 0.1710276604
-0.7881540656 0.4670415521 0.201552704
-0.7834562063 0.4646275938 0.2324715555
-0.766209662 0.4565712214 -0.1345851719
-0.7865099907 0.4690399766 -0.107301563
-0.8967614174 0.5352137685 -0.08765330166
-2.446144104 1.461668849 -0.04903946444
-2.436916351 1.449812531 0.04879513383
-2.43009758 1.44690454 0.1460184604
-0.8424525261 0.501803875 0.08207532763
-0.7831816673 0.4668698311 0.106814079
-0.7761490345 0.4630447626 0.1364623755
-0.7919814587 0.4726780057 0.1710276604
-0.7764808536 0.4637941718 0.198853299
-0.7917785645 0.4733068347 0.2355773747
-0.7628378272 0.4583590627 -0.1342722923
-0.7712569237 0.4636009932 -0.1053516492
-0.8675712347 0.5219079256 -0.08486431092
-2.43074894 1.464008212 -0.04883003607
-2.442130327 1.464480639 0.04900455847
-2.426744699 1.456406236 0.1461231261
-0.8235277534 0.4946296513 0.08033221215
-0.7883533835 0.4736903608 0.1077890396
-0.7660635114 0.4606612623 0.1348980367
-0.8037008643 0.4836759865 0.1740806103
-0.7814529538 0.4706588686 0.2006528974
-0.7851576209 0.4730766118 0.2340244651
-0.8247687221 0.5002849102 -0.08068083972
-2.454423904 1.490552902 -0.04942341894
-2.436746597 1.473421097 0.04900455847
-2.448730469 1.481835604 0.1477978826
-0.81838727 0.4954379499 0.07998359203
-0.7866119742 0.4765766561 0.1077890396
-0.7609916925 0.4614175856 0.1342722923
-0.7919360995 0.4803693891 0.1717908978
-0.7831370234 0.4754061103 0.201552704
-0.7784652114 0.4729422331 0.2324715555
-0.8094181418 0.4948470294 -0.07928634435
-0.8979331851 0.5493921041 -0.05296511576
-2.42134285 1.475674629 0.04879513383
-0.8199672103 0.5005100369 0.08033221215
-0.7730843425 0.4720775783 0.1060828716
-0.7728608251 0.4723118246 0.1367752552
-0.7868204117 0.4812200963 0.1710276604
-0.7797271013 0.4772560894 0.2011028081
-0.7685720921 0.4706124663 0.2298833728
-0.7908936143 0.4869415462 -0.07754322886
-0.8451910615 0.520778656 -0.0498249568
-0.8714837432 0.5373991132 -0.01717137173
-2.428364992 1.491019726 0.04903946444
-0.8730534911 0.5364758372 0.05149970949
-0.8251801133 0.5072572231 0.08102945983
-0.7732053399 0.4756788015 0.1063266024
-0.7712903619 0.4748721123 0.1367752552
-0.7853047252 0.483689636 0.1710276604
-0.7782239914 0.4797031879 0.2011028081
-0.7818048 0.4822870791 0.2345421165
-0.7891890407 0.4896993935 -0.07754322886
-0.8196139336 0.5089746714 -0.04835955054
-0.8220467567 0.5108830333 -0.01619403623
-0.837215364 0.5184885859 0.04940627143
-0.8284854293 0.5132824779 0.08155239373
-0.7681658864 0.4762828052 0.1058391258
-0.7645924687 0.4744369984 0.135836646
-0.786947608 0.4884987473 0.1717908978
-0.7765448093 0.4824168086 0.2011028081
-0.7719133496 0.4799131155 0.231953904
-0.8212183714 0.5139516592 -0.04856889695
-0.8152635098 0.510422647 -0.01608932205
-0.8371858597 0.5223192573 0.04951094463
-0.8249986768 0.5151161551 0.0813780874
-0.7850165963 0.4905328155 0.1085202545
-0.7630149722 0.4769698381 0.135836646
-0.7852375507 0.4912427366 0.1717908978
-0.7632941604 0.4778855443 0.1979534924
-0.7735921144 0.4845211208 0.232989192
-0.7587818503 0.4782004356 -0.07475424558
-0.8110619783 0.5113462806 -0.04804553464
-0.8320797682 0.5250032544 -0.01647327468
-0.8686442971 0.5457448363 0.01720627584
-0.8269034624 0.5199228525 0.04898758233
-0.818136692 0.5148092508 0.08085514605
-0.7817056179 0.4920758605 0.1082765162
-0.7630168796 0.4806831479 0.1361495107
-0.7836042643 0.4938440323 0.1717908978
-0.7699466348 0.4856120348 0.2002030015
-0.763727963 0.4820627868 0.2304009944
-0.7822127938 0.4971737564 -0.04637078568
-0.8285546303 0.5268316269 -0.01643837057
-0.8194275498 0.5188215375 0.0162289422
-0.8301446438 0.5260133743 0.04930159822
-0.8096938729 0.5132527351 0.08015790582
-0.7783069015 0.4937381744 0.1080327779
-0.7630019784 0.4844024479 0.1364623755
-0.7735036612 0.491448462 0.1698828042
-0.7764699459 0.4935235977 0.2024525106
-0.7571505904 0.4816150963 0.2288480848
-0.765250504 0.4903393984 -0.045428738
-0.8148336411 0.5223107338 -0.01619403623
-0.8158349991 0.520745337 0.01619403623
-0.8248449564 0.5269019604 0.04909225553
-0.811164856 0.5183628201 0.08050652593
-0.7631134391 0.4880312383 0.1060828716
-0.7678765655 0.4914551377 0.1377138644
-0.7766566873 0.4974570572 0.1710276604
-0.7680927515 0.4921605587 0.2006528974
-0.7651374936 0.4906439781 0.231953904
-0.800447762 0.5168424249 -0.04773152247
-0.8096458912 0.5229820609 -0.01612422802
-0.8189655542 0.5269783735 0.01629875042
-0.8078863025 0.5200483203 0.04815021157
-0.8159593344 0.5256482959 0.08120376617
-0.7629879713 0.4919005334 0.1063266024
-0.7611762285 0.4909206033 0.1367752552
-0.774915576 0.5001649261 0.1710276604
-0.7598215938 0.4906104803 0.198853299
-0.7780233026 0.5027480125 0.2366126478
-0.7844413519 0.5103958249 -0.01563555934
-0.8239257336 0.5340419412 0.01643837057
-0.8028055429 0.5205515027 0.04794086516
-0.8125404716 0.5272666812 0.08102945983
-0.7713415623 0.5009149909 0.1077890396
-0.746291995 0.4848327935 0.1342722923
-0.7864204645 0.5112928748 0.1740806103
-0.7647249103 0.4973774254 0.2006528974
-0.773113668 0.5032175183 0.2355773747
-0.7742933631 0.5076488853 -0.015461036
-0.813778162 0.5313052535 0.01626384631
-0.7976397276 0.5211655498 0.04773152247
-0.8024488091 0.5245078206 0.08015790582
-0.7746599317 0.5067301989 0.1085202545
-0.752858758 0.4928446114 0.135836646
-0.778061986 0.5097314715 0.1725541353
-0.7646140456 0.5011120439 0.2011028081
-0.761660099 0.4995561838 0.2324715555
-0.7507397532 0.4961503446 -0.01500727143
-0.7917806506 0.5210921168 0.01584498957
-0.8057319522 0.5306771994 0.04835955054
-0.7955298424 0.5241566896 0.07963496447
-0.7827410102 0.5161225796 0.1099826917
-0.7559936643 0.4988646209 0.1367752552
-0.7729119658 0.5104160309 0.1717908978
-0.7643981576 0.5049852729 0.201552704
-0.7614354491 0.5034098625 0.232989192
-0.7881988883 0.5228853822 0.0158100836
-0.8038747311 0.5334863663 0.04835955054
-0.8035615087 0.5336828828 0.08068083972
-0.7643116713 0.5079997182 0.1075452939
-0.7657623291 0.5091566443 0.1389653385
-0.7743945718 0.5152861476 0.1725541353
-0.7657862902 0.5099436045 0.2024525106
-0.7693202496 0.5124909878 0.2360950261
-0.7847979069 0.5243853331 0.01577517949
-0.7820842862 0.5229668021 0.04710348696
-0.7983820438 0.53426826 0.08033221215
-0.7725205421 0.517157197 0.1090077311
-0.7656215429 0.5129258633 0.1392782032
-0.7710506916 0.5167583227 0.1721725166
-0.7543804646 0.5059673786 0.1997531056
-0.7691305876 0.5162498951 0.2366126478
-0.7879391909 0.5304717422 0.01587989368
-0.7786892056 0.5244417787 0.04699881747
-0.7899973392 0.5324586034 0.07963496447
-0.7723560929 0.5209608674 0.1092514694
-0.7557290792 0.5099374056 0.1377138644
-0.782258451 0.5282361507 0.1752254516
-0.7590681911 0.5129620433 0.201552704
-0.7658140063 0.5177156925 0.2360950261
-0.7729350924 0.5241036415 0.0156006543
-0.7768538594 0.5271567106 0.04699881747
-0.7864857316 0.5340937376 0.07946065813
-0.7771924138 0.5279812813 0.1102264225
-0.7588452101 0.5159041882 0.1386524588
-0.7740088701 0.5264109969 0.1736989766
-0.7621960044 0.5187659264 0.2029024214
-0.7576156259 0.5160354376 0.2340244651
-0.744682312 0.5087499619 0.0150421774
-0.7881989479 0.5388831496 0.04783619195
-0.7781320214 0.5321998 0.07876341045
-0.7622398734 0.5217210054 0.1082765162
-0.7602992058 0.5207825303 0.1392782032
-0.76406914 0.5235607624 0.1717908978
-0.763594687 0.5236276984 0.203802228
-0.7574025989 0.5197700262 0.2345421165
-0.7649306059 0.5269024372 0.04647545889
-0.7861132026 0.5416957736 0.07980927825
-0.7473404408 0.5153630972 0.1063266024
-0.763354063 0.5267992616 0.1402168125
-0.7670838237 0.5295708776 0.1729357541
-0.7585555911 0.5240745544 0.2029024214
-0.7587615848 0.524608016 0.2355773747
-0.7411125898 0.5139362216 0.0150421774
-0.7581641078 0.5261531472 0.04616143927
-0.7809443474 0.5421639085 0.07946065813
-0.75205791 0.5224991441 0.107301563
-0.7469135523 0.5193117261 0.1374009848
-0.7749009728 0.5389713645 0.1752254516
-0.755122304 0.5256057382 0.2024525106
-0.7648515701 0.5327745676 0.2381655723
-0.7393139601 0.5165202618 0.0150421774
-0.7546861768 0.5276518464 0.04605676979
-0.7822167277 0.5473072529 0.07980927825
-0.7502295971 0.5251209736 0.107301563
-0.7370066047 0.516249299 0.135836646
-0.7761355639 0.5440617204 0.1759886891
-0.7420235276 0.5205357075 0.1993031949
-0.7471740842 0.524343729 0.232989192
-0.7374159694 0.5192263722 0.0150421774
-0.7593711615 0.5348836184 0.04647545889
-0.7672739029 0.5408508778 0.07841478288
-0.7580324411 0.5347329974 0.1087639853
-0.7432700396 0.5245133638 0.1374009848
-0.7758353353 0.5479001999 0.1763703078
-0.7546178102 0.5331133604 0.2033523172
-0.7342971563 0.5191420913 0.2293657213
-0.7575932145 0.5373988748 0.04647545889
-0.7687253952 0.5456989408 0.07876341045
-0.7530183792 0.5349445939 0.1082765162
-0.7431367636 0.5281195641 0.1377138644
-0.7628148198 0.5425050855 0.1736989766
-0.7480821013 0.5322239399 0.2020026147
-0.738866508 0.5260560513 0.2314362824
-0.7524626851 0.5377176404 0.0462661162
-0.7669115067 0.548245132 0.07876341045
-0.748011291 0.5351287127 0.1077890396
-0.7541381717 0.5399096608 0.1402168125
-0.7673001885 0.5497382283 0.1752254516
-0.7462198138 0.5348318815 0.2020026147
-0.7464445829 0.5353877544 0.2345421165
-0.7310381532 0.5264657736 0.04501005262
-0.7745963931 0.5580400229 0.07980927825
-0.7476552725 0.5390274525 0.1080327779
-0.747348249 0.5392029881 0.1392782032
-0.7652801275 0.5525468588 0.1752254516
-0.7442544103 0.5375635028 0.2020026147
-0.7413458824 0.5358566046 0.2335068285
-0.730719924 0.5303149223 0.0451147221
-0.7725458145 0.5608753562 0.07980927825
-0.748886466 0.5440980196 0.1085202545
-0.7373785377 0.5361300707 0.1377138644
-0.7727749348 0.5622783303 0.177515164
-0.7454304099 0.5425812006 0.2029024214
-0.7425000668 0.5408448577 0.2345421165
-0.7255471945 0.5306313634 0.04490537941
-0.7592288852 0.5554682612 0.07858909667
-0.7564974427 0.5538750887 0.1099826917
-0.7401888967 0.5423315763 0.1386524588
-0.7659589648 0.5616244078 0.1763703078
-0.7497220635 0.5499200225 0.2047020197
-0.7311686873 0.5367039442 0.2314362824
-0.723969698 0.532781601 0.04490537941
-0.7575775981 0.5577183366 0.07858909667
-0.7548508048 0.5561170578 0.1099826917
-0.7401664853 0.5456976891 0.1389653385
-0.7580676675 0.559099853 0.1748438478
-0.7606304884 0.5614000559 0.2083012462
-0.7451123595 0.5503484011 0.2366126478
-0.7588268518 0.5627330542 0.07893772423
-0.7497166395 0.5563827753 0.1094952077
-0.7414288521 0.5506336093 0.139591068
-0.7624151707 0.5664258599 0.1763703078
-0.7539746165 0.5605635643 0.2069515437
-0.7400869727 0.5506396294 0.2355773747
-0.7600502968 0.5677630901 0.07928634435
-0.7430000901 0.5554307103 0.1087639853
-0.7395023704 0.5532181263 0.139591068
-0.7714360952 0.5773178935 0.179041639
-0.7488936782 0.5608557463 0.2060517371
-0.7721698284 0.5787084103 0.2469654083
-0.7579641938 0.5705450177 0.07928634435
-0.7426425815 0.5592150092 0.1090077311
-0.7454546094 0.5617403984 0.1411554217
-0.7661801577 0.5777772665 0.1782784164
-0.7421664 0.5600752234 0.2047020197
-0.7670614719 0.5790721178 0.2459301353
-0.7448545694 0.5647610426 0.07806616277
-0.7469135523 0.5667328238 0.1099826917
-0.7356219888 0.5583674908 0.139591068
-0.7672852278 0.5828233957 0.179041639
-0.7510668039 0.5709173083 0.2078513354
-0.7465822101 0.5677142739 0.2397184968
-0.7365452051 0.5625203252 0.07736892253
-0.7513397932 0.5740270615 0.1109576374
-0.7368070483 0.563331306 0.1402168125
-0.7528729439 0.5758228302 0.1759886891
-0.7584543228 0.5805113912 0.2105507553
-0.7261919379 0.5562205315 0.2335068285
-0.7457315326 0.573461473 0.07858909667
-0.7398922443 0.5693824887 0.1094952077
-0.7458919287 0.5742065907 0.1424068958
-0.7508582473 0.5784475803 0.1759886891
-0.753336668 0.5807757378 0.2096509486
-0.7549386621 0.58222121 0.2438595891
-0.7421500087 0.5748410821 0.07841478288
-0.7427076697 0.5754803419 0.1102264225
-0.7407609224 0.5743858814 0.1417811513
-0.7520385981 0.583340764 0.1767519265
-0.7390915155 0.5737112761 0.2060517371
-0.7406967878 0.5753718019 0.2397184968
-0.7229576111 0.5638210177 0.07649736106
-0.7469539642 0.5829547644 0.1112013832
-0.7356377244 0.5745363235 0.1411554217
-0.7561860085 0.5907971263 0.1782784164
-0.7432250977 0.5810889006 0.2078513354
-0.7356408834 0.5755730271 0.2386832088
-0.7511570454 0.5904656649 0.1121763363
-2.307940483 1.815517664 0.458404541
-0.7571007609 0.5959933996 0.179041639
-0.7563983798 0.5958682895 0.2123503685
-0.7488005161 0.5900947452 0.2438595891
-0.7396511436 0.5858197212 0.1107138991
-2.295395851 1.818655968 0.4571530819
-2.330314159 1.847645402 0.5698184371
-0.7634732723 0.6057724953 0.2150497735
-0.7437096238 0.5903030038 0.242824316
-0.7028924227 0.5603086948 0.07492855936
-2.316128016 1.846955061 0.3585961759
-2.319913626 1.851299882 0.4634104371
-2.324174166 1.855363131 0.5698184371
-0.7645053864 0.6107336283 0.215949595
-0.7476804852 0.5977205038 0.2448948622
-0.7010304928 0.5626364946 0.07492855936
-2.312762022 1.857514739 0.3590836525
-2.310358286 1.856911302 0.4627847075
-2.311563492 1.858543992 0.5682920218
-2.301926374 1.85211885 0.6721503735
-2.301469803 1.85307622 0.7801327109
-2.310893536 1.869322538 0.3598148823
-2.282367229 1.84756434 0.458404541
-2.30778718 1.869475365 0.5690552592
-2.290580511 1.856862426 0.6708006263
-2.285984993 1.853797078 0.7770268321
-2.297871828 1.87276268 0.3588398993
-2.277434587 1.856768847 0.4587174058
-2.3073318 1.882483959 0.5705816746
-2.296161175 1.874706388 0.6743998528
-2.267530203 1.851989269 0.7728857398
-2.290114403 1.879113555 0.3585961759
-2.275519848 1.868467569 0.4596560299
-2.293491364 1.883894444 0.5686736107
-2.288426161 1.881072998 0.6739499569
-2.26552701 1.863575459 0.7744386792
-2.278950691 1.883302569 0.3578649461
-2.279639482 1.885211468 0.4618461132
-2.294464827 1.898146033 0.5705816746
-2.283347845 1.890291929 0.6743998528
-2.270909548 1.881331921 0.7785797715
-0.6926361918 0.576059401 0.0751028657
-3.361761093 2.800912142 0.8422937393
-3.26558733 2.724648714 1.127985477
-0.6936758757 0.5810323358 0.07545149326
-3.073091269 2.577714443 0.6286053061
-3.3233881 2.788653374 0.8350430131
-3.21925211 2.703188181 0.9605376124
-3.264930964 2.743488312 1.131091356
-3.053946733 2.578045368 0.4855840206
-3.070110083 2.593525648 0.6298567653
-3.315132856 2.801504374 0.835424602
-3.21426034 2.718183994 0.9618873596
-3.252384901 2.752372503 1.130056024
-3.031318665 2.577117682 0.4833904207
-3.074578762 2.615746737 0.6326725483
-3.282907486 2.793973207 0.8297003508
-3.222555161 2.744549751 0.9672861099
-3.236876249 2.758696079 1.127985477
-0.6905812621 0.5908550024 0.07580011338
-3.011748791 2.578645706 0.4816842079
-3.071429729 2.631604195 0.633924067
-3.30294776 2.830967426 0.8373327255
-3.212955475 2.755781889 0.9672861099
-3.238954306 2.780044317 1.13212657
-0.697570622 0.6010654569 0.07684598118
-3.007239103 2.593031883 0.4824154079
-3.071199417 2.650052071 0.6358013153
-3.296017885 2.84504509 0.8380959034
-3.201842308 2.765706062 0.9668362141
-3.239461184 2.800177097 1.135750055
-0.6924587488 0.600884974 0.07649736106
-3.013157368 2.616529703 0.4848527908
-3.081313372 2.677599907 0.6398685575
-3.29791975 2.866838217 0.8411489129
-3.200990677 2.784539938 0.9695356488
-3.228210211 2.810198545 1.135232329
-0.6844604611 0.5979347825 0.07580011338
-3.007454395 2.629119158 0.4853402972
-3.108574152 2.718476772 0.6473774314
-3.282485008 2.872587442 0.839622438
-3.193204641 2.796423197 0.9699855447
-3.215005636 2.816508293 1.133679509
-0.682369113 0.6003203988 0.07580011338
-3.000208378 2.640389919 0.4855840206
-3.143538952 2.768477917 0.656763494
-3.267048836 2.878264666 0.8380959034
-3.197069883 2.818595886 0.974034667
-3.216744661 2.837937355 1.137820601
-3.035484314 2.68840456 0.3510379493
-2.988003254 2.648212671 0.4850965738
-3.147156715 2.791230679 0.6595793366
-3.262856483 2.894863129 0.839622438
-3.185754299 2.828444719 0.9735848308
-3.206818581 2.84914875 1.137820601
-3.033045053 2.706144094 0.3519095182
-2.981702089 2.661270857 0.4855840206
-3.132975101 2.798251152 0.6586407423
-3.113164663 2.782512665 0.8033686876
-3.175366163 2.840101957 0.9735848308
-3.20549202 2.868054628 1.14092648
-0.6864193678 0.6167544723 0.07702029496
-2.952356339 2.656448364 0.6223478913
-2.983778 2.685661793 0.7720760107
-3.166880846 2.852473259 0.974034667
-3.194958448 2.879783869 1.14092648
-2.96384716 2.68180275 0.3459829092
-2.958168268 2.67854166 0.4848527908
-2.943066359 2.66673708 0.6223478913
-2.943837166 2.668372631 0.7640619874
-3.164122105 2.870056152 0.9762842655
-3.179164648 2.885725021 1.138855934
-2.952995777 2.6907897 0.3458085954
-2.950266838 2.6901896 0.4850965738
-2.938585043 2.680475712 0.6232864857
-2.941755056 2.685250521 0.7659701109
-3.163221359 2.888416767 0.9789835811
-3.182412863 2.907979965 1.143514633
-0.6743975878 0.6181880236 0.04574275389
-2.951397181 2.70730114 0.3466801345
-2.912081957 2.673110008 0.4802217782
-2.91222024 2.674173355 0.6195321083
-2.928497314 2.691005945 0.7648252845
-3.156494856 2.901528597 0.9798834324
-3.177017212 2.922441006 1.145067453
-0.6781058311 0.625957191 0.04616143927
-2.930693388 2.706260681 0.3452856541
-2.885706425 2.666585207 0.4772969186
-2.857907772 2.642747402 0.6098331809
-2.940701246 2.721212387 0.7705495954
-3.143487215 2.909881353 0.9789835811
-3.17104888 2.937450886 1.146620393
-0.6699566245 0.6229980588 0.04574275389
-2.893037558 2.691200495 0.3419737518
-2.861383677 2.663618326 0.4748595357
-2.822184801 2.628968239 0.6042014956
-2.936451912 2.737327099 0.7720760107
-3.132800817 2.921383142 0.9789835811
-3.163086653 2.951690197 1.147655725
-0.6794406772 0.6362543702 0.04658012837
-2.864254713 2.684075356 0.3397077024
-2.842914343 2.665940285 0.4733970761
-2.795702457 2.622585773 0.6004470587
-2.926878929 2.74756074 0.7720760107
-3.133948803 2.942973375 0.9825828671
-3.149947166 2.960067987 1.146620393
-0.6889535189 0.6494640708 0.04741750658
-2.824903011 2.664848089 0.3360471725
-2.808074713 2.650825024 0.4690097868
-2.752521276 2.59929204 0.5929382443
-2.917752028 2.757251024 0.7720760107
-3.135501146 2.964059353 0.986182034
-3.148535967 2.978461504 1.149726272
-0.6794397831 0.6449894905 0.04689414427
-2.795824766 2.654993057 0.3336067796
-2.758977175 2.621833801 0.4621851146
-2.731979609 2.597994566 0.5904352665
-2.910953283 2.770126343 0.7728391886
-3.125135422 2.974986315 0.986182034
-3.138119221 2.989434719 1.149726272
-2.784538507 2.662823677 0.1997151673
-2.768798351 2.64869523 0.3315150738
-2.723537445 2.607220173 0.4577978253
-2.696763277 2.583392859 0.5848036408
-2.909284353 2.788927794 0.7751289606
-3.111398458 2.983722448 0.9852823019
-3.142473459 3.015630007 1.155420303
-2.737822533 2.636506081 0.1969936937
-2.727508783 2.628410816 0.3276802301
-2.691101313 2.595136881 0.4538980126
-2.667824507 2.573590517 0.5804234743
-2.913656473 2.812701941 0.7789450884
-3.100440979 2.995107174 0.9852823019
-3.133317947 3.027923107 1.155938029
-0.650532186 0.6304094195 0.01511198562
-2.701360464 2.619628906 0.1950049102
-2.678282738 2.599064112 0.3227995038
-2.669661045 2.591602325 0.4517043531
-2.633321285 2.558110952 0.5747917891
-2.898681402 2.816875458 0.777418673
-3.096079826 3.010806322 0.9870818853
-3.114421368 3.030758858 1.15283215
-0.6569148302 0.6410560012 0.01532141585
-2.680768013 2.617879152 0.1941675395
-2.652546644 2.591224432 0.3207077384
-2.629369497 2.570377111 0.4463421106
-2.613079309 2.556236982 0.5722888708
-2.8888309 2.826976776 0.777418673
-3.093905926 3.02977562 0.9897813201
-3.11348176 3.051076651 1.156455636
-0.6746408939 0.6629678011 0.0158100836
-2.640285015 2.596411467 0.1918647587
-2.623600721 2.580906391 0.318267405
-2.586430073 2.546116829 0.4404923618
-2.587253332 2.548707247 0.5685344338
-2.884538174 2.842556238 0.7789450884
-3.086086035 3.043293476 0.9906810522
-3.101438284 3.06056881 1.155938029
-0.6581087708 0.6512529254 0.015461036
-2.614174843 2.588748455 0.1906087101
-2.59758997 2.573222637 0.3161756396
-2.559198856 2.536962271 0.4373237491
-2.555903196 2.535463572 0.5635285378
-2.881566286 2.859521627 0.7808532715
-3.075444221 3.054047346 0.9906810522
-3.107179403 3.087716818 1.162149549
-2.593554735 2.584516048 0.06321082264
-2.582494736 2.575293064 0.1889339536
-2.56320262 2.556945801 0.3130380213
-2.539088249 2.534660578 0.4353738427
-2.516290665 2.513656616 0.5566453934
-2.870178223 2.86817503 0.7804715633
-3.067520618 3.067520142 0.9915808439
-3.093651295 3.095811129 1.161114335
-0.6433472037 0.6476282477 -0.04563808069
-0.6411281228 0.6456196904 -0.01518179569
-2.553463697 2.56239152 0.06244291365
-2.545749187 2.555543184 0.1868405193
-2.543016434 2.554581404 0.3116435707
-2.513425112 2.52662015 0.4324489832
-2.49122715 2.50517869 0.552891016
-2.568154335 2.584341526 0.6999502182
-3.065033197 3.08650589 0.9942803383
-3.082006931 3.104681969 1.160596609
-0.6496134996 0.6582876444 -0.0462661162
-0.6346583366 0.6435822248 -0.01507708151
-2.522443056 2.548106909 0.06188444048
-2.531195164 2.558733702 0.1864218116
-2.5144732 2.543606281 0.3092031777
-2.486893415 2.51658535 0.4292804003
-2.476914406 2.5082376 0.5516394973
-2.493366718 2.525779486 0.6816325188
-3.065729141 3.107751608 0.9978795052
-3.07521987 3.119548082 1.162149549
-0.6433186531 0.6560186148 -0.07667167485
-0.6501073837 0.6634044647 -0.04647545889
-0.6451148987 0.6585397124 -0.01539122593
-2.507925749 2.551192284 0.0617448166
-2.504497528 2.548594475 0.1850610822
-2.514400959 2.560459614 0.3102490604
-2.491998196 2.539418936 0.4317177832
-2.504550457 2.553101063 0.5597741008
-2.485909939 2.535869122 0.6820141673
-3.054862499 3.118434191 0.9978795052
-3.070265055 3.135249853 1.164220214
-0.6646552086 0.6825258136 -0.07963496447
-0.6506903172 0.6684187055 -0.04668480158
-2.861252546 2.941262007 -0.07092478126
-2.837554455 2.905719757 0.07019178569
-2.689479351 2.756011486 0.1996104866
-2.864329576 2.937238455 0.3552214205
-2.82166791 2.894500256 0.4911900163
-2.81678915 2.891515732 0.6326725483
-2.488444328 2.555351257 0.6850671172
-3.044504642 3.128547192 0.9978795052
-3.072770357 3.159797907 1.169396639
-0.6421124935 0.663998425 -0.1082765162
-0.6676881313 0.6906873584 -0.08033221215
-0.6703215837 0.6938956976 -0.04835955054
-2.846284866 2.947414637 -0.07082006335
-2.854208469 2.945314407 0.07088988274
-2.729388714 2.817492723 0.2033786774
-2.853545189 2.947716713 0.3552214205
-2.82433486 2.919580698 0.4936273992
-2.810292721 2.906079531 0.6336111426
-2.497714043 2.584651947 0.6904097199
-3.040591717 3.148625135 1.00057888
-3.051776171 3.161309481 1.165773034
-0.6263414621 0.6515474319 -0.1364623755
-0.6770378351 0.7047762871 -0.1148574576
-0.6652733088 0.6930136681 -0.08033221215
-0.6749312878 0.7033201456 -0.04888291284
-2.847052574 2.968878269 -0.07109931111
-2.847199678 2.957644701 0.07095969468
-2.719536543 2.827003479 0.2033786774
-2.839096069 2.953350306 0.3546984792
-2.822890759 2.937518597 0.495089829
-2.804236174 2.920145988 0.6345497966
-2.510883093 2.615581036 0.6965156198
-3.038227797 3.167128801 1.003278375
-3.04205966 3.173337936 1.16629076
-0.6194824576 0.6482510567 -0.1970536858
-0.6158792377 0.6451567411 -0.1345851719
-0.6855353117 0.7186260819 -0.1168073639
-0.6684715152 0.7009835839 -0.08102945983
-0.6766056418 0.7100093961 -0.04919692874
-2.839429617 2.981694221 -0.0711691156
-2.829949617 2.960337162 0.07078516483
-2.70689249 2.833591223 0.203169331
-2.836166859 2.969953775 0.3555700481
-2.812619448 2.947354794 0.495089829
-2.798115492 2.93420577 0.6354883909
-2.600626469 2.728064775 0.7243737578
-3.036563873 3.187591314 1.006427646
-3.037623644 3.190932989 1.168878913
-0.6019560099 0.6338860393 -0.2226364315
-0.6064843535 0.6391012073 -0.1934544742
-0.6171956658 0.6506159306 -0.1660666317
-0.6789271832 0.7166911364 -0.116076149
-0.6715002656 0.7090992928 -0.08172670007
-0.6823599339 0.7210709453 -0.0498249568
-2.838621855 3.00175786 -0.07141344994
-2.831989527 2.983249903 0.07109931111
-2.674991608 2.819838524 0.2014945745
-2.831267357 2.985618114 0.3562672734
-2.805044889 2.960036516 0.4955773354
-2.800080538 2.956864357 0.6383042336
-2.71255827 2.865442753 0.7587193847
-3.022739887 3.195339918 1.005527854
-3.037083626 3.212748289 1.173020005
-0.5984143615 0.6345777512 -0.22211878
-0.608259201 0.6454690099 -0.1948041767
-0.6189595461 0.6570532918 -0.1672114879
-1.655291557 1.758396506 -0.3758071065
-2.82818079 3.006444693 -0.5016707778
-0.6717507243 0.7143418193 -0.08207532763
-2.82169795 3.002701521 -0.2137411982
-2.832233667 3.016021013 -0.0715181604
-2.83115983 3.003303766 0.07134364545
-2.635003805 2.797174931 0.1991918087
-2.834486485 3.009988546 0.3580103815
-2.798777342 2.974146128 0.4963085651
-2.793801785 2.970937729 0.6392428279
-2.748259306 2.923528433 0.7716943622
-3.011567593 3.205872059 1.005527854
-3.036427736 3.234597921 1.177161098
-1.605976582 1.716183305 -0.5326806903
-1.61316669 1.724470139 -0.450753659
-1.638352156 1.752619267 -0.3733041883
-2.810893536 3.009045601 -0.5004521012
-0.6692532897 0.7166821957 -0.08207532763
-2.82891345 3.031516075 -0.2151019424
-2.818960667 3.022965193 -0.07144835591
-2.826125383 3.019007444 0.07148326188
-2.606122017 2.785936117 0.1977263838
-2.823962212 3.019864321 0.3580103815
-2.796509981 2.992600918 0.4977710247
-2.779370308 2.976339817 0.6383042336
-2.77956748 2.97759366 0.7835245728
-3.018969536 3.236314297 1.011826515
-3.023801327 3.243764162 1.176643491
-1.568788648 1.687036753 -0.6056886315
-1.595996499 1.717496276 -0.5313309431
-1.607136846 1.730090976 -0.450753659
-1.637600183 1.764118433 -0.3745556474
-2.797673464 3.015927792 -0.4999645948
-0.6586191654 0.7102484703 -0.08102945983
-2.823745251 3.047231674 -0.2155206203
-2.814356089 3.038164377 -0.07158797234
-2.823739052 3.037641287 0.07169269025
-2.599588156 2.797489166 0.1979357302
-2.817471504 3.034082651 0.3585333228
-2.790096998 3.006709099 0.4985021353
-2.777545691 2.994229555 0.6401814222
-2.805192471 3.026152849 0.793828249
-3.020896673 3.261129618 1.016325474
-3.005152464 3.24526906 1.173537612
-1.564201236 1.693921566 -0.6062062383
-1.596901178 1.729938984 -0.533580482
-1.610406399 1.745791554 -0.45342502
-1.623706222 1.760825992 -0.3726784289
-2.80514431 3.044166088 -0.5031331778
-2.800688028 3.041461706 -0.3580103815
-2.814976931 3.058048248 -0.2156252861
-2.81456399 3.059743643 -0.07186721265
-2.810937405 3.044050455 0.07162287831
-2.578971386 2.794803858 0.1970983595
-2.812265873 3.049757719 0.3592305779
-2.785493374 3.021783829 0.4994771481
-2.775106907 3.012624264 0.6420586705
-2.791152 3.031105757 0.792683363
-3.0364573 3.299808741 1.02532351
-3.000344753 3.262848854 1.176125884
-1.562492967 1.703370214 -0.6077591777
-1.588219166 1.732629776 -0.5326806903
-1.601955414 1.748227119 -0.4526617527
-1.617550015 1.766483188 -0.3726784289
-2.794500828 3.053939581 -0.5031331778
-2.805380106 3.066903114 -0.3599278629
-2.802937746 3.066381693 -0.2155206203
-2.807100058 3.072012901 -0.07193702459
-2.804348946 3.058265448 0.07172759622
-2.564290762 2.797451735 0.1966796666
-2.810211658 3.067882061 0.3602764606
-2.776269197 3.032952309 0.4997208714
-2.773102045 3.030554295 0.6439358592
-2.801753044 3.064011574 0.7987892628
-3.04069376 3.327651739 1.03072238
-3.001234055 3.28561759 1.180784583
-1.578528762 1.733564258 -0.5313309431
-1.597164512 1.755260587 -0.4530434012
-1.618328929 1.779143691 -0.3742427528
-2.787029028 3.066127777 -0.5036206841
-2.801355362 3.084051132 -0.3607993722
-2.802151918 3.086009979 -0.2162533253
-2.804422855 3.090677977 -0.07214645296
-2.802271128 3.0764184 0.07193702459
-2.538377047 2.788661718 0.195423618
-2.807529688 3.08651638 0.3613223135
-2.766196251 3.042141914 0.4997208714
-2.767820597 3.046063662 0.6451873779
-2.796856642 3.079098463 0.8003157377
-3.071555376 3.383890629 1.045119166
-2.997534037 3.304659367 1.183890343
-0.8950027227 0.9891300797 -0.345834285
-1.575082302 1.741954565 -0.5322307944
-1.588702083 1.757634401 -0.4522801638
-1.613433361 1.78624773 -0.3745556474
-2.78428936 3.084679127 -0.5050831437
-2.793241978 3.096770048 -0.3611480296
-2.800724745 3.106155872 -0.2169860303
-2.793617249 3.10044837 -0.07214645296
-2.806270838 3.102494478 0.07232097536
-2.53130579 2.800468683 0.1956329495
-2.802621841 3.101722717 0.3620195687
-2.771524429 3.069459915 0.5026457906
-2.750554323 3.048373938 0.6436229944
-2.793981314 3.097589731 0.8026054502
-3.066248417 3.401829243 1.047368765
-2.984687567 3.313667297 1.183372736
-0.8423171043 0.9377891421 -0.326164037
-1.574199438 1.753242373 -0.5340303779
-1.582249641 1.763445258 -0.4522801638
-1.606875181 1.792149663 -0.3745556474
-2.78145504 3.103248119 -0.5065456033
-2.785073519 3.109469652 -0.3614966273
-2.79198575 3.119376898 -0.2171953768
-2.792110682 3.120612621 -0.0723907873
-2.7954247 3.112270832 0.07232097536
-2.518846512 2.806314945 0.195423618
-2.784582853 3.104558468 0.3611480296
-2.774044991 3.093895435 0.5050831437
-2.749123812 3.068254709 0.6458130479
-2.783919573 3.109271526 0.8029870391
-3.084944725 3.44789958 1.058166385
-2.979541063 3.331266165 1.185960889
-0.880186677 0.9868587255 -0.3427284658
-1.570356488 1.761909604 -0.5349301696
-1.578696489 1.771889329 -0.4530434012
-1.591415048 1.787420034 -0.3723655641
-2.777978897 3.12232089 -0.5080080032
-2.782147646 3.12810421 -0.36254251
-2.783733368 3.132089376 -0.2174047083
-2.787294149 3.138301134 -0.07256531715
-2.780005932 3.118018627 0.07221625745
-2.513859272 2.821492672 0.1958422959
-2.775054216 3.115747213 0.3613223135
-2.757407188 3.098110437 0.5041081309
-2.74311161 3.084213972 0.647064507
-2.770439625 3.116036654 0.8022238612
-3.070302725 3.455732584 1.057266593
-2.967312098 3.342163563 1.185960889
-0.91516155 1.033311367 -0.3582576215
-1.555155993 1.757165432 -0.5317808986
-1.576404095 1.781800985 -0.4541882575
-1.593016267 1.801843524 -0.3742427528
-2.769691944 3.134973288 -0.50849545
-2.773849487 3.140783548 -0.3628911376
-2.772783756 3.141786814 -0.2174047083
-2.78558135 3.15850997 -0.07280964404
-2.774408102 3.133692026 0.07235588133
-2.501347542 2.827259302 0.1956329495
-2.752282143 3.111982107 0.3597535193
-2.749205112 3.110691547 0.5045956373
-2.746712923 3.110057354 0.6505061388
-2.773838282 3.141877413 0.8064216375
-3.065955877 3.475197792 1.059965968
-2.969681025 3.368441582 1.19165504
-0.8630694151 0.9813742638 -0.3385873437
-1.570175171 1.787292361 -0.4541882575
-1.585413456 1.805909514 -0.3739299178
-2.756113768 3.141638041 -0.5080080032
-2.778632402 3.168423176 -0.3649828434
-2.771014452 3.16196084 -0.2181374133
-2.779808521 3.174231529 -0.07294926792
-2.777975798 3.159877539 0.0727398321
-2.483554602 2.8269701 0.1950049102
-2.652002096 3.019772291 0.3479003608
-2.743568182 3.126236677 0.5055705905
-2.741049051 3.125567436 0.6517575979
-2.77579689 3.166303158 0.8102378249
-3.046101332 3.477083921 1.057266593
-2.966812849 3.388961315 1.195278406
-0.8596385121 0.9843809605 -0.3385873437
-1.55747366 1.785365105 -0.4522801638
-1.585590601 1.81887722 -0.3754942715
-2.754257202 3.161717653 -0.5097141266
-2.767555475 3.178103209 -0.3649828434
-2.765204191 3.177641869 -0.218556121
-2.763463736 3.177879572 -0.07280964404
-2.770874023 3.17407465 0.07284455001
-2.473671436 2.835622072 0.1950049102
-2.581208229 2.959936619 0.3398820162
-2.749593019 3.155250072 0.5087391734
-2.724933147 3.129157782 0.6505061388
-2.769883394 3.181895971 0.8117642403
-3.028829575 3.481814623 1.05546701
-2.956231356 3.400755405 1.195796013
-0.8536658287 0.9844566584 -0.3375521004
-1.5512321 1.790790915 -0.4522801638
-1.570181847 1.813946247 -0.3733041883
-2.748398781 3.177318573 -0.5106891394
-2.756445408 3.187743664 -0.3649828434
-2.765847445 3.200875998 -0.2194981426
-2.760752678 3.19610548 -0.07301907241
-2.767636538 3.192793608 0.07305397838
-2.477333784 2.858903646 0.1960516423
-2.589119911 2.990015507 0.3423223794
-2.747654676 3.175336599 0.5104453564
-2.727464199 3.153116941 0.6536347866
-2.763895273 3.197486877 0.8132907748
-2.937678337 3.400931358 1.027572989
-2.920948982 3.382758617 1.185960889
-0.8502242565 0.9874305129 -0.3375521004
-1.547532082 1.799171805 -0.4530434012
-1.556430697 1.810156226 -0.3714269698
-2.750784636 3.201470613 -0.5131265521
-2.753088713 3.20641613 -0.3660287261
-2.756519556 3.211545229 -0.2196028382
-2.762598515 3.220901966 -0.07336812466
-2.755728722 3.200438499 0.07301907241
-2.472550154 2.873589754 0.1964703351
-2.5370996 2.950691462 0.3367443979
-2.726758003 3.1723876 0.50849545
-2.719016075 3.165614605 0.6542605162
-2.750718594 3.20365572 0.8125275373
-2.880701542 3.357411861 1.0113765
-2.838706255 3.310804605 1.156973243
-0.8343887329 0.9755632877 -0.3323757052
-1.54155755 1.804293275 -0.4530434012
-1.550102949 1.815577984 -0.3714269698
-2.740880251 3.212563992 -0.5133702159
-2.752784729 3.227654934 -0.3674232364
-2.745291471 3.221148491 -0.2196028382
-2.756523848 3.236615896 -0.07350774109
-2.748437881 3.214598894 0.07312378287
-2.459910154 2.879165411 0.1962609887
-2.537651777 2.971209526 0.3381389081
-2.71566844 3.181885958 0.50849545
-2.719486475 3.188612461 0.6570763588
-2.74588871 3.220707417 0.8144356608
-2.842425585 3.336295843 1.001928687
-2.814607859 3.305984735 1.151796818
-0.8209737539 0.9666901231 -0.3282346129
-0.8525490761 1.004580259 -0.2942325473
-1.536519766 1.811160922 -0.45342502
-1.556529403 1.836045861 -0.3745556474
-2.727083921 3.219082117 -0.5128827691
-2.751801014 3.249408007 -0.3688177168
-2.73532176 3.232235909 -0.219707489
-2.752957582 3.255378962 -0.07371716946
-2.750142574 3.239416838 0.07347283512
-2.448552132 2.886212111 0.1961563081
-2.510512829 2.960294962 0.335872829
-2.714811325 3.203461885 0.5104453564
-2.714722157 3.205624104 0.6586407423
-2.740971088 3.237765551 0.8163437247
-2.785451651 3.292637825 0.9857321382
-2.785591125 3.295134544 1.144549966
-0.864919126 1.025669932 -0.3479048312
-0.9118249416 1.082059622 -0.316727668
-1.525129199 1.810506821 -0.4518985152
-1.562832355 1.8565799 -0.377684325
-2.723498583 3.237695694 -0.5143451691
-2.737876415 3.255944729 -0.3684690595
-2.738156557 3.258583307 -0.2208588719
-2.739006042 3.261905193 -0.07364735752
-2.743974447 3.255112171 0.073612459
-2.444896936 2.902378798 0.1966796666
-2.570748806 3.052860737 0.3454599679
-2.716394663 3.228107214 0.5128827691
-2.698430061 3.209034204 0.6573892832
-2.734706163 3.253324032 0.8178701401
-0.8414897919 1.004984021 -0.3396226466
-0.9080420136 1.085236192 -0.316727668
-1.521318674 1.818831801 -0.4526617527
-1.536072373 1.8377738 -0.3726784289
-2.719814301 3.256325006 -0.5158076286
-2.726495028 3.265481234 -0.3684690595
-2.731882572 3.274256229 -0.2212775648
-2.732724667 3.277590752 -0.07378697395
-2.733877659 3.266204596 0.07364735752
-2.445001364 2.923152208 0.1975170523
-2.72749567 3.262048721 0.3682947755
-2.716564178 3.251280308 0.5150763988
-2.697340488 3.230563402 0.6598922014
-2.72459054 3.264358521 0.8182518482
-2.779871702 3.332955122 0.9920307398
-2.755097628 3.305597305 1.141444087
-0.8206862807 0.987118125 -0.3323757052
-0.9042485356 1.088399053 -0.316727668
-1.519978285 1.830172062 -0.4541882575
-1.529648423 1.843124151 -0.3726784289
-2.718569756 3.278022528 -0.5177575946
-2.727796793 3.290317059 -0.3702122271
-2.728082418 3.293000221 -0.221905604
-2.731469393 3.299432039 -0.07406622171
-2.727573156 3.28187871 0.07378697395
-2.439887285 2.937814236 0.1979357302
-2.721184015 3.277680874 0.3689920008
-2.701397181 3.256159306 0.5143451691
-2.691091061 3.246041775 0.6611436605
-2.714432716 3.275359869 0.8186334372
-2.759520292 3.332131386 0.9888814688
-2.7410779 3.312218428 1.140408874
-0.8467521667 1.025731921 -0.3447990119
-1.511082888 1.832437038 -0.45342502
-1.525717378 1.851501822 -0.3733041883
-2.709633589 3.290557623 -0.5182450414
-2.720092535 3.304433823 -0.3707351387
-2.708957434 3.293248653 -0.2212775648
-2.730093002 3.321305275 -0.07434545457
-2.721190691 3.297549725 0.07392659783
-2.434701204 2.952476501 0.198354423
-2.719863892 3.299459457 0.3703865409
-2.691277504 3.267100811 0.5145889521
-2.689786673 3.267617702 0.6636466384
-2.712963343 3.296942711 0.8216863275
-2.755297661 3.350775957 0.9915808439
-2.74053812 3.335198641 1.145067453
-0.8309198618 1.013740778 -0.3396226466
-1.489751577 1.819472313 -0.4488455653
-1.519245505 1.856815934 -0.3733041883
-2.704414129 3.307679415 -0.5194637179
-2.718628883 3.326249361 -0.3721296489
-2.705026388 3.311965466 -0.221905604
-2.715954542 3.327715874 -0.07427564263
-2.714734077 3.313215494 0.07406622171
-2.424379587 2.960957527 0.198354423
-2.720950127 3.324350834 0.3721296489
-2.682369232 3.279548645 0.5150763988
-2.680864811 3.280045033 0.6642723083
-2.71013236 3.317035198 0.8243576288
-2.741120338 3.357353449 0.9906810522
-2.732543945 3.349234819 1.146620393
-0.8103041053 0.9956583381 -0.3323757052
-1.480914116 1.821615338 -0.4480823576
-1.517737269 1.868240118 -0.3745556474
-2.692852259 3.317098856 -0.5194637179
-2.707000732 3.335719585 -0.3721296489
-2.704771757 3.335348606 -0.2228476554
-2.701803446 3.33406949 -0.07420583814
-2.718296289 3.341284752 0.074485071
-2.421587467 2.978701353 0.1989824474
-2.711843014 3.336920023 0.3724782467
-2.687172651 3.30892539 0.5182450414
-2.664419174 3.283248186 0.6630208492
-2.702247143 3.331049919 0.8255025148
-2.736746073 3.375984907 0.9933804274
-2.728131533 3.367760181 1.149726272
-0.7898253202 0.9774441123 -0.3251287937
-0.827750504 1.025110006 -0.2942325473
-1.48934412 1.84510529 -0.4526617527
-1.506245494 1.867376924 -0.3733041883
-2.693713903 3.341934681 -0.5219011307
-2.700341225 3.351353645 -0.3728268743
-2.703132629 3.357215643 -0.2236850113
-2.700178146 3.35594368 -0.074485071
-2.704102516 3.34764266 0.07441526651
-2.421211481 2.999568701 0.199819833
-2.696424723 3.341715336 0.3719553351
-2.683082819 3.327556372 0.5197074413
-2.662857771 3.304833651 0.6655237675
-2.694298267 3.345048666 0.8266473413
-2.737164736 3.400697708 0.9978795052
-2.72120285 3.383283377 1.151796818
-0.8178408742 1.019372582 -0.3385873437
-0.8241673708 1.027992964 -0.2942325473
-1.490261555 1.859484315 -0.4549514651
-2.68761611 3.355891705 -0.6742841601
-2.696915388 3.369916201 -0.5248259306
-2.688625336 3.360759735 -0.3728268743
-2.69389081 3.36975193 -0.2238943726
-2.700929165 3.380971909 -0.07483412325
-2.692401171 3.357060909 0.07441526651
-2.415723324 3.014235735 0.2002385259
-2.690972567 3.358880997 0.3728268743
-2.671451807 3.336901188 0.5197074413
-2.66117692 3.326449633 0.6680268049
-2.68260622 3.354432583 0.8266473413
-2.741092205 3.430022955 1.003728271
-2.725047112 3.412386656 1.158526063
-0.7829822302 0.9829342961 -0.3251287937
-1.476426601 1.855457783 -0.4526617527
-2.673425674 3.362160921 -0.673658371
-2.677726984 3.369983912 -0.5233635902
-2.686792374 3.382605314 -0.3742213845
-2.682112455 3.379134178 -0.2238943726
-2.699645042 3.402442694 -0.07511336356
-2.688139439 3.375825167 0.07462468743
-2.405713558 3.022230625 0.2002385259
-2.690393209 3.382287979 0.3743956983
-2.6560812 3.341545105 0.5189762115
-2.662420988 3.350721121 0.6711554527
-2.680646658 3.376077652 0.8297003508
-2.903523922 3.659397125 1.068514109
-2.839769125 3.580327988 1.212878108
-1.474808693 1.866762877 -0.4541882575
-2.66593504 3.375658035 -0.6745970249
-2.672684669 3.386637211 -0.5245822072
-2.688540459 3.409171343 -0.3761388063
-2.683255911 3.403695345 -0.2249410897
-2.69022727 3.414986134 -0.07518316805
-2.686854601 3.397267818 0.07490393519
-2.398864985 3.035309792 0.2005525231
-2.689684868 3.405730486 0.3759644926
-2.656056643 3.364356756 0.5211699009
-2.650709391 3.359993935 0.6711554527
-2.675515413 3.392655134 0.8316084146
-2.923940659 3.710330725 1.080661535
-2.848766565 3.617538929 1.222195625
-0.7333133221 0.9335495234 -0.306493789
-1.454067945 1.853107572 -0.4496088028
-2.669980288 3.405152321 -0.6786643267
-2.66819334 3.405320883 -0.5260446668
-2.680905104 3.422774553 -0.3766617477
-2.676283121 3.419331551 -0.2253597677
-2.678887129 3.42388916 -0.07518316805
-2.682388783 3.416063786 0.07511336356
-2.397418022 3.054246426 0.201285243
-2.688212156 3.427172899 0.377358973
-2.650420189 3.381418467 0.5223885775
-2.641988277 3.37187624 0.6717812419
-2.670917511 3.411249399 0.8338981271
-2.925380468 3.738932848 1.086060405
-2.841516495 3.633052111 1.224266171
-1.471721172 1.889147758 -0.4572412074
-2.656247139 3.410870314 -0.6780385971
-2.647133589 3.401616335 -0.5240947008
-2.659157038 3.419528723 -0.3752672374
-2.6747365 3.440802097 -0.2261971533
-2.674280405 3.442694426 -0.07539259642
-2.677195072 3.432823181 0.07528788596
-2.391653538 3.068897247 0.201703921
-2.67378521 3.433390856 0.3770103455
-2.648947001 3.402721167 0.5243384838
-2.630203009 3.381077528 0.6717812419
-2.66441226 3.426286697 0.835424602
-2.921336651 3.759384155 1.089209676
-2.826448441 3.639896631 1.223230839
-1.458240271 1.884700775 -0.4549514651
-2.647950411 3.424809456 -0.6789772511
-2.187401295 2.831188202 -0.4341551661
-2.659379244 3.444561243 -0.3770103455
-2.667589664 3.456442833 -0.2266158462
-2.667130709 3.458342791 -0.07553221285
-2.670092106 3.448472738 0.07542750239
-2.388260603 3.086704254 0.2023319602
-2.668478966 3.450119257 0.3778819144
-2.646765232 3.424511433 0.5262883902
-2.630458593 3.405872822 0.6749099493
-2.659633636 3.444890738 0.8377143145
-2.922479391 3.788074732 1.094608545
-2.826699257 3.66657114 1.22892499
-1.46088779 1.902490258 -0.458004415
-2.636581659 3.436059475 -0.6792900562
-2.169048786 2.827780485 -0.4324489832
-2.6558249 3.464892387 -0.3782305717
-2.652475357 3.463025093 -0.2264064848
-2.662337303 3.477157831 -0.07574164867
-2.658039093 3.457771778 0.07542750239
-2.382337332 3.101358175 0.2027506381
-2.661882162 3.467778683 0.3787534535
-2.631169081 3.429005623 0.5255571604
-2.622160196 3.41973567 0.675848484
-2.657737255 3.468640804 0.8411489129
-2.905022621 3.794117928 1.093258739
-2.833844662 3.702494621 1.237724781
-1.435194135 1.88259697 -0.4518985152
-2.623373508 3.443670988 -0.6789772511
-2.146645069 2.819916964 -0.4300116003
-2.656984568 3.49158287 -0.3801479638
-2.647623301 3.481802464 -0.2270345241
-2.654415369 3.49326086 -0.0758812651
-2.657477617 3.483388901 0.07577655464
-2.368533134 3.106892109 0.2025412917
-2.660630703 3.491310596 0.3803222775
-2.628205776 3.451260328 0.5275071263
-2.613196373 3.43404007 0.6767870784
-2.661065817 3.498209238 0.8461099267
-2.889401436 3.801133156 1.092358947
-2.854141951 3.757469416 1.25273633
-1.42624402 1.88446486 -0.4511353076
-2.606571198 3.446504593 -0.6777256727
-2.147561312 2.841645718 -0.43220523
-2.642379284 3.497656107 -0.3797993362
-2.641471386 3.49899292 -0.2275578976
-2.637387037 3.496119976 -0.07574164867
-2.656167507 3.506991386 0.07609069347
-2.364904642 3.124696732 0.203169331
-2.649628401 3.502166033 0.3804965615
-2.623324633 3.469914913 0.5289695263
-2.60595727 3.449445009 0.6780385971
-2.678416252 3.546644449 0.8556503057
-2.887854815 3.826750278 1.096858025
-2.881719589 3.821393967 1.270853519
-2.646154881 3.521788359 -0.8480179906
-2.594525576 3.455581903 -0.6777256727
-2.151925564 2.868178844 -0.4351301193
-2.633740902 3.511639595 -0.3803222775
-2.646011353 3.530566692 -0.2290232927
-2.638352394 3.522912502 -0.07612560689
-2.647515774 3.52103591 0.07619541138
-2.365979671 3.148901224 0.2042160481
-2.637388229 3.51139307 0.3804965615
-2.621919632 3.493340492 0.531163156
-2.590345383 3.453779221 0.6771000028
-2.677795887 3.571681023 0.8594664931
-2.876816988 3.839926243 1.097757816
-2.875310659 3.840708494 1.273959398
-2.612717152 3.502676964 -0.8411489129
-2.578904867 3.459866524 -0.6767870784
-2.146642923 2.882041454 -0.4361050725
-2.635744572 3.539989233 -0.3824140131
-2.63843894 3.546191454 -0.2294419706
-2.646322489 3.55938077 -0.07671898603
-2.364527941 3.169947624 0.2050534338
-2.637023926 3.53655076 0.3822396696
-2.612082481 3.505654573 0.5316506624
-2.587710619 3.475476027 0.679602921
-2.851691246 3.831416607 0.9201438427
-2.873861313 3.86401844 1.101806879
-2.86879921 3.860025406 1.277065277
-0.7069609761 0.9536610246 -0.306493789
-2.1565063 2.912223339 -0.6961340308
-2.160263062 2.91942668 -0.5685344338
-2.14129138 2.895901442 -0.4370800555
-2.616266727 3.539554358 -0.3813681304
-2.607059479 3.529674292 -0.2277672291
-2.627378702 3.558484077 -0.07650955766
-2.6347754 3.555499554 0.07654445618
-2.351625681 3.174560785 0.2048440725
-2.627035141 3.548936844 0.3825883269
-2.5844841 3.494003534 0.5284820795
-2.580869675 3.490391254 0.6808543801
-2.845300913 3.850821257 0.9224335551
-2.860356569 3.87402606 1.101806879
-2.87204504 3.891277552 1.284312129
-0.7036275268 0.9561231136 -0.306493789
-2.164189577 2.941878319 -0.8332153559
-2.128884554 2.896006346 -0.6904097199
-2.141212702 2.91383934 -0.566031456
-2.131675482 2.902986765 -0.4370800555
-2.596822262 3.539027929 -0.3803222775
-2.591795444 3.533469439 -0.227453202
-2.59011507 3.533764362 -0.07577655464
-2.614672899 3.552944183 0.07630012184
-2.340529203 3.182750702 0.2048440725
-2.604013205 3.543634892 0.3810195029
-2.572882414 3.502555609 0.5284820795
-2.560487032 3.488232374 0.6786643267
-2.84064436 3.871315956 0.9251048565
-2.846340656 3.881919384 1.101356983
-2.869861126 3.916862965 1.289488554
-0.7004532218 0.9584510326 -0.306493789
-2.133219481 2.921087503 -0.8251171112
-2.112324476 2.893535614 -0.6881200671
-2.124042749 2.911721468 -0.5641542673
-2.116852283 2.903992891 -0.4361050725
-2.559819698 3.514251232 -0.3766617477
-2.567689896 3.526348829 -0.2264064848
-2.554234028 3.510443926 -0.07507845014
-2.585741043 3.539443016 0.07581146061
-2.338826656 3.203806162 0.2056814581
-2.575804234 3.52971983 0.3785791397
-2.545436144 3.490663052 0.525313437
-2.525029421 3.465218782 0.6724069118
-2.832894087 3.889141798 0.9270129204
-2.840801716 3.902859449 1.104506254
-2.851626635 3.920607328 1.287418008
-2.109283686 2.90958333 -0.8197182417
-2.108614683 2.910798073 -0.6904097199
-2.107565641 2.911485672 -0.5625899434
-2.104374409 2.908148766 -0.4356175959
-2.533528566 3.503790379 -0.3745699823
