# .PCD v0.7 - Point Cloud Data file format
VERSION 0.7
FIELDS x y z
SIZE 4 4 4
TYPE F F F
COUNT 1 1 1
WIDTH 1244
HEIGHT 1
VIEWPOINT 0 0 0 1 0 0 0
POINTS 1244
DATA ascii
-2.730620861 0.7634302378 0.3429968953
-2.770787716 0.7751815319 0.4490184784
-2.776700974 0.7778809667 0.5522640347
-2.775426149 0.7780462503 0.6555039883
-2.746231794 0.7708960772 0.7526978254
-2.730413675 0.7700561881 -0.7485567927
-2.732668638 0.7717213035 -0.6456061602
-2.765482426 0.7815099359 -0.5503559709
-2.755170107 0.7796350121 -0.4468283951
-2.770094156 0.7843795419 -0.3483591378
-2.760543823 0.7827168703 -0.247322619
-2.772580624 0.7871747017 -0.1488445997
-2.779572725 0.7896848321 -0.04973756149
-2.771324396 0.7821162939 0.04956303909
-2.767910719 0.781673789 0.1485305876
-2.774509907 0.7845839262 0.2485427856
-2.728074312 0.7724812031 0.3429968953
-2.773903608 0.7859811187 0.4499570727
-2.785438299 0.790299952 0.5545537472
-2.769081354 0.7861812115 0.6546041965
-2.751093388 0.7821120024 0.7547684312
-2.737132788 0.7817591429 -0.7511449456
-2.739462614 0.7834581137 -0.6478556395
-2.759100676 0.7895960808 -0.5495927334
-2.760165453 0.790943265 -0.4480798542
-2.771155357 0.7951392531 -0.3488466144
-2.769284248 0.795648694 -0.2483685017
-2.773793936 0.7974683642 -0.1490539461
-2.77679944 0.7993819714 -0.04973756149
-2.776406527 0.7935003042 0.04970265925
-2.767085314 0.791881144 0.1486352682
-2.779554844 0.7959744334 0.2492400408
-2.725497484 0.7815237045 0.3429968953
-2.767345428 0.7945688963 0.4493313134
-2.79034996 0.8017010689 0.5560802221
-2.76631999 0.7958431244 0.6546041965
-2.759484768 0.7949188948 0.7578741908
-2.721259832 0.7880238891 -0.7475214601
-2.747941732 0.7962702513 -0.6505550742
-2.756188154 0.7997034192 -0.5495927334
-2.768629789 0.8043611646 -0.4499570727
-2.78361249 0.809240818 -0.3507965207
-2.766490221 0.8053104877 -0.2483685017
-2.776604652 0.8093062639 -0.1493679583
-2.770153046 0.8079502583 -0.04966775328
-2.781302929 0.80541116 0.04984227568
-2.770059109 0.8032039404 0.1489492804
-2.768964767 0.8039345145 0.2485427856
-2.730377913 0.7932480574 0.3439718485
-2.755071402 0.8014649749 0.4477669895
-2.79870224 0.8152171969 0.5583699346
-2.763384819 0.805976212 0.6546041965
-2.756693125 0.804546535 0.7578741908
-2.722200155 0.7986057997 -0.7485567927
-2.746874332 0.8068864346 -0.6510049701
-2.760914326 0.8115334511 -0.5511191487
-2.762014866 0.8129051924 -0.4493313134
-2.780627489 0.819437921 -0.3507965207
-2.75984025 0.8138355017 -0.2480198741
-2.789086819 0.823518157 -0.150205344
-2.769233465 0.8181815743 -0.04970265925
-2.770657301 0.8133474588 0.04970265925
-2.776820183 0.8156830072 0.149472639
-2.769964695 0.8147196174 0.2488914132
-2.742686033 0.8077358603 0.3459217548
-2.769310236 0.8161028028 0.4505828023
-2.788307667 0.8227590919 0.5568434596
-2.771767855 0.8189303875 0.6573035717
-2.748310089 0.8125212789 0.7563213706
-2.732358217 0.8119559288 -0.7521802187
-2.744183302 0.8159911036 -0.6510049701
-2.763709307 0.8228473067 -0.5522640347
-2.755517721 0.8209319115 -0.4487055838
-2.789308548 0.832059145 -0.3522589505
-2.764618874 0.8257443309 -0.2487170994
-2.780599833 0.8310469389 -0.1498913169
-2.775939703 0.8307089806 -0.04987718165
-2.756443501 0.8191131949 0.04949323088
-2.783527374 0.8282183409 0.1499959975
-2.763284922 0.8232459426 0.2485427856
-2.730480671 0.8139910102 0.3447030485
-2.770230293 0.8268945813 0.4512085319
-2.785564184 0.8320003152 0.5568434596
-2.776504755 0.8303509951 0.6591031551
-2.751008987 0.8237723112 0.7578741908
-2.74075079 0.8243502975 -0.7552860379
-2.733854771 0.8233168125 -0.6492053866
-2.768485069 0.8342729211 -0.5537905097
-2.762091398 0.8333979845 -0.4502699375
-2.782586575 0.8406425118 -0.3517715037
-2.773161888 0.8388515711 -0.2497629821
-2.777682066 0.8407480121 -0.1498913169
-2.782591581 0.8432943821 -0.05005170777
-2.778460503 0.836221993 0.04994699359
-2.769145489 0.8344720006 0.1493679583
-2.779615164 0.8381569386 0.2502858937
-2.733323574 0.8252391815 0.3454342782
-2.7748909 0.8388453126 0.4524600506
-2.786401033 0.842856288 0.5576066971
-2.773589611 0.8400370479 0.6591031551
-2.755511761 0.8356127739 0.7599447966
-2.741406679 0.8355166316 -0.7563213706
-2.744012117 0.8368339539 -0.6523546576
-2.784184933 0.8501477242 -0.5576066971
-2.787353992 0.8521798849 -0.4549629688
-2.794821501 0.8549955487 -0.35372141
-2.794982195 0.8561124206 -0.2520290315
-2.791766882 0.8561936021 -0.1508333683
-2.804482937 0.8606289029 -0.05050547048
-2.783175945 0.8482468724 0.05008661002
-2.768126011 0.8447167873 0.149472639
-2.805106401 0.8570712805 0.2529006004
-2.745613098 0.8394184113 0.3473841846
-2.768167734 0.8473699689 0.4518342614
-2.790801525 0.8553639054 0.559133172
-2.763040066 0.8479110599 0.6573035717
-2.763659 0.8486280441 0.7630506158
-2.769854784 0.854764998 -0.7651211619
-2.789335489 0.8618431091 -0.6640521288
-2.805584192 0.8673999906 -0.5625677705
-2.823990345 0.8741705418 -0.4615332186
-2.822006226 0.8746367693 -0.3576211929
-2.814660311 0.8734360337 -0.2541207671
-2.819280148 0.8754099011 -0.1525081098
-2.828043461 0.8792126775 -0.05099413544
-2.827815294 0.8731919527 0.05095922947
-2.806990862 0.867834866 0.1517754197
-2.826841116 0.8745132685 0.25516662
-2.789923668 0.8641588092 0.3534776568
-2.761270046 0.8563399315 0.4512085319
-2.799049139 0.8685916662 0.5614228845
-2.774951458 0.8621758223 0.6609027982
-2.756840229 0.8576045632 0.7620153427
-2.763015747 0.8637585044 -0.7640858889
-2.804908752 0.877392292 -0.668551147
-2.809880018 0.8800241351 -0.5640941858
-2.816997528 0.883333087 -0.4609074891
-2.834088802 0.8892357349 -0.3595711291
-2.819196939 0.8856450319 -0.2548179924
-2.840820789 0.8935269117 -0.153868854
-2.830679178 0.8908807635 -0.05109884962
-2.820932865 0.8818643093 0.05088942125
-2.824911118 0.8841903806 0.1529268175
-2.82361722 0.8848676682 0.25516662
-2.786890268 0.8738922477 0.3534776568
-2.769572258 0.8695237041 0.4530857801
-2.803338289 0.8811998963 0.5629493594
-2.775490284 0.8735114932 0.6618025899
-2.753829956 0.8672219515 0.7620153427
-2.784081221 0.8804891706 -0.7708151937
-2.794397593 0.884824872 -0.6667515039
-2.814432621 0.8917092085 -0.5656206608
-2.810286999 0.8914752603 -0.4602817595
-2.846103191 0.9039304256 -0.3615210354
-2.823840141 0.8974021077 -0.2555152476
-2.835938931 0.9023370743 -0.1537641883
-2.835173845 0.9031842351 -0.05123846978
-2.815931082 0.8911025524 0.05085451901
-2.831327438 0.8970621228 0.1534501761
-2.828264475 0.8966348171 0.2558638752
-2.783822775 0.8836150765 0.3534776568
-2.768402576 0.8797843456 0.4533986151
-2.785433292 0.8857318759 0.5598964095
-2.783719778 0.8862569928 0.664501965
-2.761829615 0.8803496957 0.7651211619
-2.777310848 0.8890241981 -0.769779861
-2.795003891 0.8957627416 -0.6676513553
-2.822519541 0.9051251411 -0.5679103732
-2.818442822 0.9049028158 -0.4621589482
-2.827811718 0.9089996815 -0.3595711291
-2.824483871 0.9084739089 -0.2558638752
-2.828969479 0.911006391 -0.1535548419
-2.849133015 0.9185974002 -0.05155261233
-2.822325468 0.9039765596 0.05102904141
-2.818669319 0.9038904309 0.1529268175
-2.836500168 0.9101543427 0.2569097579
-2.780721188 0.893327117 0.3534776568
-2.782239199 0.8948862553 0.4562144578
-2.797275305 0.9002612233 0.5629493594
-2.780608892 0.8959693909 0.664501965
-2.766093969 0.8923574686 0.7671917081
-2.788893223 0.9034764767 -0.7739210129
-2.793713331 0.9061155319 -0.6681011915
-2.815608025 0.9137601256 -0.5671471357
-2.822781801 0.9171773195 -0.4634104371
-2.824621677 0.9188645482 -0.3595711291
-2.840240717 0.9244944453 -0.2576069832
-2.839065075 0.9252086282 -0.1542875469
-2.823256731 0.9206013083 -0.05113375187
-2.83437109 0.9187551141 0.05130828172
-2.817556143 0.9138487577 0.1530314833
-2.837095976 0.9212801456 0.2572583854
-2.787025213 0.9060970545 0.3546963632
-2.779256582 0.9041070938 0.4562144578
-2.80531621 0.9136679769 0.5652390718
-2.770053864 0.9032529593 0.6627023816
-2.774139166 0.9051206708 0.7702975273
-2.78021574 0.9114001989 -0.7723681331
-2.801803589 0.9190185666 -0.6708006263
-2.812401533 0.9235822558 -0.5671471357
-2.830984831 0.9302330017 -0.4652876258
-2.817787647 0.9269856811 -0.3590836525
-2.825642109 0.9306635261 -0.2565611005
-2.839775562 0.9358671904 -0.1544968933
-2.829521418 0.9335836172 -0.05130828172
-2.831308603 0.9281492829 0.05130828172
-2.821939945 0.9261696935 0.1534501761
-2.833862543 0.9311785698 0.2572583854
-2.789662361 0.9171943665 0.3554275632
-2.764825344 0.9100977778 0.4543372393
-2.806000471 0.9241942167 0.5660023093
-2.774446249 0.9148749709 0.664501965
-2.759956121 0.911164403 0.7671917081
-2.771676779 0.9187911749 -0.7708151937
-2.802277327 0.9300214648 -0.671700418
-2.816776037 0.9353783727 -0.5686736107
-2.823971272 0.9388629198 -0.4646618962
-2.831485987 0.942458272 -0.3612772822
-2.824430704 0.9406582117 -0.2567354441
-2.84596467 0.948933661 -0.1550202519
-2.830038786 0.9447212219 -0.05137808993
-2.822357416 0.9361381531 0.05120356753
-2.830062628 0.9397904873 0.1540782005
-2.82697773 0.9393138885 0.2569097579
-2.793978453 0.9294323325 0.3564025164
-2.767254114 0.9216159582 0.4552758336
-2.802757263 0.9339827299 0.5660023093
-2.786024332 0.9294879436 0.6681011915
-2.760423183 0.9220176935 0.7682270408
-2.779442072 0.932146132 -0.7739210129
-2.795319319 0.9385564327 -0.6708006263
-2.824660301 0.9489564896 -0.5709633231
-2.81693244 0.9474547505 -0.4640361667
-2.833822727 0.9542375207 -0.362008512
-2.826794386 0.9524194002 -0.2572583854
-2.838849783 0.957585454 -0.1548109055
-2.839986086 0.9590721726 -0.05162242055
-2.820967913 0.9466211796 0.05123846978
-2.838124752 0.9534799457 0.1547062248
-2.835012674 0.9529859424 0.2579556108
-2.798242807 0.9417122602 0.3573774695
-2.784612179 0.9382071495 0.4587174058
-2.799479961 0.9437605739 0.5660023093
-2.793841362 0.9429465532 0.6708006263
-2.764508724 0.9341214299 0.7702975273
-2.783489466 0.9443252683 -0.775991559
-2.792026043 0.9483082891 -0.6708006263
-2.823189497 0.9594424367 -0.5713449717
-2.824828625 0.961099565 -0.465913415
-2.834232807 0.9654031396 -0.3624959588
-2.830996275 0.964852035 -0.2579556108
-2.837380171 0.9681341648 -0.1549155712
-2.859499454 0.9762377143 -0.05204127729
-2.823327303 0.9583901763 0.05134318396
-2.827382565 0.9603171349 0.1542875469
-2.83355546 0.9635169506 0.2581299245
-2.781783819 0.9469966888 0.3556712866
-2.787095547 0.9493470788 0.4596560299
-2.799884796 0.9547948837 0.5667654872
-2.78684473 0.951433301 0.6699008346
-2.772364616 0.9470308423 0.7734034061
-2.787484884 0.9565438628 -0.7780621052
-2.799924612 0.9613589644 -0.673500061
-2.821679592 0.9699296355 -0.5717265606
-2.829097986 0.9730316997 -0.4671648741
-2.834769487 0.9760897756 -0.3629834652
-2.846446991 0.9812213778 -0.2596987188
-2.837930441 0.9788405299 -0.1551249176
-2.844732761 0.9822979569 -0.05183185264
-2.83526516 0.9729399681 0.05162242055
-2.820235252 0.9688827991 0.1540782005
-2.841479063 0.9772900343 0.2591757774
-2.791768074 0.9607375264 0.3573774695
-2.778161764 0.9571397305 0.4587174058
-2.811552048 0.9691924453 0.5698184371
-2.779989719 0.95939821 0.6690009832
-2.77634573 0.9592259526 0.7754738927
-2.780647516 0.9645155668 -0.7770268321
-2.80759716 0.9749622345 -0.6761994362
-2.818276644 0.979773283 -0.5717265606
-2.836878538 0.9867951274 -0.4690420926
-2.840718746 0.9892426729 -0.3642021716
-2.829834938 0.9865609407 -0.2584785521
-2.84940958 0.9944999814 -0.1559622884
-2.833734989 0.9895848036 -0.05169223249
-2.839408159 0.9854536653 0.0517620407
-2.822496176 0.9806873202 0.1543922126
-2.841986418 0.9880159497 0.2595244348
-2.797770977 0.9737399817 0.3585961759
-2.778534412 0.9681315422 0.4593431354
-2.819103003 0.9833705425 0.5721082091
-2.783983469 0.9716650844 0.6708006263
-2.76750946 0.9669989944 0.7739210129
-2.767979145 0.9715024829 -0.7744386792
-2.807681799 0.9865381122 -0.6770992279
-2.825778961 0.9940044284 -0.574016273
-2.835105896 0.9978420138 -0.4693549275
-2.842690945 1.001626253 -0.3649334013
-2.831837177 0.9989138842 -0.2590014935
-2.843862057 1.004271865 -0.1558576226
-2.841402292 1.003960967 -0.05190166086
-2.835777521 0.9958533645 0.0517620407
-2.839608908 0.9983131886 0.1555436105
-2.834587097 0.997102797 0.2591757774
-2.805417776 0.9879432917 0.3600585759
-2.78055644 0.9802792668 0.4602817595
-2.811776876 0.9923903942 0.5713449717
-2.795103788 0.9870535731 0.6743998528
-2.76941061 0.9790684581 0.7754738927
-2.780784369 0.9874592423 -0.7790973783
-2.811392069 0.9994326234 -0.6788988709
-2.825991392 1.005178809 -0.5747795105
-2.823986053 1.005575299 -0.4681034684
-2.84834981 1.015371919 -0.3661520779
-2.830209255 1.009462118 -0.2591757774
-2.85350585 1.018894196 -0.1565903276
-2.850884199 1.019080281 -0.0521459952
-2.832108259 1.006240964 0.0517620407
-2.841576099 1.01072216 0.1558576226
-2.836544514 1.009490132 0.2596987188
-2.792428017 0.9948878884 0.3588398993
-2.782526493 0.9924548268 0.4612203836
-2.804597616 1.000878811 0.5705816746
-2.798807859 0.9999141097 0.6761994362
-2.769441843 0.9905127287 0.7765091658
-2.791866064 1.002382517 -0.7832384706
-2.807886362 1.00924015 -0.6788988709
-2.833549976 1.019023657 -0.5770692229
-2.82789278 1.018103957 -0.4693549275
-2.846655369 1.025981426 -0.3663958013
-2.849159479 1.027445912 -0.2612675428
-2.83490324 1.023423195 -0.155752942
-2.854832411 1.031744242 -0.05228561535
-2.836106539 1.018824577 0.05190166086
-2.826754093 1.016579628 0.1552295834
-2.84425211 1.02343297 0.2607446015
-2.781467915 1.001938462 0.3578649461
-2.782761812 1.003502011 0.4618461132
-2.814013958 1.015326977 0.5732530355
-2.784303427 1.005705595 0.673500061
-2.84097743 1.032347083 -0.6878969073
-3.81555748 1.388749361 -0.6364269853
-3.807334185 1.387260556 -0.4924087226
-3.833906412 1.397701502 -0.3533039987
-3.818201065 1.393485904 -0.2108103782
-3.831666708 1.399916172 -0.07050593197
-3.873818398 1.406891942 0.07123892754
-4.033884048 1.466619492 0.2227429897
-4.138202667 1.505363703 0.3815424442
-4.167570591 1.517695546 0.5394502878
-4.007843018 1.461112499 0.6689653993
-3.889418364 1.418708324 0.7964995503
-3.805866003 1.389736891 0.9254452586
-3.990823269 1.458854198 1.126950264
-3.756896019 1.378546834 -1.060692549
-3.805019617 1.397713304 -0.9258950949
-3.821810246 1.406152487 -0.6383042336
-3.819232702 1.406717896 -0.4946023822
-3.806122303 1.405661106 -0.07012197375
-3.833217382 1.407311201 0.07057573646
-3.826277733 1.406279206 0.2114384174
-4.138532162 1.521863461 0.3820653856
-4.147344589 1.52674675 0.5375003815
-4.008278847 1.477142811 0.6699039936
-3.871548414 1.42752099 0.793828249
-3.81744504 1.409086823 0.929494381
-3.98389411 1.472106338 1.126432538
-3.712212563 1.376872778 -1.049304485
-3.759467602 1.396639228 -0.7713127732
-3.779848814 1.405712485 -0.6320468783
-3.78267312 1.408266902 -0.4904587865
-3.769910336 1.404263616 -0.3482489586
-3.787794828 1.412432313 -0.2096589953
-3.788325071 1.413382053 -0.06987763941
-3.790785551 1.406769395 0.06987763941
-3.780400991 1.403665185 0.2091356218
-4.133194447 1.536300421 0.3820653856
-4.160594463 1.54813695 0.5399377346
-4.016317368 1.495251298 0.6720941067
-3.868381262 1.441713095 0.7942098379
-3.823458433 1.426489949 0.9321938157
-3.980800629 1.48598516 1.126950264
-3.718237162 1.393892169 -1.052410364
-3.737030506 1.401680231 -0.9114983082
-3.767434597 1.414585352 -0.7739840746
-3.769618988 1.416155338 -0.6311082244
-3.796562433 1.427790642 -0.4928961694
-3.77430892 1.420924544 -0.3491205275
-3.792435169 1.428505301 -0.210182339
-3.790852785 1.429419398 -0.07001725584
-3.771120548 1.413717151 0.06959840655
-3.788567781 1.421765089 0.2098683268
-4.137133121 1.554221511 0.3829369545
-4.159154415 1.563322663 0.540425241
-4.025863647 1.514826059 0.6745970249
-3.858067513 1.452457428 0.7930650711
-3.836942196 1.446033716 0.9366928339
-3.986433983 1.503963232 1.130056024
-3.713594913 1.406212926 -1.052410364
-3.746692181 1.42024231 -0.9150974751
-3.766394854 1.428462625 -0.7747473717
-3.762806177 1.428604126 -0.6307954192
-3.791555643 1.441033602 -0.4928961694
-3.784474134 1.439098239 -0.350515008
-3.783692598 1.440312743 -0.2099730074
-3.789829493 1.443406224 -0.07008706778
-3.773643017 1.429705143 0.06973802298
-3.780097485 1.432905078 0.2096589953
-4.146857738 1.57358706 0.384331435
-4.16851759 1.583471894 0.5423751473
-4.039283752 1.535186052 0.6777256727
-3.8566432 1.467312932 0.793828249
-3.835513115 1.460805416 0.937592566
-3.995866537 1.522677779 1.134197116
-3.717684507 1.422620416 -1.054998517
-3.727402687 1.427085042 -0.9114983082
-3.717388868 1.424738884 -0.765588522
-3.753390789 1.442294717 -0.3480746448
-3.736018658 1.436367631 -0.2075655609
-3.741843462 1.440107465 -0.06928426027
-3.78253293 1.448949099 0.2100776732
-4.141340256 1.588052869 0.384331435
-4.148416996 1.59159708 0.540425241
-4.026524067 1.546443701 0.6764742136
-3.860919952 1.483614445 0.7957363725
-3.839742422 1.477015018 0.9398421645
-3.997739077 1.53939271 1.136267662
-3.658888102 1.414047956 -1.039469361
-3.687866449 1.426727891 -0.9029501677
-3.697996616 1.431388021 -0.7625355721
-3.708787918 1.437054634 -0.6232864857
-3.713181734 1.440248013 -0.4838778377
-3.707472563 1.439522624 -0.3442398012
-3.725396872 1.447230458 -0.2072515488
-3.710701704 1.443012476 -0.06879559159
-3.722790718 1.439492226 0.06897011399
-3.781177521 1.4635849 0.2102870345
-4.143482208 1.604655504 0.3850286603
-4.172450066 1.617548823 0.5443250537
-4.017417908 1.559060216 0.675848484
-3.868528605 1.502056837 0.7984076738
-3.850910425 1.496762991 0.9438912868
-3.98513937 1.550536156 1.134197116
-3.623090506 1.415498853 -1.03066957
-3.673789024 1.436044216 -0.9007005692
-3.665301085 1.434202433 -0.7568113208
-3.672227621 1.438390851 -0.6179677248
-3.697042227 1.448854804 -0.4824154079
-3.676458597 1.442268729 -0.341799438
-3.708912849 1.456494689 -0.2066235095
-3.683307886 1.447181463 -0.06837673485
-3.680491447 1.437924623 0.06827201694
-3.787205458 1.481140494 0.210915044
-4.141284466 1.621283054 0.3853773177
-4.170474529 1.633551359 0.5448125005
-4.024825573 1.578120947 0.6780385971
-3.859342098 1.514791012 0.7976444364
-3.876232862 1.522982121 0.9515395761
-3.988692284 1.567971349 1.136785269
-3.614533901 1.426717877 -1.029634237
-3.637690067 1.43732667 -0.8930522799
-3.649318218 1.442656517 -0.7545216084
-3.635959148 1.438843966 -0.6126489639
-3.664277315 1.450789094 -0.4787593484
-3.660288095 1.45068872 -0.3407535553
-3.677815437 1.45912075 -0.2051580995
-3.668940544 1.456341147 -0.068202205
-3.656597137 1.44405961 0.06792297214
-3.789442778 1.497287273 0.2113337517
-4.143010139 1.638661146 0.386074543
-4.157076836 1.645902038 0.5438376069
-4.022964954 1.593616605 0.6786643267
-3.854031563 1.528252602 0.7976444364
-3.912822962 1.552356601 0.9618873596
-3.999354362 1.588301659 1.141444087
-3.588248014 1.430113673 -1.023422599
-3.609373569 1.439994454 -0.8872035742
-3.622633696 1.446016431 -0.7499421835
-3.609155178 1.442098141 -0.608894527
-3.628110647 1.450405478 -0.4746157825
-3.644358873 1.4583776 -0.3397077024
-3.628459692 1.453484535 -0.2026459724
-3.64552927 1.461060762 -0.0678531602
-3.636929035 1.450251222 0.06764373183
-3.795586586 1.514285803 0.2119617611
-4.152356625 1.65830183 0.3874690533
-4.173715591 1.668521166 0.5467624664
-4.034164906 1.613551021 0.6814801693
-3.856232166 1.543943405 0.7991708517
-3.980013371 1.594309568 0.9798834324
-4.001237392 1.604431272 1.143514633
-3.556602955 1.431187034 -1.015658021
-3.575656891 1.440305829 -0.8800051212
-3.588683605 1.446280122 -0.7438362837
-3.589697838 1.448146462 -0.6063916087
-3.595669031 1.451284051 -0.4709596932
-3.617334604 1.46149838 -0.3376159668
-3.605104208 1.458019853 -0.2015992552
-3.59988308 1.456640244 -0.06708525866
-3.602419853 1.450354576 0.06708525866
-3.783133745 1.52387929 0.2115430832
-4.154225826 1.675042748 0.3881663084
-4.157114029 1.677894592 0.5453000069
-4.032455921 1.628398538 0.6821058989
-3.862012386 1.561137557 0.8014605641
-4.043354511 1.63526237 0.9969795942
-4.012011051 1.624215603 1.148173332
-3.52320075 1.431339622 -1.007375836
-3.549199104 1.443345308 -0.8746063113
-3.547497511 1.443374872 -0.7362039089
-3.573899269 1.455571055 -0.6045143604
-3.565099955 1.452712774 -0.4675473869
-3.586640835 1.462951303 -0.3351756036
-3.578060389 1.46090734 -0.2003431916
-3.563562393 1.455714464 -0.06649187207
-3.586475372 1.457774997 0.06687582284
-3.789160728 1.540930033 0.2121711224
-4.139420986 1.685053587 0.3872947097
-4.180940628 1.703656554 0.5491998792
-4.023375034 1.640270233 0.6814801693
-3.884080172 1.585062981 0.807184875
-4.070384502 1.661921263 1.005077958
-4.011967659 1.639703751 1.149726272
-3.489336967 1.432504416 -0.9990936518
-3.522255182 1.447455287 -0.8692075014
-3.516762972 1.445915818 -0.7308612466
-3.535659075 1.455127954 -0.5988827348
-3.541141033 1.458829641 -0.4651100039
-3.537045717 1.457864523 -0.3309921324
-3.550526619 1.464871049 -0.199087128
-3.533918858 1.459463596 -0.06603810936
-3.547812939 1.457234502 0.06624753773
-3.79799366 1.561543703 0.2130084783
-4.136902809 1.701730132 0.3876433671
-4.174668312 1.718968987 0.5491998792
-4.038963318 1.664740086 0.6852346063
-3.870984316 1.596294403 0.8056584597
-4.089191914 1.687947869 1.0113765
-3.998500109 1.652146578 1.147655725
-3.475393057 1.440975428 -0.9965053797
-3.499182463 1.452271461 -0.8647084832
-3.502628326 1.454418421 -0.7289531827
-3.505021334 1.456846595 -0.5945025682
-3.525030613 1.466606498 -0.4636475444
-3.509862661 1.461014271 -0.3289003968
-3.534329653 1.472646594 -0.1984590888
-3.510346889 1.464092851 -0.06568906456
-3.50945735 1.455817938 0.06561925262
-3.80358696 1.579387307 0.2136365175
-4.143816471 1.721510887 0.3888635337
-4.175973892 1.736579895 0.5501747727
-4.044069767 1.683383226 0.6871117353
-3.869013071 1.611306548 0.8064216375
-4.086872101 1.703711271 1.012276411
-4.010537148 1.673532605 1.15283215
-3.447176218 1.443399191 -0.9897761345
-3.468930721 1.453930378 -0.8584098816
-3.47399354 1.456766248 -0.7239921689
-3.481700659 1.461426377 -0.5913738608
-3.488777637 1.465830445 -0.4595040083
-3.490046978 1.467081428 -0.3275058866
-3.484985352 1.466384292 -0.1959469765
-3.496000528 1.47245574 -0.06551453471
-3.478532553 1.45724225 0.06513058394
-3.801734686 1.594199657 0.2138458639
-4.156154156 1.743673086 0.3906066418
-4.166226387 1.749609113 0.5496872663
-4.052736759 1.703614593 0.6896147728
-3.87784338 1.630891323 0.8094745874
-4.09526825 1.724016666 1.015875578
-4.017132759 1.692773104 1.156455636
-3.420764685 1.446395159 -0.983564496
-3.436914444 1.454638004 -0.8516612649
-3.443577051 1.458166599 -0.718649447
-3.454752445 1.464321136 -0.5876194239
-3.459883213 1.467919707 -0.4563353956
-3.462897062 1.46991241 -0.325414151
-3.465140343 1.472291231 -0.1951095909
-3.459556341 1.471345425 -0.06492115557
-3.462374687 1.464700341 0.06492115557
-3.799824476 1.609017849 0.2140551955
-4.161050797 1.762832642 0.3916525245
-4.163748741 1.76569128 0.5501747727
-4.044947147 1.716978073 0.689301908
-3.884775877 1.649789453 0.8121459484
-4.082052231 1.73525095 1.014075994
-4.027197838 1.71359396 1.161114335
-3.392598391 1.448465109 -0.9768351912
-3.41748023 1.460499883 -0.848062098
-3.414999247 1.460143447 -0.7136884332
-3.426011324 1.466267586 -0.5835521221
-3.434665918 1.471390247 -0.4536542594
-3.428188324 1.470030665 -0.3226251602
-3.448966503 1.479654074 -0.1944815516
-3.428674936 1.472365975 -0.06443248689
-3.438851357 1.468922377 0.06457211077
-3.7923491 1.621486068 0.2139505297
-4.151207924 1.775779605 0.3913038969
-4.175808907 1.788027763 0.5526121855
-4.03711319 1.73030901 0.6889889836
-3.889820099 1.667981505 0.8144356608
-4.093877792 1.757175803 1.018574953
-4.040716648 1.736028552 1.166808367
-3.357110023 1.44788456 -0.9680352807
-3.396258116 1.465470791 -0.8440129757
-3.393403292 1.465645194 -0.7102538943
-3.402482748 1.470975041 -0.5804234743
-3.414933205 1.477066159 -0.4517043531
-3.40840888 1.475655556 -0.3212306798
-3.428859472 1.485931993 -0.1936441809
-3.41250658 1.479552746 -0.06422305852
-3.415340662 1.472998857 0.06422305852
-3.799501657 1.640255332 0.2146832347
-4.141013622 1.789402008 0.3909552991
-4.187762737 1.810470462 0.5550495386
-4.045552731 1.750666022 0.6914919615
-3.883680105 1.682228088 0.8144356608
-4.087409496 1.772168994 1.018574953
-4.045265675 1.754735351 1.169914126
-3.33963728 1.454194784 -0.9644118547
-3.371212721 1.469344974 -0.839064002
-3.377469301 1.472772241 -0.7079641819
-3.370170593 1.470990777 -0.575730443
-3.3913064 1.481624484 -0.4492669702
-3.381329536 1.477969527 -0.3191389441
-3.387056112 1.48187995 -0.1915507466
-3.389002562 1.483437181 -0.06387401372
-3.380586624 1.472727537 0.06366458535
-3.81206131 1.661489129 0.2157299519
-4.154829979 1.812609673 0.3928726912
-4.181098461 1.825808287 0.5550495386
-4.055708408 1.771894336 0.6943077445
-3.88138175 1.697347641 0.8151988387
-4.095480919 1.792677402 1.022174239
-4.108129978 1.799068928 1.1901021
-3.320392847 1.459624171 -0.9602707028
-3.339564323 1.468747497 -0.8323155046
-3.347151995 1.473479033 -0.7026215196
-3.34900403 1.474992037 -0.5729146004
-3.368210077 1.484854937 -0.4468295872
-3.365212917 1.484937549 -0.3180930614
-3.352889299 1.480197787 -0.1898759902
-3.367341518 1.487983704 -0.06355986744
-3.353717089 1.474273324 0.06324572861
-3.804410934 1.673980474 0.2156252861
-4.168534279 1.835935354 0.394790113
-4.171387672 1.838062525 0.5545620918
-4.056727886 1.789230585 0.6955592632
-3.888304472 1.715757489 0.8178701401
-4.114469528 1.81727159 1.0284729
-4.154832363 1.836831093 1.205631256
-3.301406384 1.464360714 -0.9561296105
-3.32194972 1.474860549 -0.8291661739
-3.313539743 1.471819162 -0.6965156198
-3.325784445 1.478649139 -0.5697859526
-3.333988667 1.483689666 -0.4429297447
-3.345708847 1.489605904 -0.316698581
-3.336756229 1.487014771 -0.1892479658
-3.340472221 1.489370465 -0.0631410107
-3.341238737 1.482726574 0.06310610473
-3.804315567 1.689018607 0.2159393132
-4.173347473 1.854603648 0.3958359957
-4.183084011 1.86067903 0.556999445
-4.059795856 1.80668807 0.6971235871
-3.889465809 1.732514501 0.8193966746
-4.100981712 1.828448534 1.026673317
-4.161067963 1.856107831 1.209254622
-3.273353577 1.465613246 -0.9494003654
-3.30637002 1.481087804 -0.8264667392
-3.295841932 1.477754116 -0.6938443184
-3.313653946 1.486434221 -0.5685344338
-3.312752008 1.487419724 -0.440736115
-3.313229561 1.489024043 -0.314083904
-3.320877075 1.493157506 -0.1886199266
-3.300606012 1.485428333 -0.06247781962
-3.321702719 1.487261057 0.06282686442
-3.807508945 1.706371903 0.2164626569
-4.163213253 1.8675282 0.3954873979
-4.184135437 1.877792001 0.5579744577
-4.051662445 1.820040226 0.6968107224
-3.89265275 1.749426961 0.8213047385
-4.105558872 1.84683454 1.029372573
-4.163371563 1.874587417 1.211842895
-3.240306139 1.463735342 -0.9411181211
-3.276320219 1.481380939 -0.8201681376
-3.283768177 1.485438943 -0.6923178434
-3.301246881 1.494733691 -0.5672829747
-3.314771891 1.502251983 -0.4417110682
-3.306197405 1.499757409 -0.31390962
-3.317463398 1.505566001 -0.1887246072
-3.319069386 1.507692099 -0.06293158233
-3.300091028 1.491434216 0.06251272559
-3.819726944 1.727884173 0.2175093889
-4.164258003 1.884609938 0.3961846232
-4.195637226 1.900576949 0.5604118109
-4.052481651 1.837434173 0.6980621815
-3.890098333 1.764626503 0.8220680356
-4.127478123 1.874043941 1.036571026
-4.149766922 1.885912776 1.209772229
-3.289406776 1.500455141 -0.9571649432
-3.278220654 1.496044755 -0.821967721
-3.733674288 1.705469847 -0.7896304727
-3.757450104 1.717915535 -0.6476902962
-3.798718452 1.737585306 -0.5077642798
-3.482097387 1.594228387 -0.3313407302
-3.809421539 1.745697737 -0.2174047083
-3.806399107 1.745116472 -0.0723907873
-3.314877987 1.512073636 0.06289667636
-3.81912303 1.743694544 0.2178233862
-4.160946369 1.901517034 0.396533221
-4.192588329 1.916861773 0.5608992577
-4.04963541 1.853212714 0.6986879706
-3.883604527 1.778872609 0.8220680356
-4.12766695 1.892408013 1.038370609
-4.146671295 1.901996613 1.210807562
-3.736892462 1.720359325 -1.090715528
-3.745272636 1.725800991 -0.9420915842
-3.745527267 1.72671175 -0.79344666
-3.780129194 1.744262457 -0.6526961923
-3.806741476 1.758155227 -0.5097141266
-3.501832724 1.618072629 -0.3337811232
-3.799679756 1.757308125 -0.2171953768
-3.803606987 1.760736227 -0.07246059924
-3.329292536 1.533415318 0.06328062713
-3.816333771 1.759353995 0.2180327475
-4.175993919 1.926043391 0.3986249864
-4.189138889 1.933879733 0.561386764
-4.064334869 1.877985001 0.702442348
-3.886281252 1.796536922 0.8239760399
-4.099812984 1.896984935 1.032971859
-4.164213657 1.928548098 1.218054533
-3.7413764 1.738277078 -1.093821406
-3.756895542 1.747082114 -0.9465906024
-3.728796959 1.734806895 -0.791156888
-3.791924715 1.765787125 -0.6558248997
-3.795184374 1.76891613 -0.5089829564
-3.488940001 1.626919389 -0.333083868
-3.806190968 1.776472688 -0.2179280818
-3.810120106 1.779927373 -0.07270493358
-3.323919773 1.545027494 0.06328062713
-3.811980009 1.773507357 0.2181374133
-4.174664497 1.943130136 0.3991479278
-4.178763866 1.946814179 0.5608992577
-4.050592899 1.888822436 0.7011908889
-3.894220114 1.816732168 0.8270290494
-4.10905838 1.918705225 1.037021041
-4.178458691 1.952886939 1.224266171
-3.730038881 1.748865366 -1.092268467
-3.761358976 1.765152931 -0.9492900372
-3.708501816 1.741136551 -0.7881039977
-3.801828146 1.786573887 -0.6586407423
-3.805152178 1.789757848 -0.5111765862
-3.479633808 1.637391448 -0.3327352405
-3.819841862 1.799110174 -0.2190794647
-3.804196596 1.79255259 -0.07270493358
-3.329369068 1.561716199 0.06349006295
-3.818733931 1.792078257 0.2188701034
-4.167856216 1.957690716 0.3991479278
-4.189907551 1.969833851 0.5633366704
-4.044306755 1.902244449 0.7011908889
-3.9020648 1.837003231 0.8300819397
-4.134067059 1.947988629 1.045119166
-4.168464661 1.96508503 1.223230839
-3.730896235 1.765179753 -1.094338894
-3.769576073 1.78428638 -0.9528893232
-3.7024014 1.754071116 -0.7881039977
-3.795882463 1.799171567 -0.6586407423
-3.806371212 1.805769086 -0.5121515989
-3.459499121 1.642690182 -0.3313407302
-3.819267511 1.814337611 -0.2193934768
-3.806946278 1.810113311 -0.07287944853
-3.327786922 1.574458718 0.06355986744
-3.828701496 1.813089728 0.2198121548
-4.15739584 1.970521569 0.3987992704
-4.215638161 1.999027014 0.5677239895
-4.051918983 1.92312634 0.7036938667
-3.89949894 1.851617336 0.8308452368
-4.131104469 1.96336019 1.046019077
-4.158090115 1.977965117 1.222195625
-3.738970518 1.784198284 -1.098480105
-3.763325214 1.797433019 -0.9528893232
-3.696564436 1.766339183 -0.7881039977
-3.786015034 1.810705185 -0.6580149531
-3.817949533 1.827617049 -0.5145889521
-3.464814425 1.659316778 -0.3323866129
-3.818313837 1.83024931 -0.219707489
-3.82764864 1.836365938 -0.07340303063
-3.325880289 1.587787628 0.06362967938
-3.831359863 1.830748916 0.2203355283
-4.161623955 1.989452243 0.3998451531
-4.187146187 2.003448725 0.56479913
-4.059434414 1.944083333 0.706196785
-3.894782066 1.866066098 0.8312268257
-4.145311832 1.987879276 1.051417828
-4.130260944 1.982436299 1.215983987
-3.744903564 1.803105354 -1.102103591
-3.764050245 1.813942671 -0.9546889067
-3.686838865 1.777526617 -0.7873407602
-3.793904305 1.830778122 -0.660517931
-3.813334227 1.841795325 -0.5148326755
-3.455413342 1.669667602 -0.3320379853
-3.815498352 1.845304966 -0.2199168503
-3.817614555 1.847973943 -0.07333321124
-3.332928419 1.605463028 0.06387401372
-3.824945927 1.8441118 0.2203355283
-4.183367252 2.017816544 0.4026341438
-4.198004246 2.026683092 0.5672364831
-4.056181431 1.959960699 0.7068225741
-3.895314693 1.883068085 0.8327532411
-4.145364761 2.005732298 1.05321753
-4.151135445 2.010313034 1.224266171
-3.745538235 1.819542289 -1.104174137
-3.773468494 1.834740162 -0.958738029
-3.673550367 1.786950469 -0.7858142853
-3.801698923 1.85092783 -0.6630208492
-3.806881905 1.855095267 -0.5148326755
-3.460309505 1.686957717 -0.333083868
-3.818008184 1.862991452 -0.220440194
-3.814735174 1.863043189 -0.07340303063
-3.33629632 1.621457934 0.06404853612
-3.825669765 1.860946894 0.2207542211
-4.185256004 2.036766291 0.4035057127
-4.212320328 2.051755905 0.5701613426
-4.084826946 1.99142015 0.7130799294
-3.902834892 1.9035393 0.8358062506
-4.138338089 2.020190239 1.05321753
-4.151035786 2.028183222 1.226336718
-3.744367361 1.835157275 -1.105727077
-3.777538776 1.853049159 -0.9614374042
-3.653190136 1.792842984 -0.7827612758
-3.802307367 1.867669821 -0.6642723083
-3.816416502 1.876254916 -0.5170263648
-3.443672657 1.693750262 -0.3320379853
-3.818649292 1.879835963 -0.2208588719
-3.824352503 1.884302139 -0.07371716946
-3.350366116 1.642778039 0.06443248689
-3.83170104 1.880449176 0.2214869112
-4.181697369 2.053119183 0.4038543105
-4.208695889 2.068198204 0.570648849
-4.141663074 2.03705287 0.7243432403
-3.904973507 1.921484828 0.8377143145
-4.115526676 2.026874304 1.049168348
-4.130068302 2.035827637 1.222195625
-3.750060797 1.854210258 -1.109350443
-3.781526327 1.871411085 -0.9641367793
-3.65394783 1.809068799 -0.7842878103
-3.809924126 1.887948632 -0.6667753458
-3.824071169 1.896620631 -0.5189762115
-3.419891834 1.696904898 -0.3302948773
-3.828164577 1.901148677 -0.2218009382
-3.815960884 1.896750093 -0.07368226349
-3.351781368 1.658008814 0.06457211077
-3.832273245 1.897357702 0.221905604
-4.174505711 2.067702532 0.4038543105
-4.194336414 2.079349995 0.5696738958
-4.191151619 2.079593897 0.7343549728
-3.905276537 1.93859601 0.8392407298
-4.080502987 2.027354479 1.041969895
-4.112557888 2.045072079 1.219089866
-3.752209902 1.871599674 -1.111938715
-3.77497077 1.884599805 -0.9641367793
-3.65463686 1.825320482 -0.7858142853
-3.799776793 1.899469852 -0.6661495566
-3.828078508 1.915287852 -0.5204386711
-3.422856092 1.713291407 -0.3311664462
-3.826861143 1.917184591 -0.2221149504
-3.830768108 1.920813799 -0.07410112023
-3.342394829 1.667912841 0.06450229883
-3.843495607 1.919646621 0.2229523212
-4.145875454 2.071575642 0.4017626047
-4.108933449 2.054909229 0.5589494109
-4.074347496 2.039391756 0.7149570584
-3.90024209 1.953094482 0.839622438
-4.015909672 2.012771368 1.027123094
-3.941351414 1.977124214 1.169914126
-3.757733822 1.890764475 -1.115562201
-3.771850824 1.899517775 -0.9650366306
-3.662268877 1.845133185 -0.7888671756
-3.803706884 1.91805768 -0.6680268049
-3.823141575 1.929533124 -0.5206823945
-3.415076494 1.724330187 -0.3309921324
-3.841883659 1.943200588 -0.07445017248
-3.354413748 1.688562155 0.06485135108
-3.833204031 1.931254148 0.2227429897
-4.117268085 2.075274229 0.3996708393
-4.062743664 2.04956913 0.5535871387
-4.056624413 2.048258781 0.7130799294
-3.907419205 1.973778367 0.8426753283
-3.918426275 1.98105526 1.003728271
-3.906846285 1.976914406 1.161631942
-3.764891863 1.910864353 -1.119703174
-3.779096365 1.919733167 -0.9686357975
-3.652305126 1.856127858 -0.7881039977
-3.81107378 1.938488126 -0.6705297232
-3.81992197 1.944667339 -0.5211699009
-3.426789999 1.74528265 -0.3327352405
-3.669251442 1.870382786 -0.2136365175
-3.831514359 1.95478189 -0.07438036054
-3.366329432 1.70931375 0.06520039588
-3.829999685 1.946433544 0.2229523212
-4.070927143 2.069767475 0.3958359957
-4.0254879 2.048434734 0.549443543
-4.005443573 2.039994001 0.7052581906
-3.924995184 1.999885201 0.8480179906
-3.894126654 1.985868096 0.9992291927
-3.884435177 1.982635736 1.156973243
-3.761637926 1.92575562 -1.120738506
-3.78971529 1.941799521 -0.9731348157
-3.651045084 1.871551156 -0.7892487645
-3.811314344 1.955386519 -0.6717812419
-3.82547164 1.964336753 -0.5228760839
-3.411815643 1.752682805 -0.3318636715
-3.595203638 1.848476171 -0.2096589953
-3.831779957 1.9718045 -0.07451998442
-3.367461443 1.724700332 0.06534001231
-3.83740139 1.967078686 0.2237897068
-3.999854326 2.051234722 0.3895607591
-3.956501484 2.030746698 0.5409126878
-3.912200451 2.009735346 0.689927578
-3.924975395 2.017162561 0.8495445251
-3.88543725 1.99855864 0.9987792969
-3.870621204 1.992645144 1.154902697
-3.761759043 1.942420006 -1.122809052
-3.789839506 1.958595276 -0.9749345183
-3.665417194 1.895104289 -0.793828249
-3.813237429 1.973217726 -0.6733455658
-3.836218357 1.986807466 -0.525313437
-3.403908014 1.76366508 -0.3316893876
-3.828423738 1.987009406 -0.07458978891
-3.364973783 1.738280058 0.06540982425
-3.848253012 1.989634514 0.224836424
-3.955506802 2.045962334 0.385900259
-3.929997206 2.034506559 0.5382316113
-3.91042304 2.026105642 0.6908662319
-3.919653177 2.031754494 0.8499261141
-3.902654648 2.024672985 1.005077958
-3.863641262 2.006145 1.154902697
-3.770376205 1.963569999 -1.127467871
-3.789891481 1.975415349 -0.9767341018
-3.669224739 1.91333425 -0.7961179614
-3.811579704 1.989258528 -0.6742841601
-3.841575623 2.006620884 -0.5270196199
-3.404794216 1.779226422 -0.3323866129
-3.560972929 1.862423539 -0.2084029317
-3.839531898 2.008964777 -0.07493883371
-3.365979671 1.753710628 0.06554944068
-3.848718166 2.006077766 0.2252551019
-3.875794888 2.028800488 1.160596609
-3.777182102 1.983904839 -1.131608963
-3.776419878 1.984346628 -0.9749345183
-3.652098179 1.920646787 -0.793828249
-3.811954975 2.005566359 -0.6755356193
-3.833144665 2.018422365 -0.5267758965
-3.414426088 1.799460888 -0.3339554071
-3.554778099 1.874220371 -0.2084029317
-3.843107224 2.027954578 -0.07514826953
-3.374308825 1.772302032 0.06582868099
-3.845228434 2.021358967 0.2254644632
-3.958759546 2.082803965 0.3876433671
-3.905518055 2.055662632 0.5367691517
-3.898289442 2.053595781 0.6911790371
-3.916153669 2.063879728 0.8522158265
-3.890506983 2.052098989 1.005527854
-3.870397568 2.043220282 1.161114335
-3.782533407 2.002747297 -1.135232329
-3.786689043 2.006641388 -0.9794335365
-3.645708799 1.932747126 -0.793828249
-3.818890572 2.02626729 -0.6780385971
-3.827828646 2.032722235 -0.5270196199
-3.422516108 1.818251848 -0.3353499174
-3.495309591 1.858488798 -0.2052627653
-3.839535713 2.043236494 -0.07521808147
-3.384005308 1.792494059 0.06614282727
-3.841678143 2.036638975 0.2256737947
-3.946550369 2.09311986 0.3871204257
-3.901825905 2.071143627 0.5372566581
-3.868418932 2.055142879 0.6871117353
-3.914126873 2.08030057 0.8533607125
-3.878158331 2.062921286 1.004178047
-3.864947319 2.057625055 1.161631942
-3.777223825 2.016848803 -1.135750055
-3.800286293 2.030868053 -0.9848322868
-3.635477543 1.943610191 -0.7930650711
-3.829212189 2.048904181 -0.6811673045
-3.83120966 2.051694632 -0.5284820795
-3.419661045 1.832069516 -0.335698545
-3.51344347 1.883891702 -0.2067281753
-3.83942771 2.060408592 -0.0753576979
-3.402420998 1.817487121 0.06663149595
-3.845113993 2.055686712 0.2263018191
-3.944490433 2.10970211 0.3876433671
-3.899822712 2.087561369 0.5379878879
-3.878633976 2.077962399 0.6902404428
-3.903379917 2.092096806 0.8525974154
-3.881237507 2.081973314 1.006877542
-3.866251707 2.075672626 1.164220214
-3.775263548 2.032769442 -1.137302995
-3.810329199 2.053366184 -0.989331305
-3.597564697 1.939519763 -0.7861958742
-3.825513601 2.064134121 -0.6817929745
-3.84847784 2.078260899 -0.5318943858
-3.416751146 1.845888495 -0.3360471725
-3.865250587 2.089933157 -0.2280812413
-3.842764378 2.079508781 -0.07556712627
-3.406619072 1.835041881 0.06684091687
-3.851979017 2.076679707 0.2271392196
-3.935349464 2.122511625 0.3874690533
-3.913473368 2.112477779 0.5409126878
-3.892212868 2.10275507 0.6939948797
-3.908143044 2.112243652 0.8552687168
-3.889373541 2.10385251 1.010926723
-3.858982563 2.089155912 1.164220214
-3.774935484 2.049622297 -1.139373541
-3.792864561 2.061071396 -0.9866318703
-3.597671747 1.955815554 -0.7877223492
-3.818284988 2.077475309 -0.6817929745
-3.85166049 2.097377062 -0.5333568454
-3.424283504 1.865429878 -0.337441653
-3.856178999 2.102455854 -0.2279765755
-3.849524975 2.100572586 -0.07584635913
-3.419522285 1.857421398 0.06722487509
-3.855234623 2.095835447 0.2277672291
-3.936667442 2.140995026 0.3883405924
-3.90781951 2.127074957 0.5411564708
-3.895256758 2.121999502 0.695872128
-3.91453743 2.133388996 0.8583217263
-3.895691633 2.124882221 1.01452589
-3.861840725 2.108166456 1.167325974
-3.781313896 2.070208549 -1.143514633
-3.795900345 2.079917908 -0.989331305
-3.590822697 1.968361974 -0.7877223492
-3.821400642 2.096492767 -0.6836702228
-3.848165035 2.112048626 -0.5338443518
-3.424736023 1.88120842 -0.3381389081
-3.848816395 2.115903616 -0.2279765755
-3.849546671 2.11718154 -0.07598597556
-3.423540831 1.875110269 0.06743430346
-3.855269194 2.112448454 0.2281859368
-3.960615396 2.171968222 0.3914782107
-3.909072399 2.145477533 0.5423751473
-3.9124403 2.148214579 0.7002522349
-3.927713633 2.158385515 0.8629010916
-3.91253233 2.150931835 1.020824552
-3.885294676 2.1377244 1.176643491
-3.784576654 2.088336468 -1.146620393
-3.795807362 2.096261263 -0.9911310673
-3.567091465 1.970764875 -0.7839061618
-3.8351717 2.120624065 -0.6874246597
-3.844613314 2.126719713 -0.5343317389
-3.434166908 1.901240349 -0.3397077024
-3.848766327 2.132527351 -0.2283952534
-3.84600234 2.131874323 -0.07605579495
-3.422555685 1.889351964 0.06753901392
-3.855237484 2.129081964 0.2286046147
-4.009191036 2.215931654 0.3970561624
-3.940150976 2.179568052 0.5477374196
-3.924307585 2.171698332 0.7036938667
-3.941143751 2.182812929 0.8674805164
-3.898559332 2.160116673 1.019024849
-3.893389702 2.159028769 1.181302309
-3.777630568 2.100875378 -1.146620393
-3.809267521 2.120209932 -0.9965298176
-3.563621044 1.98511529 -0.7846693993
-3.838472366 2.139098167 -0.689301908
-3.84756875 2.14592886 -0.5357941985
-3.425770044 1.91224432 -0.3395333886
-3.858734608 2.15569067 -0.2294419706
-3.845520258 2.149188042 -0.07619541138
-3.472190142 1.931802511 0.06865597516
-3.861741066 2.150300264 0.2294419706
-4.193282127 2.335867882 0.4162304401
-4.182575226 2.33181715 0.5828357935
-4.192706108 2.339384079 0.7537528276
-3.943784952 2.202300072 0.8697702289
-3.919916391 2.189870119 1.026673317
-3.911122322 2.186747551 1.189066768
-3.773275614 2.11659646 -1.147655725
-3.818463087 2.143697977 -1.001028776
-3.547762871 1.993354917 -0.7827612758
-3.837494135 2.157025337 -0.6905533671
-3.856978655 2.16974926 -0.5382316113
-3.422210455 1.926742554 -0.3398820162
-3.868208647 2.179623127 -0.2304887027
-3.848069191 2.169159889 -0.07640483975
-3.459854841 1.941578984 0.06855125725
-3.860800028 2.168350935 0.2298606634
-4.198587894 2.359029055 0.4176249206
-4.218987942 2.372428894 0.5891730189
-4.201318264 2.364423513 0.7568815351
-3.940818548 2.219630718 0.8709151149
-4.137667656 2.331455469 1.086510181
-4.136980057 2.332970619 1.261018395
-3.783987284 2.140877247 -1.153349757
-3.813972712 2.159598589 -1.001928687
-3.533950329 2.001856327 -0.7812348604
-3.832999706 2.173023462 -0.6911790371
-3.856287956 2.187116623 -0.5392065048
-3.425860167 1.944577813 -0.3409278691
-3.853630543 2.189166546 -0.2300700098
-3.868290663 2.198387623 -0.07696332037
-3.46837759 1.96311295 0.06886540353
-3.870587349 2.191655636 0.2309073806
-4.200314045 2.380295992 0.4186708033
-4.215444088 2.390814304 0.5899042487
-4.199911594 2.382973909 0.7581329942
-3.924510241 2.228525877 0.8690069914
-4.149837494 2.357435226 1.091909051
-4.132169724 2.349306822 1.262053728
-3.791971207 2.162025452 -1.158008456
-3.810174942 2.174165964 -1.00282836
-3.540932894 2.021351099 -0.7842878103
-3.832633495 2.189641953 -0.6924305558
-3.852461338 2.20186305 -0.5396940112
-3.436687708 1.965819478 -0.3426710069
-3.856749535 2.207887173 -0.2306980491
-3.864450455 2.213190079 -0.07703312486
-3.489640713 1.990456223 0.0694238767
-3.866767645 2.206458807 0.231116727
-4.216619015 2.408044338 0.4211111367
-4.204045773 2.402810335 0.5894167423
-4.23314333 2.420420885 0.7656419277
-3.942658186 2.256154299 0.8747313023
-4.138614178 2.369247437 1.091009259
-4.157880783 2.382204533 1.272406459
-3.791481495 2.178436995 -1.160079002
-3.813080311 2.192617655 -1.005527854
-3.520241976 2.02586484 -0.7812348604
-3.842470646 2.212195635 -0.6955592632
-3.851631403 2.219261169 -0.5406689644
-3.436707973 1.981785893 -0.3433682323
-3.859398842 2.227325678 -0.2313260883
-3.863627911 2.230666399 -0.07717274874
-3.47781992 1.999027967 0.06931915879
-3.862504721 2.221935034 0.2313260883
-4.215517998 2.425989389 0.4218084216
-4.206375599 2.422682762 0.5908791423
-4.234937668 2.441100597 0.7675191164
-3.948363543 2.277751446 0.8777841926
-4.137070656 2.387574673 1.092808843
-4.146194458 2.394771099 1.271371245
-3.78681469 2.194256306 -1.161114335
-3.821875811 2.216355801 -1.010026813
-3.495813847 2.028897762 -0.777418673
-3.856543779 2.239159107 -0.699626565
-3.860635757 2.243336201 -0.5431063771
-3.439755917 2.000377655 -0.344414115
-3.875375032 2.255522013 -0.2327914834
-3.86233902 2.24883604 -0.07731236517
-3.491230488 2.023794889 0.06973802298
-3.871610641 2.246099472 0.2323728055
-4.216938019 2.44742322 0.4228542745
-4.228365898 2.456029415 0.5952664614
-4.225961208 2.456606865 0.7675191164
-3.951867104 2.29911828 0.8804554939
-4.13839674 2.408604383 1.095508218
-4.150743484 2.41773057 1.275512338
-3.778746843 2.208121061 -1.161114335
-3.82886672 2.239201784 -1.014075994
-3.493793726 2.044063568 -0.7785634995
-3.844902515 2.251281977 -0.6990007758
-3.869514465 2.267507076 -0.5455437303
-3.432752371 2.012372494 -0.344414115
-3.88125968 2.27712059 -0.2336288542
-3.864813328 2.268378258 -0.07752179354
-3.482063532 2.035568237 0.06970311701
-3.874091387 2.265650034 0.2330008447
-4.214817524 2.466888666 0.4235515296
-4.22961235 2.477531672 0.5967288613
-4.251447201 2.491316795 0.7737765312
-3.952285051 2.317865133 0.882363677
-4.15307045 2.437565088 1.101806879
-4.13894701 2.430248499 1.274477005
-3.782667398 2.228161097 -1.164737821
-3.821420193 2.251886368 -1.014075994
-3.500165939 2.064224005 -0.7816164494
-3.844220638 2.268034935 -0.7002522349
-3.872230291 2.286382437 -0.5470061898
-3.439428568 2.032452822 -0.3458085954
-3.873687267 2.289978981 -0.2336288542
-3.870639086 2.290001631 -0.07780103385
-3.490800619 2.056238413 0.07001725584
-3.876481771 2.285244942 0.2336288542
-4.219908237 2.489685297 0.4249460101
-4.236759663 2.50062418 0.5989225507
-4.252929211 2.5121696 0.7756536603
-3.951337814 2.334954023 0.8838900924
-4.158383369 2.459259987 1.105406165
-4.137089252 2.448616266 1.27654767
-3.790209532 2.249566793 -1.169396639
-3.816887379 2.267202854 -1.014975786
-3.493301392 2.075819969 -0.7816164494
-3.856654406 2.293556452 -0.7040067315
-3.865930796 2.300900221 -0.5472499132
-3.449789524 2.05403924 -0.3475517035
-3.655546188 2.170504093 0.07350774109
-3.873632193 2.301823378 0.2339428663
-4.218479156 2.507737875 0.4256432354
-4.226299286 2.514383316 0.5986788273
-4.24752903 2.529021263 0.7762794495
-3.963404417 2.360787868 0.8884695768
-4.153120995 2.475756407 1.106305838
-4.161697865 2.482838154 1.286900401
-3.762439966 2.250882149 -1.163184881
-3.825670481 2.29052186 -1.019474864
-3.4792974 2.083966494 -0.7800899744
-3.858790874 2.313098907 -0.7058839202
-3.862982988 2.317444801 -0.547981143
-3.459681749 2.076321363 -0.3492948413
-3.869983435 2.326239347 -0.07811518013
-3.754330873 2.246920586 0.07567184418
-4.150001526 2.485692501 0.2513183951
-4.237045288 2.538832903 0.4284322262
-4.226008415 2.534224987 0.5998975039
-4.228512764 2.537733793 0.7744022012
-3.965238333 2.380671501 0.8907591701
-4.137772083 2.486223698 1.104506254
-4.159627438 2.501332045 1.288970947
-3.719818354 2.243052483 -1.152314544
-3.815982342 2.302856207 -1.019024849
-3.4619174 2.090010405 -0.777800262
-3.838857889 2.319403648 -0.7036938667
-3.848075628 2.326805592 -0.5470061898
-3.450708151 2.087354183 -0.3491205275
-3.861453772 2.337659359 -0.2343615443
-3.83789587 2.325227261 -0.07762651145
-3.582087278 2.160851955 0.07232097536
-4.17378664 2.519776344 0.2533071637
-4.221335888 2.549486637 0.4277350008
-4.240921021 2.563337088 0.6033098102
-4.236530304 2.562702656 0.7775309086
-3.973700285 2.404662609 0.8945753574
-4.152404785 2.51478529 1.110804915
-4.154173851 2.517840385 1.290006161
-3.728475094 2.266056299 -1.157490849
-3.806255579 2.315150023 -1.018574953
-3.457955837 2.104122639 -0.7785634995
-3.815553665 2.323542833 -0.7008780241
-3.822978258 2.329893827 -0.5445687771
-3.45871067 2.108721018 -0.350689292
-3.837926626 2.341760874 -0.2334195226
-3.819515944 2.332355976 -0.07741708308
-3.51301074 2.135943174 0.07106439769
-4.182027817 2.54471159 0.2543538809
-4.205603123 2.560063601 0.4270377755
