# .PCD v0.7 - Point Cloud Data file format
VERSION 0.7
FIELDS x y z
SIZE 4 4 4
TYPE F F F
COUNT 1 1 1
WIDTH 1262
HEIGHT 1
VIEWPOINT 0 0 0 1 0 0 0
POINTS 1262
DATA ascii
-3.707259655 3.947828531 -0.470092684
-3.722996235 3.967361927 -0.2829293311
-3.919678688 4.178417206 -0.09930240363
-3.898181677 4.140991688 0.09856939316
-3.987224817 4.237060547 0.3027123213
-3.525752783 3.749296427 0.4465606511
-4.61828804 4.914537907 0.8229183555
-4.170433521 4.439507008 0.9580563307
-4.557512283 4.85495472 1.286115527
-4.54791069 4.848118782 1.524714828
-4.510804653 4.810243607 1.755362868
-2.061705589 2.20472908 -0.7972147465
-3.49626708 3.742734194 -0.9873085618
-3.907684565 4.187547207 -0.6981242299
-3.686661482 3.953460455 -0.4692211151
-3.693476915 3.962154627 -0.2816732526
-3.900980949 4.187683582 -0.09919768572
-3.821599722 4.086709499 0.09696377069
-3.842861652 4.112322807 0.2927684784
-3.561598063 3.814002752 0.4528358579
-4.589774132 4.91676569 0.8207247853
-4.17377615 4.4742589 0.9624364376
-4.552098751 4.881527901 1.289168477
-4.541110039 4.873150826 1.527864218
-4.51241827 4.845753193 1.762609839
-2.046494246 2.203061342 -0.7941089272
-2.56160593 2.759511471 -0.8593096733
-3.50653863 3.778772593 -0.9937961698
-3.760218859 4.054983139 -0.8692014813
-3.880901098 4.188056469 -0.6959305406
-3.66405344 3.955432892 -0.4680009484
-3.666056871 3.960365534 -0.2806265354
-3.872760296 4.18659544 -0.09884864092
-3.761047363 4.050201893 0.09577701241
-4.003736973 4.314571381 0.3062711358
-4.592270851 4.950526714 0.5870557427
-4.552340031 4.910920143 0.817068696
-4.182294846 4.514886856 0.9680681229
-4.54170084 4.90459013 1.291076541
-4.513482094 4.877531052 1.524265051
-4.495476723 4.861474037 1.762609839
-2.040102005 2.211611032 -0.794626534
-2.55195713 2.768436909 -0.8593096733
-3.477363348 3.773663759 -0.9892166853
-3.788859844 4.114585876 -0.8792133331
-3.850128174 4.184049129 -0.693005681
-3.648874998 3.966732502 -0.4678266346
-3.644100428 3.96431613 -0.2799985111
-3.841890335 4.182415009 -0.09842977673
-3.746886492 4.063305855 0.09577701241
-3.996773481 4.337332249 0.3068991899
-4.565513134 4.956268787 0.5858355761
-4.520382404 4.910714149 0.8143875599
-4.187906265 4.552719593 0.9730739594
-4.509935856 4.90451622 1.286878705
-4.47796917 4.873167992 1.51796639
-4.465411663 4.862908363 1.757433414
-2.024539948 2.2101717 -0.7915207148
-2.54227829 2.777327538 -0.8593096733
-3.489351034 3.813298941 -0.9964674115
-3.746481657 4.097171783 -0.8726431131
-3.830142498 4.19160223 -0.6920307279
-3.616194963 3.958849669 -0.4653863013
-3.623506546 3.969637632 -0.2794751525
-3.814519644 4.180361748 -0.09808073193
-3.743483782 4.088159084 0.09605624527
-4.010688305 4.381500721 0.3090973198
-4.496516705 4.919137955 0.8131688237
-4.188776016 4.584081173 0.9768284559
-4.487493038 4.914430141 1.285352349
-4.450422764 4.877253056 1.514367104
-4.427129745 4.853424549 1.748633623
-2.009013176 2.208650589 -0.7884148359
-2.533054352 2.78574276 -0.8593096733
-3.507705212 3.860327482 -1.005626321
-3.727561474 4.10372448 -0.871391654
-3.813553572 4.201339722 -0.6915432215
-3.586290836 3.953739643 -0.4632945359
-3.607640266 3.978671789 -0.2792657912
-3.79587698 4.18920517 -0.09797601402
-3.721832752 4.091674328 0.0958468169
-4.0168643 4.419121265 0.3107720613
-3.650672436 4.019075871 0.4713128805
-4.437476635 4.886993408 0.8053691983
-4.209918022 4.63963604 0.985588789
-4.40917778 4.860939026 1.267416239
-4.393653393 4.847225189 1.500420213
-4.372549534 4.827327728 1.733622074
-2.004268408 2.218167543 -0.7894501686
-2.54159832 2.814816952 -0.8656082749
-3.525139809 3.905458212 -1.014403462
-3.681460381 4.081506729 -0.8638827205
-3.790890932 4.205779076 -0.6900808215
-3.582495689 3.975971699 -0.4645147026
-3.575019121 3.970461845 -0.277800411
-3.778555632 4.199456692 -0.09790620208
-3.715570688 4.113544464 0.09605624527
-4.02684021 4.461285591 0.3127608001
-3.627981424 4.020805359 0.470092684
-4.433683872 4.917196274 0.8078066111
-4.273034573 4.74235487 1.004360914
-4.400066376 4.885052681 1.269705892
-4.397567272 4.885706425 1.507618666
-4.373758793 4.862669468 1.740868926
-2.001674175 2.23090148 -0.7915207148
-2.544766665 2.838181019 -0.8701072931
-3.552107573 3.963059425 -1.026233673
-3.590750456 4.008988857 -0.8457363844
-3.755004168 4.195320129 -0.6861810088
-3.580551386 4.001816273 -0.4660835266
-3.575782537 3.999294043 -0.2789517939
-3.751881599 4.199201107 -0.09759206325
-3.695847273 4.120535851 0.09591662884
-4.053901672 4.52290678 0.3161103129
-4.395307541 4.908979893 0.8039067984
-4.315726757 4.823487759 1.018440008
-4.381677628 4.898920536 1.269324303
-4.362305164 4.880685329 1.501320004
-4.34517765 4.864939213 1.736210346
-1.992589593 2.236432552 -0.7910030484
-2.537436247 2.849957228 -0.8710071445
-3.570882559 4.012098312 -1.035774112
-3.578047991 4.022973537 -0.8460492492
-3.732424736 4.199499607 -0.6847185493
-3.584383011 4.035768032 -0.4685238898
-3.57903862 4.031167507 -0.2803125083
-3.588563681 4.044738293 -0.09368272871
-3.68410182 4.136398315 0.09598644078
-4.059333801 4.560901642 0.3177850842
-4.42092514 4.96891737 0.5781658292
-4.387376785 4.934677601 0.8056129813
-4.336913109 4.881347179 1.027513146
-4.359336853 4.908312798 1.267797828
-4.338774681 4.888594151 1.499070525
-4.333296299 4.885858536 1.738280773
-1.980539799 2.239379644 -0.7894501686
-2.535217047 2.86755681 -0.8737065196
-3.589951038 4.063412189 -1.045696139
-3.601191998 4.079006672 -0.855122447
-3.71117568 4.205060005 -0.6834998727
-3.576862812 4.055727005 -0.4693954587
-3.584048033 4.066734791 -0.2818826139
-3.56120348 4.042235851 -0.09333367646
-3.677589655 4.158219337 0.0961958617
-4.069840908 4.604974747 0.3198785186
-4.394771576 4.976126671 0.5771200061
-4.371438026 4.951450825 0.8058567047
-4.336835861 4.915714264 1.031580448
-4.35040617 4.934566498 1.270469189
-4.315673828 4.898616314 1.497270942
-4.295785904 4.877758503 1.729998589
-1.958688259 2.230312109 -0.7837561369
-3.663559198 4.174546719 -1.272319794
-3.61458683 4.120193958 -1.057144761
-3.616883039 4.125715256 -0.8623183966
-3.689197063 4.211168766 -0.6822811961
-3.573184729 4.080178738 -0.4707899392
-3.590875149 4.103268147 -0.2835573256
-3.557605028 4.066682339 -0.09361291677
-3.659684658 4.168666363 0.09612605721
-4.073503971 4.64166975 0.3214485943
-4.340590477 4.949494839 0.5722392201
-4.341486931 4.95400238 0.8036630154
-4.264617443 4.871430397 1.250243425
-4.245940685 4.853516102 1.478824854
-4.215147018 4.820013046 1.704116702
-1.96358788 2.251695633 -0.7889325023
-3.636890173 4.171982765 -1.267820835
-3.650474787 4.190520287 -1.072027802
-3.644693136 4.185358047 -0.8723301888
-3.669999361 4.217389584 -0.6813062429
-3.582454681 4.119688034 -0.4739275575
-3.591662169 4.131734848 -0.2847087383
-3.565682411 4.104739189 -0.09420629591
-3.643212795 4.177763939 0.09605624527
-4.076958656 4.67844677 0.3230186701
-4.312819481 4.952596188 0.5708447695
-4.283326626 4.920459747 0.7958634496
-4.237587452 4.871351719 1.01593709
-4.235557079 4.870731354 1.246427298
-4.229822159 4.867569923 1.478824854
-4.197029591 4.833239079 1.703599095
-1.958639741 2.261115313 -0.7899677753
-3.609550714 4.169918537 -1.263321757
-3.6262815 4.190724373 -1.068974853
-3.627477884 4.195065498 -0.8717044592
-3.644872189 4.218158722 -0.679356277
-3.602634907 4.17074728 -0.4784596264
-3.587657928 4.15634203 -0.285546124
-3.572229385 4.14138937 -0.09476476908
-3.631225824 4.193479538 0.09612605721
-4.14947176 4.795351505 0.3301363587
-4.297675133 4.96837759 0.5710190535
-4.258336067 4.926370621 0.79440099
-4.242509842 4.911526203 1.021255851
-4.249321461 4.921150208 1.255586028
-4.230628967 4.902960777 1.485123515
-4.212932587 4.885899067 1.717057586
-1.946955919 2.263544798 -0.7884148359
-3.584810734 4.170670509 -1.259722471
-3.603954792 4.194423199 -1.0666852
-3.610238314 4.204705238 -0.8710787296
-3.619785786 4.218802929 -0.6774064302
-3.60751152 4.205982685 -0.4810743034
-3.600423813 4.200685024 -0.2877442241
-3.570760489 4.169020176 -0.09511382133
-3.626995325 4.218259335 0.09640529752
-4.15613699 4.83707428 0.3320204318
-4.293289185 4.998462677 0.5727621913
-4.254042625 4.956268311 0.7968384027
-4.204613686 4.907338142 1.481974125
-4.19082737 4.894704819 1.71498704
-1.932768941 2.262982607 -0.785826683
-3.563906193 4.175746441 -1.257473111
-3.573999166 4.18905592 -1.062105775
-3.582724333 4.202248573 -0.8679500222
-3.588302374 4.21176815 -0.6742377877
-3.597974062 4.224617958 -0.4817715585
-3.602567673 4.232999802 -0.2891049683
-3.582095146 4.211925983 -0.09581191838
-3.609652758 4.227852345 0.09633549303
-4.162559509 4.878902912 0.3339045644
-4.259008408 4.993710041 0.5704961419
-4.240577698 4.975621223 0.7975695729
-4.218363285 4.953057289 1.023758769
-4.213589191 4.949201584 1.255204439
-4.192508221 4.927923679 1.483773828
-4.167461395 4.90194416 1.712399006
-1.913612843 2.256454706 -0.781167984
-3.568205595 4.210462093 -1.264221549
-3.601233482 4.250938892 -1.074699163
-3.574414492 4.222268105 -0.8695144057
-3.592808723 4.247001648 -0.677893877
-3.587066174 4.241714478 -0.4822944999
-3.601949453 4.262330532 -0.2902563512
-3.588014841 4.248848438 -0.09637039155
-3.587113142 4.231275082 0.09612605721
-4.173906326 4.92692852 0.3362073302
-4.237687111 5.003986359 0.5699731708
-4.212925911 4.978270054 0.7956196666
-4.192120552 4.957192421 1.021568775
-4.202626228 4.971374989 1.257112503
-4.176539898 4.94401598 1.484223723
-4.147830486 4.913509846 1.711363673
-1.910702467 2.269031048 -0.7832384706
-2.226005077 2.645338297 -0.7882251143
-2.241699219 2.664932489 -0.6686575413
-3.605804443 4.283545494 0.09703358263
-4.188765049 4.988435268 1.025010228
-4.206706047 5.011577129 1.263600111
-4.191816807 4.997385025 1.495921135
-4.164159775 4.967933655 1.72533977
-1.905248046 2.278651476 -0.7842737436
-2.205511332 2.639633894 -0.784175992
-2.227348089 2.666714668 -0.6671310663
-4.213069916 5.053095341 1.035334945
-4.209296703 5.050361633 1.269705892
-4.188066483 5.028457165 1.500870109
-4.169038773 5.009165764 1.734657407
-1.897283077 2.285287857 -0.7842737436
-2.190063 2.639817238 -0.7819264531
-2.216773272 2.672961712 -0.6667494774
-3.270275593 3.947468042 -0.6242713332
-3.217086315 3.88326478 0.6140343547
-4.197550774 5.068558693 1.03564775
-4.20040226 5.075612545 1.272377372
-4.170127392 5.040815353 1.500420213
-4.161020279 5.033387184 1.738280773
-1.886007786 2.287095308 -0.7827208638
-2.181296349 2.647065639 -0.7819264531
-2.191670418 2.660598278 -0.661788404
-2.303114176 2.797878504 -0.5672829747
-3.224373579 3.918436766 -0.6179341674
-3.204192162 3.893910885 0.6140343547
-4.169424534 5.068722248 1.032832026
-4.187288761 5.094062805 1.273522139
-4.155861378 5.057628632 1.501320004
-4.143080711 5.04566431 1.737763286
-1.871067762 2.284370184 -0.7796150446
-2.18114686 2.664839983 -0.7850757837
-2.181126118 2.666713238 -0.6614068151
-2.29007268 2.80091238 -0.5663443804
-3.180531263 3.892774582 -0.6120843887
-3.157496691 3.860454321 0.4326156974
-4.144209385 5.074064732 1.030954838
-4.164517403 5.102563381 1.271995664
-4.135719299 5.069083691 1.500420213
-4.112015724 5.043624401 1.732069135
-1.8651191 2.294211149 -0.7806503177
-2.150476933 2.647103071 -0.7774274349
-2.172575474 2.676213503 -0.661788404
-2.252406359 2.775542736 -0.559461236
-3.103726149 3.827313185 -0.5998975039
-3.176927567 3.916187048 0.6140343547
-4.123095036 5.0861516 1.030328989
-4.124778271 5.091859818 1.265508175
-4.109752178 5.075122356 1.497720718
-4.084994316 5.048150539 1.728445649
-1.861551166 2.307045221 -0.7827208638
-2.127304316 2.638280392 -0.7724785209
-2.157059669 2.676138878 -0.6598803401
-3.090346575 3.838124752 -0.5998975039
-3.168797493 3.928535938 0.08739985526
-4.100362778 5.094357014 1.02907753
-4.100827694 5.098577499 1.263600111
-4.079802513 5.074248791 1.49322176
-4.062509537 5.056354046 1.726375103
-1.853890896 2.313205481 -0.7827208638
-2.12219882 2.64988327 -0.7738282084
-2.139585018 2.672548294 -0.6572089791
-2.260122776 2.825134993 -0.5663443804
-3.053902626 3.81325531 0.2538305223
-4.069877148 5.090955257 1.025636077
-4.076546669 5.102943897 1.261310339
-4.048358917 5.069478035 1.48782289
-4.03608036 5.057716846 1.722234011
-1.84019351 2.311783552 -0.7801327109
-2.108546495 2.650806427 -0.772028625
-2.114361525 2.660021782 -0.6522479653
-3.06414938 3.859071255 -0.5998975039
-4.04102993 5.091204643 1.022820234
-4.050168037 5.106376648 1.258639097
-4.023375511 5.074415684 1.485123515
-4.005203247 5.055119991 1.716539979
-1.829312205 2.315481424 -0.7790973783
-2.097609758 2.656986713 -0.7715787292
-2.110678196 2.675459862 -0.6541560888
-3.026535749 3.835012436 0.2538305223
-4.016231537 5.098222256 1.021255851
-4.021710873 5.108844757 1.255586028
-3.99751997 5.079938889 1.48242414
-3.969931841 5.048504829 1.709293127
-1.822005749 2.323690414 -0.7796150446
-2.081846952 2.656987906 -0.7693291903
-2.103746653 2.685902834 -0.6549192667
-3.036456347 3.880898952 -0.5998975039
-3.01313138 3.845552921 0.2538305223
-3.995975971 5.109099388 1.020630121
-3.992970943 5.108931065 1.252151489
-3.977362394 5.090791225 1.481524229
-3.949905872 5.059287548 1.708257794
-1.810729623 2.325146675 -0.7780621052
-2.057466745 2.643883467 -0.7634804845
-2.090007067 2.686665535 -0.6533927917
-3.023570538 3.890946388 -0.5998975039
-3.971741676 5.112961769 1.018752933
-3.968785524 5.112838745 1.249861836
-3.944929123 5.083937168 1.475675583
-3.924821615 5.061670303 1.704634309
-1.807736397 2.337251425 -0.7801327109
-2.057030439 2.661484241 -0.7666297555
-2.06908226 2.678046227 -0.6495766044
-3.009969234 3.901477575 -0.5998975039
-3.941804886 5.111153126 1.015624166
-3.947012424 5.119752884 1.248335361
-3.915264845 5.082239628 1.471176505
-3.900057077 5.066156387 1.70152843
-1.797981858 2.342328548 -0.7796150446
-2.03823638 2.656280756 -0.7630305886
-2.047307491 2.670031548 -0.645760417
-2.996333122 3.911960125 -0.5998975039
-2.949061871 3.844681025 0.251737088
-3.917936087 5.11703825 1.014059782
-3.923450708 5.127947807 1.246808887
-3.894244909 5.093459129 1.470276833
-3.874138355 5.068994045 1.697905064
-1.780427575 2.336297989 -0.7754738927
-2.028487682 2.663733006 -0.7630305886
-2.037974119 2.67716217 -0.645760417
-3.042038441 4.001934052 -0.6120843887
-3.889595032 5.118780613 1.011556864
-3.893650055 5.125978947 1.24299264
-3.86937356 5.097707272 1.467577338
-3.840355396 5.063150883 1.691175699
-2.01330018 2.663025618 -0.7607811093
-2.03098464 2.687391996 -0.6465236545
-2.875590086 3.807733774 -0.7490598559
-3.011310816 3.990344286 -0.6086720824
-3.870512486 5.130750656 1.011244059
-3.863914013 5.12386322 1.239176512
-3.849208832 5.10807085 1.466677547
-3.816849232 5.068808556 1.688587546
-1.728107691 2.30078578 -0.7594271302
-2.000482082 2.665361881 -0.7594313622
-2.019235611 2.691323757 -0.645760417
-2.86228013 3.817748785 -0.7490598559
-3.028310299 4.042137146 -0.6150093079
-3.845473289 5.134744644 1.00936687
-3.843652964 5.134175777 1.238413334
-3.819680214 5.105872631 1.462178469
-3.795661211 5.077459812 1.687034726
-1.724684477 2.312999249 -0.761497736
-1.990002275 2.670765638 -0.7589814663
-2.006309748 2.693632841 -0.6446155906
-2.806477785 3.77066946 -0.7377966046
-2.940731049 3.953927517 -0.5998975039
-3.814562321 5.13069725 1.005925179
-3.817508221 5.13653183 1.235741973
-3.787892342 5.100399971 1.456779599
-3.777915478 5.090677738 1.687034726
-1.70625627 2.305030584 -0.7568389177
-1.97023809 2.6635952 -0.754932344
-2.015571594 2.725876808 -0.6507214904
-2.835559368 3.837637186 -0.7490598559
-3.789314985 5.132194042 1.003735185
-3.803050518 5.154566765 1.23688674
-3.765440941 5.107316494 1.454980016
-3.751842976 5.090737343 1.682893515
-1.687904716 2.296961546 -0.7521802187
-1.966008425 2.676396608 -0.7567319274
-2.104789734 2.867421627 -0.6831590533
-3.767872572 5.140611172 1.002796531
-3.768532515 5.143393993 1.231162548
-3.748482227 5.119776249 1.454980016
-3.721503258 5.086651802 1.677199483
-1.684832811 2.308788776 -0.7542507648
-1.942876339 2.664347649 -0.7513331175
-2.138059139 2.933085203 -0.6972788572
-2.704697371 3.713146687 -0.7209016085
-3.742933512 5.144147873 1.000919342
-3.737854004 5.139051437 1.226964712
-3.723714828 5.123370647 1.452280641
-3.701455355 5.096484184 1.67616415
-1.685423374 2.327466249 -0.7583918571
-1.932422042 2.669534445 -0.7508832216
-2.145704031 2.966353893 -0.703384757
-2.704954863 3.742247105 -0.7246560454
-2.704570532 3.743090868 -0.5618742704
-2.7316854 3.783398628 -0.4045515656
-2.718476772 3.769260883 -0.0804188922
-2.721485853 3.763729572 0.4026341438
-3.722641945 5.153977871 1.000293612
-3.71209836 5.143167019 1.224675059
-3.695791245 5.124341011 1.448681474
-3.674603462 5.096838474 1.672023177
-1.676161528 2.331766367 -0.7578741908
-1.92376101 2.678182364 -0.7513331175
-2.142207623 2.983393669 -0.7056744695
-2.78170085 3.876853704 -0.7490598559
-2.693223715 3.748016834 0.07986041903
-2.674716234 3.725003719 0.238129735
-2.699036121 3.760258675 0.4012396634
-2.652151346 3.697663307 0.5535871387
-3.692218065 5.151533127 0.9971649647
-3.691836834 5.152900696 1.223911762
-3.666538239 5.121364594 1.444182396
-3.655898809 5.110270977 1.672023177
-1.664237738 2.333176374 -0.7563213706
-1.915532589 2.686467409 -0.7517830133
-2.128979206 2.988027811 -0.704911232
-2.788096428 3.915987968 -0.7546914816
-3.009220362 4.228130817 -0.6320709586
-2.919320107 4.104847908 -0.4369735122
-3.35529232 4.721355915 -0.301351577
-3.295963526 4.639586926 -0.0986392051
-3.318644762 4.659442425 0.4967623055
-3.659327745 5.143464565 0.9930976629
-3.668374538 5.15999794 1.222385406
-3.6432271 5.128415108 1.442382812
-3.620140553 5.097800732 1.663740873
-1.65913403 2.341545582 -0.7573565841
-1.896477938 2.678491592 -0.747733891
-2.115045547 2.988291264 -0.703384757
-2.80315423 3.963434935 -0.7622002959
-2.99976635 4.244570255 -0.6330459118
-2.909859419 4.118880272 -0.4374964535
-3.354266644 4.751452923 -0.3026076555
-3.139932871 4.451137543 -0.09438081831
-3.356520414 4.738829613 0.1006636843
-3.323145628 4.695183754 0.2992581427
-3.322401047 4.695869446 0.499551326
-3.634271145 5.144278526 0.9909075499
-3.643086433 5.158666611 1.219332337
-3.62260437 5.13346529 1.44058311
-3.598763943 5.103462219 1.661670446
-1.694294572 2.408948421 -0.7775444984
-1.882635236 2.678717375 -0.7459343076
-2.10234499 2.992442608 -0.7026215196
-2.773413181 3.950560808 -0.7578201294
-2.98721242 4.258265018 -0.6335334182
-2.897753 4.132274628 -0.4378450811
-3.32848978 4.750047684 -0.3017702699
-3.300855398 4.694897652 0.09947691858
-3.396292925 4.834227085 0.3074225485
-3.380419731 4.813418865 0.5108816028
-3.60948801 5.147227764 0.9890303612
-3.614913702 5.15688467 1.215897918
-3.602428436 5.142886639 1.439683437
-3.569848061 5.100167274 1.656494021
-1.849541306 2.649284363 -0.8541549444
-1.86100769 2.667692184 -0.7409853935
-2.091885567 2.999763489 -0.7026215196
-2.74831152 3.94401145 -0.7546914816
-2.973463535 4.270296097 -0.6337771416
-2.893553734 4.157082081 -0.4394138455
-3.373683929 4.837861538 0.3068991899
-3.385243654 4.856244564 0.5141935349
-3.59149766 5.159796715 0.9890303612
-3.59128499 5.161412716 1.213989735
-3.573328495 5.139431 1.43518436
-3.552024364 5.112596512 1.656494021
-1.851285934 2.671602488 -0.8593313098
-1.855013251 2.678978205 -0.7423350811
-2.076932907 3.000589609 -0.7010950446
-2.743516207 3.96657896 -0.7571944594
-2.950639486 4.269217968 -0.6320709586
-2.881289244 4.170436382 -0.4397625029
-3.377028704 4.895278931 -0.1031070277
-3.405655861 4.920223713 0.3114000857
-3.366005182 4.864753723 0.5138449073
-3.562235117 5.156051636 0.9859016538
-3.575479031 5.177147865 1.214753032
-3.542083263 5.13262701 1.42978549
-3.529770851 5.118601799 1.654423475
-1.833190203 2.665315151 -0.8551902175
-1.848961115 2.690255404 -0.7436847687
-2.057551622 2.994876385 -0.6980421543
-2.917752981 4.253299713 -0.6281711459
-2.846432924 4.150891304 -0.4366248548
-2.74569726 4.006988525 -0.2523651123
-3.421192408 4.981585503 0.5250008702
-3.534161806 5.153791428 0.9830858111
-3.54628396 5.173404694 1.210936785
-3.52414608 5.14495945 1.42978549
-3.503151655 5.118139267 1.650282264
-1.830411196 2.681270838 -0.8582960367
-1.852737665 2.716011047 -0.7490836382
-2.042661428 2.995551825 -0.6965156198
-2.750299215 4.030275822 0.08446785063
-3.509482384 5.156297207 0.9812085629
-3.521578789 5.176012039 1.208647132
-3.499592781 5.147559166 1.427086115
-3.477666616 5.119149685 1.646658897
-1.838379264 2.713232279 -0.8665782213
-1.845431328 2.725688696 -0.7499834299
-2.029992342 2.999411583 -0.6957524419
-2.673057318 3.95254612 -0.7490598559
-2.759053946 4.082776546 -0.5998975039
-3.489249468 5.165244102 0.9805828929
-3.490303993 5.168749332 1.204067707
-3.477241755 5.153283119 1.425286531
-3.45437479 5.123250484 1.644070745
-1.837520599 2.732458115 -0.8707193136
-1.845687032 2.746671677 -0.7540324926
-2.017320156 3.003220558 -0.6949892044
-2.714289427 4.043860435 -0.7647032738
-2.744786501 4.092381954 -0.5998975039
-2.69629693 4.021603107 -0.41989097
-2.694693804 4.022246361 -0.2515277267
-2.705417633 4.041303158 -0.08418861777
-2.693089724 4.006228924 0.08356032521
-2.692924023 4.009004116 0.2508997321
-2.706878185 4.031298161 0.4211111367
-2.670290947 3.979809999 0.5833232403
-3.467899084 5.172469616 0.9796442986
-3.47005558 5.177639008 1.203304529
-3.450558662 5.152435303 1.421687365
-3.433248043 5.130459309 1.642517805
-1.84513104 2.764564753 -0.8790015578
-1.853388786 2.779037237 -0.7612309456
-1.992666602 2.989008665 -0.690028131
-2.696846962 4.042220592 0.08411879838
-2.701778889 4.051144123 0.2529931664
-3.443066359 5.172429562 0.9774541855
-3.449784994 5.186451912 1.202541232
-3.423921108 5.151465893 1.418088078
-3.414076328 5.138598919 1.641482472
-1.826934338 2.758104324 -0.8748604655
-1.889348507 2.853411913 -0.7801268697
-1.957305312 2.958287477 -0.6812509298
-3.410834074 5.16299057 0.9733868837
-3.431486368 5.196224213 1.202159643
-3.404673815 5.159538269 1.417188287
-3.384421825 5.132743835 1.63578856
-1.520565271 2.312199116 -0.7299218178
-1.864394665 2.837188959 -0.7738282084
-1.89035809 2.877793789 -0.6610251665
-3.393872499 5.17651844 0.9736997485
-3.403642893 5.193391323 1.198724985
-3.382370949 5.164871216 1.415388584
-3.358022928 5.131593704 1.631647348
-1.505093336 2.306168556 -0.7262982726
-1.868317366 2.864900112 -0.7796769738
-1.891021729 2.900821686 -0.6648413539
-3.370397091 5.180054188 0.9721354246
-3.372647524 5.185492039 1.19414556
-3.360074997 5.170109272 1.413589001
-3.342193127 5.146525383 1.632682681
-1.498084903 2.313029528 -0.7268159389
-1.547021508 2.39041543 -0.6474057436
-1.891548872 2.923888445 -0.6686575413
-3.353202105 5.191202164 0.9721354246
-3.350268602 5.190634727 1.192619085
-3.331446409 5.165429592 1.409090042
-3.320922375 5.1510849 1.630612135
-1.491046786 2.319869518 -0.7273336053
-1.518018126 2.362742424 -0.6384077072
-1.888756156 2.942037582 -0.6713288426
-3.324398994 5.186244965 0.9690066576
-3.330917358 5.198410988 1.191855907
-3.305891514 5.163320065 1.405490875
-3.294590712 5.149627686 1.626470923
-1.476071119 2.313401461 -0.7237101197
-1.499285698 2.351594687 -0.633908689
-1.890595317 2.966497183 -0.6755266786
-3.297794819 5.184483051 0.9665037394
-3.311698914 5.208348751 1.191474319
-3.285758734 5.171537876 1.404590964
-3.268312931 5.148048401 1.62232995
-1.464482188 2.313899279 -0.7221571803
-1.486900926 2.350226164 -0.6321091056
-3.272298098 5.184268951 0.9643136859
-3.283159971 5.205507755 1.18803966
-3.262624502 5.176952839 1.402791381
-3.242083788 5.146349907 1.618188739
-1.457424164 2.320632935 -0.7226748466
-1.476204515 2.352359295 -0.6312092543
-3.253273487 5.196228981 0.9643136859
-3.254555225 5.200294018 1.184223533
-3.242468357 5.185004234 1.401891589
-3.219105721 5.151644707 1.616118193
-1.44931531 2.325705767 -0.7226748466
-1.465924621 2.354189157 -0.6303094625
-3.231989622 5.20251894 0.9633750916
-3.234312773 5.208286285 1.183460355
-3.216130972 5.18304348 1.398292422
-3.199066401 5.159566879 1.61508286
-1.44118762 2.330751181 -0.7226748466
-1.459745884 2.362607718 -0.6312092543
-3.204349756 5.19639492 0.9602463841
-3.213021517 5.214530945 1.182315469
-3.189843893 5.180963516 1.394693136
-3.175864935 5.160275459 1.6119771
-1.4320333 2.33412075 -0.7221571803
-1.453941464 2.370757818 -0.6321091056
-3.176913738 5.192382336 0.9574305415
-3.200834513 5.233530521 1.184223533
-3.166549921 5.181535721 1.391993761
-3.149776936 5.158140182 1.607836008
-1.419261694 2.330606461 -0.7195689678
-1.460851312 2.400790453 -0.6388576031
-3.156718254 5.200064182 0.9568048716
-3.17032361 5.224531651 1.179644108
-3.142380238 5.182559967 1.389294386
-3.121742964 5.152580261 1.602659583
-1.419698 2.350675821 -0.7242277861
-1.455484033 2.410879612 -0.6402073503
-3.136510372 5.207666874 0.9561790824
-3.141031504 5.219294548 1.17582798
-3.127382278 5.200722218 1.391093969
-3.101748705 5.160133839 1.60162437
-1.423399925 2.375502348 -0.7304394245
-3.114361763 5.214040279 0.9552404881
-3.118768692 5.223483086 1.174301386
-3.099223614 5.194872379 1.386595011
-3.082813978 5.171468735 1.60162437
-1.442315459 2.427205324 -0.7449332476
-2.776534319 4.681797981 -0.8554352522
-3.090101242 5.214682579 0.9533632398
-3.096600294 5.229811668 1.1731565
-3.068256378 5.186069489 1.381196141
-3.05884409 5.17222023 1.59851861
-1.532848716 2.598109722 -0.7966970801
-2.775845051 4.714327812 -0.8598154187
-3.061777592 5.206170559 0.9499217272
-3.07120204 5.224281788 1.16972208
-3.051947117 5.195684433 1.381196141
-3.035806656 5.172339916 1.595412731
-1.531576395 2.616783142 -0.8008381724
-3.042588949 5.215121269 0.9496088624
-3.049978495 5.229883194 1.168577194
-3.033793211 5.206305027 1.381196141
-3.009958029 5.169548512 1.59127152
-1.497212768 2.578675508 -0.7873796225
-3.022388458 5.222289562 0.9489831328
-3.024821281 5.228603363 1.165905833
-3.009748459 5.206741333 1.378496647
-2.989963531 5.176677704 1.590236306
-1.34261179 2.331106186 -0.7092162371
-3.00217247 5.229382515 0.9483573437
-3.001666546 5.230615139 1.163997769
-2.985740423 5.207071781 1.375797391
-2.96995306 5.183731079 1.589200974
-1.326800346 2.322359085 -0.7050751448
-1.322722077 2.317098141 -0.6060147285
-2.976081371 5.226097107 0.9458544254
-2.982419968 5.23935461 1.16361618
-2.959839582 5.203910351 1.372198105
-2.949929953 5.190708637 1.58816576
-1.341545343 2.367313623 -0.7174984813
-1.323266983 2.336963415 -0.6100638509
-2.824636936 4.998634338 -0.6998303533
-2.833996534 5.017241955 -0.5004229546
-2.84888196 5.047708035 -0.3015609384
-2.809287071 4.98161459 -0.09912787378
-2.832592726 5.00659132 0.499551326
-2.850908756 5.04307127 0.7061675787
-2.94907546 5.220974922 0.9430385828
-2.961215973 5.244605064 1.162471294
-2.937824965 5.207422256 1.370398521
-2.926102161 5.190876007 1.58506
-1.339899182 2.383770704 -0.7211219072
-1.315101981 2.341567993 -0.6100638509
-2.89588213 5.162510872 -0.9308366776
-2.811254501 5.003455162 0.09947691858
-2.817867756 5.019327164 0.299467504
-2.914841413 5.198435307 0.7266415954
-2.932765007 5.234683037 0.943664372
-2.938095331 5.24634409 1.160563111
-2.919630766 5.217644691 1.370398521
-2.898538351 5.184195995 1.579883575
-1.347561479 2.417118549 -0.7299218178
-1.304075837 2.341036797 -0.6087141633
-1.297776699 2.330688 -0.5102860332
-2.935469151 5.276159286 -0.9496088624
-2.945922136 5.299306393 -0.7393160462
-2.911162615 5.238925457 -0.5206430554
-2.934761524 5.28574419 -0.3146449029
-2.930623531 5.282636166 -0.1047475487
-2.897492647 5.203630924 0.3099346757
-2.933227062 5.269970417 0.5239549875
-2.902465343 5.218988419 0.7281040549
-2.905840635 5.229347706 0.9408485293
-2.902603626 5.225676537 1.153694034
-2.893833399 5.214173794 1.366799355
-2.874801636 5.184145927 1.576777697
-1.358747482 2.4573102 -0.7407921553
-1.266681552 2.29269743 -0.5947671533
-1.282040834 2.321454763 -0.5072330832
-2.913214922 5.279456615 -0.9483573437
-2.92165637 5.299126148 -0.7378535867
-2.914012909 5.287444592 -0.5244778991
-2.919184208 5.301204681 -0.31495893
-2.922770739 5.312104702 -0.1051314995
-2.920387983 5.283732414 0.1046777368
-2.91600275 5.280150414 0.3139122128
-2.918665886 5.287153244 0.5246521831
-2.889983654 5.239516735 0.7295665145
-2.886614084 5.237729549 0.9405356646
-2.883398771 5.234056473 1.153312445
-2.868098259 5.210585117 1.363200068
-2.854827404 5.190762997 1.575742364
-1.34273088 2.448487043 -0.7366511226
-1.267098069 2.31248641 -0.5988163352
-1.276759386 2.331081152 -0.5083779693
-2.888128996 5.277463913 -0.9461672902
-2.894568205 5.293617249 -0.7356598973
-2.902225971 5.309823036 -0.5256980658
-2.895873785 5.302598476 -0.3144355714
-2.89654851 5.308231831 -0.1048522666
-2.903850079 5.297400475 0.1047475487
-2.897555113 5.290296555 0.3139122128
-2.902107477 5.300803661 0.5250008702
-2.87644124 5.258280277 0.7307851315
-2.85978508 5.232174873 0.9377198219
-2.873583317 5.25959444 1.156746984
-2.84615612 5.213724136 1.361400485
-2.840389729 5.207481861 1.577813029
-1.327714324 2.44127965 -0.7330275774
-1.273905993 2.344290972 -0.6060147285
-1.253620625 2.307921171 -0.5022720695
-2.864979267 5.278831959 -0.9446029663
-2.875129461 5.304156303 -0.5241292715
-2.875445604 5.309161663 -0.3142262399
-2.870360374 5.301981449 -0.1045381203
-2.886294842 5.309262276 0.1047824472
-2.879994392 5.29987669 0.3139122128
-2.881683588 5.307400703 0.5246521831
-2.855227709 5.263054848 0.7300539017
-2.833003521 5.224264145 0.9345911145
-2.848658085 5.257510662 1.154075623
-2.826996088 5.219705582 1.360500574
-2.813912153 5.199881077 1.572636724
-1.319611907 2.445668936 -0.7330275774
-1.27537322 2.365655661 -0.6105137467
-1.243166924 2.306880951 -0.501127243
-2.840903997 5.276128292 -0.9424129128
-2.487780809 4.622240543 -0.6393831372
-2.504600286 4.657384872 -0.4589367509
-2.516553879 4.683537006 -0.2764396667
-2.848978996 5.304424286 -0.1043985039
-2.86297822 5.308243752 0.1045730188
-2.863352537 5.311155796 0.3140168786
-2.847061396 5.285353184 0.5215145946
-2.837759972 5.272493839 0.7300539017
-2.813790321 5.230151176 0.933965385
-2.828420639 5.261740208 1.152930856
-2.807825327 5.225619316 1.359600902
-2.787516594 5.192162991 1.567460299
-1.316052437 2.458547592 -0.7356157899
-1.260168195 2.356125355 -0.6069145799
-1.229030013 2.298871279 -0.4984559119
-2.816875458 5.273324013 -0.9402227998
-2.482846022 4.651911736 -0.6423079967
-2.486451626 4.662583828 -0.4585881531
-2.499130964 4.68833065 -0.2762303054
-2.837024212 5.326691628 -0.1046428308
-2.83592391 5.300077438 0.104223974
-2.838202477 5.30878973 0.3132841885
-2.832334042 5.300037384 0.5220375061
-2.809973717 5.262613297 0.7273728251
-2.795517683 5.23994112 0.933965385
-2.805412292 5.260697365 1.150641203
-2.787735701 5.231947899 1.358700991
-2.767558098 5.198451042 1.566424966
-1.306127667 2.461647987 -0.7350981832
-1.241892695 2.341571808 -0.6019656062
-1.226112247 2.313768625 -0.5007455945
-2.794757128 5.278375149 -0.9392842054
-2.461951017 4.651777267 -0.6410893202
-2.467367887 4.665950775 -0.4580652118
-2.479132414 4.692160606 -0.2759163082
-2.816546917 5.333025455 -0.1045730188
-2.817406893 5.309943676 0.104223974
-2.8159132 5.311605453 0.3128654957
-2.810093164 5.305100918 0.5215145946
-2.788801193 5.267126083 0.7266415954
-2.775363445 5.246174335 0.9333396554
-2.782443047 5.264000893 1.149114609
-2.763081551 5.231791019 1.356001616
-2.747592688 5.2046628 1.565389633
-1.302023888 2.474740982 -0.737686336
-1.240556717 2.35990715 -0.6055648327
-1.213461399 2.309345007 -0.4988375604
-2.775398016 5.28634882 -0.9389712811
-2.43842864 4.64846468 -0.6393831372
-2.451064348 4.674535751 -0.4580652118
-2.465517998 4.706094265 -0.2762303054
-2.784924269 5.320281982 -0.1041192636
-2.796994209 5.31846571 0.1041890681
-2.785276651 5.300674915 0.3116094172
-2.792482615 5.316641808 0.5216889381
-2.760251522 5.259736061 0.7242042422
-2.748776674 5.242316246 0.9308366776
-2.764049768 5.273682117 1.149114609
-2.737568617 5.227593899 1.352402449
-2.72670579 5.211276054 1.56435442
-1.293377995 2.479270697 -0.737686336
-1.201685905 2.305468559 -0.5902681351
-1.205393434 2.313566446 -0.4988375604
-2.756014347 5.294252872 -0.9386584163
-2.422188759 4.656947613 -0.6393831372
-2.431056738 4.675991058 -0.4573679566
-2.453680277 4.72353363 -0.2767536938
-2.766337156 5.32997036 -0.1041192636
-2.77656436 5.324649811 0.1041192636
-2.764912128 5.306821346 0.3114000857
-2.76930666 5.317521095 0.5208173394
-2.744625092 5.27462101 0.7249354124
-2.723172188 5.237857342 0.9283337593
-2.740194082 5.272846222 1.146824956
-2.715713263 5.230199337 1.350602865
-2.699600697 5.203614712 1.559178114
-1.278503299 2.471758366 -0.7340628505
-1.169473648 2.26290679 -0.5781208277
-1.199112892 2.321248293 -0.4996007979
-2.410154104 4.67559433 -0.4564963877
-2.437175751 4.732069969 -0.2767536938
-2.746814966 5.335559368 -0.1040494516
-2.750614643 5.320097923 0.1038400233
-2.748214245 5.317736149 0.3115047514
-2.741588116 5.309451103 0.5190742612
-2.728927851 5.289461136 0.7256666422
-2.703070402 5.241592884 0.927395165
-2.716377258 5.271906853 1.144535303
-2.700137377 5.242641926 1.351502538
-2.677030087 5.202229977 1.556072235
-1.269417286 2.474266052 -0.7335452437
-1.157518864 2.258101463 -0.5758712888
-1.194989204 2.332201481 -0.501127243
-1.248119712 2.43798995 -0.4271176159
-1.240981221 2.425089359 -0.3293475211
-2.394637108 4.683560848 -0.4564963877
-2.409659386 4.717003822 -0.2753929496
-2.71910429 5.325047493 -0.1036655009
-2.726568222 5.316735268 0.1035956889
-2.726921558 5.319710255 0.3110860586
-2.720331907 5.311420918 0.5183770061
-2.706849575 5.289646626 0.7244479656
-2.692871094 5.264596462 0.9298980832
-2.691730976 5.266901016 1.141482234
-2.679192305 5.244625092 1.349702954
-2.659762621 5.211079597 1.556072235
-1.258577347 2.473296404 -0.7319923043
-1.184469342 2.329674244 -0.5934174657
-1.19573307 2.353861809 -0.5049434304
-1.229295492 2.420980215 -0.4233632088
-1.220833302 2.406392336 -0.3261789382
-2.379175425 4.693667412 -0.4566707015
-2.392275333 4.723604679 -0.275288254
-2.702307224 5.338074684 -0.1037353054
-2.708017111 5.323965073 0.1035607904
-2.704717398 5.322073936 0.3106673658
-2.702704668 5.320412159 0.5183770061
-2.675818205 5.272041798 0.7207918763
-2.665542364 5.256347179 0.9267693758
-2.669781685 5.269258976 1.139955878
-2.658226252 5.248730659 1.348353267
-2.639812946 5.216883659 1.555036902
-1.230367184 2.439944267 -0.7206043005
-1.203980446 2.389691353 -0.6078143716
-1.185331702 2.354721546 -0.5041801333
-1.2204144 2.42546916 -0.4233632088
-1.203979969 2.394888878 -0.3239852488
-2.360166788 4.698795795 -0.4563221037
-2.374051809 4.730555534 -0.2751835883
-2.680929661 5.344368935 -0.1036655009
-2.691184282 5.339212418 0.1036655009
-2.680700064 5.32303381 0.310144037
-2.684976578 5.333842278 0.5187256336
-2.660935163 5.290680885 0.7220105529
-2.640051365 5.253725529 0.9245793223
-2.650449514 5.279009342 1.139955878
-2.627608776 5.235795021 1.342504501
-2.620672941 5.22652483 1.555036902
-1.210191131 2.421971321 -0.7138749957
-1.196084619 2.395831108 -0.6082642078
-1.177981973 2.360601187 -0.5045617819
-1.210635424 2.428157568 -0.4230503142
-1.194728017 2.397300005 -0.3237415254
-2.342860937 4.705222607 -0.4561477602
-2.361083984 4.745965958 -0.2756022811
-2.663146734 5.355485916 -0.1037004068
-2.670704603 5.347250462 0.1036305949
-2.659427404 5.326996803 0.3098300099
-2.657406569 5.327600956 0.5171568394
-2.636214972 5.289738178 0.7205481529
-2.620816946 5.261140347 0.9242664576
-2.630257607 5.284713268 1.139192581
-2.609317541 5.244934559 1.342504501
-2.593815327 5.218340874 1.549860477
-1.186712503 2.394814014 -0.704557538
-1.195050836 2.413755417 -0.6118634343
-1.174500704 2.373292923 -0.5064698458
-1.184190989 2.394973278 -0.416480124
-1.19028914 2.408367395 -0.3247164786
-2.318424463 4.695100784 -0.4544046223
-2.347099066 4.757352352 -0.2758116424
-2.639182568 5.351733208 -0.1034560725
-2.641417742 5.332782745 0.1031768322
-2.638204336 5.328626633 0.3094113171
-2.632656336 5.322098255 0.5157623291
-2.618657589 5.298451424 0.7205481529
-2.5963552 5.255634785 0.9217635393
-2.604027271 5.275802135 1.135376334
-2.59018445 5.250064373 1.341604829
-2.569662094 5.213051796 1.545719504
-1.169392705 2.379663706 -0.6988635063
-1.182745099 2.40895915 -0.609613955
-1.169219494 2.382461548 -0.5076147318
-1.176241755 2.398887396 -0.416480124
-1.176181316 2.399823427 -0.3230103254
-2.303719521 4.70455265 -0.4545789659
-2.324289322 4.750757217 -0.2749742568
-2.619665146 5.356861591 -0.1033862606
-2.618430614 5.330743313 0.1029673964
-2.621398449 5.339139938 0.3095159829
-2.614116669 5.32901001 0.5155879855
-2.59408474 5.292845249 0.7185982466
-2.585865974 5.27840662 0.9242664576
-2.579614401 5.270301342 1.132323503
-2.576187134 5.265626431 1.343404412
-2.550664902 5.218072891 1.544684172
-1.158956766 2.378318548 -0.6973105669
-1.171338439 2.405859232 -0.6078143716
-1.162172079 2.388091087 -0.5079963803
-1.168280721 2.402774334 -0.416480124
-1.164745092 2.396569252 -0.3220353425
-2.29071784 4.717542648 -0.4551019073
-2.299803257 4.740468979 -0.2739275098
-2.601015329 5.36371994 -0.1033513546
-2.598986149 5.335802555 0.1028975919
-2.603679657 5.347802639 0.3095159829
-2.592943192 5.330483437 0.51489079
-2.571310997 5.290706635 0.717135787
-2.561441183 5.27273941 0.9217635393
-2.563836336 5.282360077 1.133086801
-2.550204039 5.256608009 1.338905334
-2.53503108 5.229980469 1.545719504
-1.150231481 2.382550478 -0.6973105669
-1.165052056 2.415402412 -0.6091640592
-1.149147868 2.383492708 -0.5060882568
-1.162037373 2.412379503 -0.4174186885
-1.160700202 2.411756039 -0.323497802
-2.276902676 4.735281944 -0.4559734464
-2.288470507 4.761467457 -0.2746602595
-2.572609186 5.357444286 -0.1030372083
-2.581151247 5.348893642 0.1029673964
-2.566644669 5.323578358 0.3075272143
-2.574254513 5.341745377 0.515065074
-2.548458815 5.292940617 0.7161608338
-2.54117775 5.282534599 0.9217635393
-2.542757988 5.288182259 1.132323503
-2.523251534 5.252307892 1.335306048
-2.514931917 5.239675045 1.545719504
-1.141491771 2.386749983 -0.6973105669
-1.141485214 2.387807131 -0.6010658145
-1.139557362 2.385917187 -0.5057066679
-1.155740499 2.421970367 -0.4183573127
-1.156546831 2.424751759 -0.3247164786
-2.255217791 4.732408524 -0.4549275637
-2.274436474 4.777036667 -0.2750789225
-2.548737526 5.355556965 -0.1028277799
-2.562465429 5.357870102 0.1029673964
-2.554075241 5.345119476 0.3082599342
-2.549509525 5.340355396 0.5140191913
-2.529968739 5.301803589 0.7161608338
-2.515070438 5.275325775 0.9189476967
-2.523357391 5.297466755 1.132323503
-2.502310276 5.258001328 1.334406376
-2.48998642 5.234465599 1.541578293
-1.126533389 2.376754761 -0.693169415
-1.146069765 2.42015481 -0.6082642078
-1.129542708 2.386331081 -0.5049434304
-1.146434069 2.424204588 -0.4180444479
-1.146804452 2.427179575 -0.3244727552
-2.236982107 4.736649513 -0.4545789659
-2.255192041 4.779527187 -0.2747649252
-2.526531935 5.359436512 -0.1027230695
-2.535959959 5.352769852 0.1026881635
-2.532756805 5.350835323 0.3080506027
-2.524034739 5.334815502 0.5126247406
-2.507972956 5.305657387 0.7154296041
-2.49318862 5.279149055 0.9180091023
-2.498146772 5.292039394 1.129270554
-2.487264872 5.273754597 1.336205959
-2.464197874 5.229576588 1.537437201
-1.12562263 2.39640975 -0.6978282332
-1.139270067 2.427669287 -0.6091640592
-1.118705273 2.384927034 -0.5037985444
-1.139640927 2.431769371 -0.4186701775
-1.150110126 2.45633626 -0.3278850913
-2.222122192 4.748038769 -0.4549275637
-2.2317276 4.772895813 -0.2739275098
-2.509502649 5.371846676 -0.1027928814
-2.510462284 5.347107887 0.1024089307
-2.512368441 5.356026649 0.3078412414
-2.505398512 5.343593121 0.5126247406
-2.488596916 5.312581539 0.7151858807
-2.474744558 5.287820339 0.9180091023
-2.476332426 5.293612957 1.127744079
-2.467189074 5.278874397 1.335306048
-2.445926905 5.238146782 1.537437201
-1.150673866 2.472132921 -0.7190513611
-1.124215722 2.417494774 -0.6055648327
-1.10954535 2.387037277 -0.5034168959
-1.136138082 2.446481705 -0.4205473661
-1.141957641 2.46013689 -0.3278850913
-2.202183008 4.748536587 -0.4542303383
-2.212533474 4.775221348 -0.2736135423
-2.486631393 5.369252205 -0.1025834456
-2.491783142 5.355837822 0.1024089307
-2.48953867 5.353462696 0.3072131872
-2.486729145 5.352306843 0.5126247406
-2.46167779 5.303230762 0.7127485275
-2.454702616 5.290621758 0.9170704484
-2.45783782 5.30222559 1.127744079
-2.441478729 5.269344807 1.33080709
-2.430167198 5.249734402 1.538472414
-1.172417879 2.540836811 -0.7382039428
-1.112929821 2.414130449 -0.6037651896
-1.104088783 2.396052599 -0.5045617819
-2.152348518 4.675239086 -0.8085048795
-2.177706957 4.732496262 -0.6345083714
-2.18725729 4.757622719 -0.4544046223
-2.200019121 4.789792061 -0.2740322053
-2.463807821 5.366564274 -0.1023740172
-2.475682497 5.367703915 0.1024787351
-2.466756344 5.350805759 0.3065851629
-2.467300653 5.356903553 0.5122760534
-2.442419529 5.307757854 0.7122610211
-2.433844328 5.291553497 0.9158189893
-2.440242529 5.310346603 1.127744079
-2.419109821 5.266787052 1.328107595
-2.409523249 5.250740528 1.536401868
-1.160770774 2.537683964 -0.7361334562
-1.066849351 2.334503412 -0.5826198459
-1.074928164 2.353270769 -0.4946397245
-2.133551121 4.675163269 -0.8072534204
-2.157878876 4.73284483 -0.6335334182
-2.171467066 4.76485014 -0.4544046223
-2.18412447 4.797060966 -0.2740322053
-2.440090656 5.364211082 -0.1021645889
-2.456207037 5.372246265 0.1024089307
-2.443083048 5.348484039 0.3059571683
-2.446214199 5.357805729 0.5115788579
-2.424803495 5.3158288 0.7122610211
-2.410442114 5.289232731 0.9139418006
-2.420990467 5.314836979 1.126980901
-2.400711775 5.275198936 1.328107595
-2.386381149 5.248568058 1.533296108
-1.148716092 2.534681559 -0.7340628505
-1.063516021 2.348864794 -0.585319221
-1.079659104 2.385626316 -0.5007455945
-2.117219925 4.682581902 -0.8072534204
-2.148700953 4.756629944 -0.6357271075
-2.151542902 4.765137672 -0.453707397
-2.168188572 4.806476116 -0.2741368711
-2.417244196 5.363580227 -0.1019900665
-2.432487249 5.369859219 0.1021994948
-2.42604661 5.360618114 0.3061664701
-2.420926094 5.351790428 0.5101843476
-2.40459919 5.320641994 0.7117735744
-2.389526844 5.29221344 0.9130031466
-2.397578716 5.31251812 1.124691129
-2.38068223 5.279993534 1.327207923
-2.364872932 5.249820232 1.531225562
-1.144609809 2.549249887 -0.7371687293
-1.073735356 2.39475441 -0.5018904805
-2.09924531 4.686338902 -0.8066277504
-2.133704662 4.767724991 -0.6362145543
-2.136504173 4.778447151 -0.4542303383
-2.148136854 4.806722164 -0.2737182081
-2.400138855 5.375637054 -0.1020598784
-2.408813953 5.367371559 0.1019900665
-2.407320976 5.369053841 0.3061664701
-2.402228594 5.360208988 0.5101843476
-2.382768154 5.321755409 0.7107985616
-2.371844053 5.302325249 0.9133160114
-2.374213219 5.310101032 1.122401357
-2.363825321 5.29183054 1.328107595
-2.346531868 5.258044243 1.531225562
-1.13368845 2.549897909 -0.7361334562
-1.085869551 2.443492174 -0.6073644161
-1.06256032 2.393291235 -0.5007455945
-2.086060762 4.703029633 -0.8081920743
-2.107395649 4.753366947 -0.6332896948
-2.121423721 4.789519787 -0.4545789659
-2.125656605 4.803603649 -0.2730901539
-2.378122568 5.3766675 -0.1019202545
-2.388439894 5.37209177 0.1019202545
-2.383698463 5.366472721 0.3055384457
-2.382567644 5.36897707 0.5101843476
-2.356127024 5.311894894 0.7083612084
-2.353322268 5.310571671 0.9133160114
-2.354733229 5.318767548 1.122401357
-2.338108778 5.286201 1.324508429
-2.328164816 5.26620245 1.531225562
-1.124002576 2.552071571 -0.7356157899
-1.075336218 2.443888664 -0.6064646244
-1.054200292 2.396985292 -0.5007455945
-2.070424557 4.712091446 -0.8085048795
-2.089960337 4.761058807 -0.6332896948
-2.104691029 4.796896458 -0.4545789659
-2.115289211 4.825628757 -0.2739275098
-2.356128693 5.377610207 -0.1017806381
-2.367124081 5.377149105 0.10185045
-2.358515263 5.360136509 0.3047010899
-2.362209558 5.373612404 0.5098357201
-2.336643457 5.320494652 0.7083612084
-2.328419685 5.304283619 0.9108130932
-2.332211733 5.317964554 1.120493412
-2.316512823 5.287191391 1.322708845
-2.306669235 5.267218113 1.529155016
-1.110451698 2.545355797 -0.7325099707
-1.056321502 2.422432661 -0.6001659632
-1.053667068 2.418649435 -0.5045617819
-2.057154179 4.724364281 -0.8094435334
-2.074159384 4.767963886 -0.6332896948
-2.08475852 4.796904564 -0.4538817406
-2.099276304 4.832616329 -0.2739275098
-2.33575201 5.38213253 -0.1017108336
-2.350877523 5.388635159 0.1019202545
-2.336599588 5.361012459 0.304282397
-2.338663578 5.370865822 0.5087898374
-2.318193436 5.326394558 0.708117485
-2.303587198 5.297886848 0.9083101153
-2.318475246 5.334672928 1.122401357
-2.295863628 5.287693501 1.320909262
-2.283655167 5.264604568 1.526049137
-1.056775331 2.444403172 -0.7019693255
-1.06099546 2.456518173 -0.6078143716
-1.079879045 2.501438618 -0.5213530064
-2.037522316 4.724260807 -0.8081920743
-2.058290005 4.776997089 -0.6335334182
-2.061700106 4.789511204 -0.4524872303
-2.082393169 4.839915276 -0.2739275098
-2.313792706 5.382903099 -0.1015712097
-2.327295542 5.38579464 0.1017108336
-2.319456339 5.372803211 0.3044917285
-2.317683935 5.371273994 0.5080926418
-2.298802376 5.332630634 0.7078737617
-2.285081148 5.305895329 0.9083101153
-2.292854309 5.3265028 1.118966818
-2.278933048 5.299254894 1.321809053
-2.260687351 5.261894703 1.522943377
-1.004482269 2.347026348 -0.6724639535
-1.046281934 2.445873499 -0.6042151451
-1.076103568 2.518017054 -0.5240243077
-2.114821196 4.953337669 -0.8463620543
-2.047834396 4.798759937 -0.6354833245
-2.048874855 4.80584383 -0.4533587992
-2.061510563 4.840164661 -0.2735088468
-2.295770884 5.39278841 -0.1016061157
-2.299824715 5.373663425 0.1013268754
-2.300686121 5.380867004 0.3044917285
-2.291719437 5.365075588 0.5066981316
-2.27627492 5.331494808 0.7066550255
-2.264995098 5.310206413 0.9076843858
-2.271005869 5.329452991 1.117821932
-2.257967234 5.303987026 1.320909262
-2.242307186 5.269753456 1.522943377
-0.9985457063 2.355854273 -0.6740168929
-1.042629957 2.462253094 -0.6073644161
-2.144446611 5.07167387 -0.865447104
-2.024053812 4.791603565 -0.6335334182
-2.033637524 4.816636562 -0.453707397
-2.039170027 4.834448814 -0.2727761269
-2.278487206 5.404453754 -0.1016759202
-2.27933526 5.380215645 0.1012919694
-2.275660276 5.374151707 0.3036543727
-2.275307655 5.378546715 0.5072211027
-2.252856255 5.330658913 0.7054363489
-2.247983217 5.321718693 0.9083101153
-2.252389908 5.337347507 1.117821932
-2.233383656 5.297470093 1.317309976
-2.225400448 5.281108856 1.523978591
-1.011998534 2.410983324 -0.6890283823
-1.02465868 2.442335844 -0.6015157104
-1.062292814 2.534521818 -0.5259323716
-2.130670309 5.086044312 -0.8666985631
-2.006618977 4.794627666 -0.6330459118
-2.015273809 4.820030689 -0.4533587992
-2.025436401 4.846713543 -0.2730901539
-2.255754948 5.403148174 -0.1015014052
-2.263801575 5.393276215 0.1013966873
-2.253796339 5.374695778 0.3032356799
-2.252671003 5.377267361 0.506349504
-2.232098341 5.330776691 0.7044613957
-2.223296165 5.314953804 0.9058071971
-2.233162403 5.341165543 1.117058754
-2.21129632 5.2940588 1.3146106
-2.206950903 5.288845539 1.523978591
-1.041829109 2.505297661 -0.7154279351
-1.02883625 2.47649169 -0.6091640592
-1.061411381 2.556161642 -0.529748559
-2.118957758 5.108047962 -0.8692014813
-1.988351583 4.797935009 -0.632558465
-1.998517275 4.824845791 -0.4531844556
-2.011561632 4.861135483 -0.2735088468
-2.231534004 5.398053169 -0.1012570709
-2.244195223 5.399298191 0.1013617739
-2.231958628 5.375151157 0.302816987
-2.233297825 5.381027699 0.5060008764
-2.213478088 5.338535786 0.7044613957
-2.198681116 5.308083534 0.9033042789
-2.217509508 5.356183529 1.118585229
-2.191314697 5.298143864 1.313710809
-2.181099653 5.278661728 1.518802285
-1.008805037 2.44996953 -0.6983458996
-1.029080987 2.501694679 -0.6145628691
-1.048003554 2.548956394 -0.5274589062
-2.100362539 5.113587379 -0.8688886166
-1.971592546 4.80484581 -0.632558465
-1.978637695 4.824419022 -0.4524872303
-1.993065119 4.864432335 -0.2732995152
-2.211921453 5.403957844 -0.1012221575
-2.220769405 5.396003723 0.101152353
-2.213183403 5.382908821 0.302816987
-2.209958315 5.377733707 0.5049550533
-2.194076538 5.3443923 0.7042176127
-2.17863822 5.312070847 0.9026784897
