# .PCD v0.7 - Point Cloud Data file format
VERSION 0.7
FIELDS x y z
SIZE 4 4 4
TYPE F F F
COUNT 1 1 1
WIDTH 1258
HEIGHT 1
VIEWPOINT 0 0 0 1 0 0 0
POINTS 1258
DATA ascii
-1.191879869 2.288604021 -0.5857691169
-1.210025072 2.324435949 -0.501127243
-2.748697281 5.28469944 -0.9367812276
-2.42697072 4.670122623 -0.6410893202
-2.429424524 4.676839352 -0.4573679566
-2.446510792 4.713752747 -0.2761256397
-2.768158674 5.33803606 -0.10425888
-2.765465498 5.307883739 0.1037702113
-2.771359921 5.323730946 0.3123421371
-2.76285243 5.309650421 0.5199458003
-2.740036726 5.270294666 0.7242042422
-2.725896835 5.247572422 0.9298980832
-2.728401423 5.254635334 1.14262712
-2.721064329 5.244987011 1.354202032
-2.69778657 5.204555511 1.559178114
-1.281187177 2.479069948 -0.7361334562
-1.163320303 2.252924919 -0.5754213929
-1.202803612 2.330389977 -0.501508832
-2.413995743 4.687063217 -0.4575422704
-2.422731638 4.708055973 -0.275288254
-2.747678757 5.344110489 -0.1041890681
-2.746921778 5.317504406 0.1037702113
-2.74451375 5.317399502 0.3114000857
-2.743388891 5.317491055 0.5197715163
-2.717074156 5.271006107 0.7229855657
-2.703943729 5.250031948 0.9286466241
-2.712737083 5.269364834 1.143772006
-2.693826675 5.237123013 1.349702954
-2.679604053 5.213939667 1.559178114
-1.27340734 2.485246181 -0.7366511226
-1.157224536 2.260441542 -0.5763211846
-1.193768024 2.332826853 -0.501127243
-1.238749862 2.422813892 -0.4243018329
-1.232063413 2.411812782 -0.3273976147
-2.395808697 4.691911221 -0.4571936131
-2.411727667 4.727159977 -0.2759163082
-2.722651243 5.341197014 -0.1039447337
-2.727430582 5.32528162 0.1037353054
-2.717748642 5.310945511 0.3104580343
-2.722994566 5.323488235 0.5194228888
-2.70317626 5.289295673 0.7242042422
-2.685602188 5.259437561 0.9286466241
-2.69254303 5.275303841 1.143008709
-2.668447971 5.232605934 1.346103787
-2.659632206 5.219820023 1.558142781
-1.252475858 2.465562582 -0.7294041514
-1.206656337 2.377419472 -0.6055648327
-1.1873945 2.340480804 -0.5018904805
-1.231178761 2.428884745 -0.4246146679
-1.215564489 2.400160789 -0.3252039552
-2.374917984 4.691357613 -0.4563221037
-2.394309521 4.733767986 -0.2758116424
-2.701313972 5.343059063 -0.1038051173
-2.70339179 5.324072361 0.103525877
-2.701026678 5.321708679 0.3105627
-2.699888229 5.324076176 0.51855129
-2.675725698 5.280990601 0.7217668295
-2.655650139 5.243644238 0.9242664576
-2.67234087 5.281166553 1.142245531
-2.648406506 5.23841095 1.345203996
-2.633595705 5.211368561 1.552966356
-1.226482749 2.43541193 -0.7190513611
-1.200517654 2.384889364 -0.6064646244
-1.187155962 2.360396862 -0.5053250194
-1.221342206 2.429424763 -0.4239889383
-1.208490133 2.405952215 -0.3254477084
-2.354951859 4.692496777 -0.4556248486
-2.376808405 4.738110542 -0.2756022811
-2.680855751 5.348879814 -0.1037353054
-2.682124853 5.325863361 0.1033862606
-2.683330297 5.332889557 0.3106673658
-2.67054987 5.312106609 0.5164595842
-2.657305956 5.288062096 0.7215231061
-2.635558367 5.249350548 0.9236406684
-2.647766829 5.275962353 1.139192581
-2.631021976 5.247164249 1.345203996
-2.610195398 5.210166931 1.549860477
-1.208905101 2.420454264 -0.7133573294
-1.19653666 2.397783756 -0.6087141633
-1.18282795 2.371347904 -0.5068514943
-1.199638486 2.40715313 -0.419295907
-1.199198842 2.408379078 -0.3252039552
-2.338490963 4.698495865 -0.455450505
-2.356696129 4.739225864 -0.2751835883
-2.662166834 5.358205795 -0.1037353054
-2.660839319 5.329824924 0.1032815427
-2.660242558 5.333286762 0.310144037
-2.655587673 5.326281548 0.5169824958
-2.632636547 5.284867287 0.7198169231
-2.622500896 5.269128799 0.9255179167
-2.620590687 5.267594337 1.135376334
-2.612690926 5.256315231 1.345203996
-2.590272903 5.215787411 1.548825383
-1.189306259 2.402152538 -0.7066280246
-1.189886928 2.405439377 -0.609613955
-1.178024292 2.382501364 -0.5083779693
-1.182478786 2.393615961 -0.4161672294
-1.186392188 2.403650045 -0.3239852488
-2.323837757 4.710204124 -0.4557991624
-2.334841728 4.736673832 -0.2745555639
-2.639914274 5.360289574 -0.1035956889
-2.63955617 5.333704948 0.1031768322
-2.632758379 5.324636459 0.3090973198
-2.630798578 5.32301712 0.5157623291
-2.608018637 5.281565666 0.7181107998
-2.596224785 5.262307644 0.9227020741
-2.602185726 5.276710987 1.135376334
-2.58915782 5.254915714 1.342504501
-2.572051764 5.224796295 1.548825383
-1.176657796 2.397618294 -0.7040398717
-1.182341695 2.411327839 -0.6100638509
-1.168835998 2.384836435 -0.5079963803
-1.175854325 2.401276827 -0.416792959
-1.166654229 2.384595871 -0.3208166659
-2.308258295 4.720076561 -0.4559734464
-2.317417383 4.743000031 -0.2744508982
-2.611538887 5.349704266 -0.1032117382
-2.622684956 5.346476555 0.1032466441
-2.614154577 5.333794594 0.3090973198
-2.613079309 5.333956242 0.5159366727
-2.5895679 5.290637016 0.7181107998
-2.579576969 5.274887085 0.9233278632
-2.583751917 5.285761356 1.135376334
-2.562245846 5.2464118 1.338005543
-2.553799152 5.233742237 1.548825383
-1.153914928 2.372178555 -0.6952400208
-1.179027557 2.425956726 -0.612763226
-1.157072186 2.38183856 -0.5064698458
-1.176089883 2.423138142 -0.4199216366
-1.162654519 2.3975842 -0.3220353425
-2.287421703 4.719141483 -0.4551019073
-2.304327965 4.75825119 -0.274869591
-2.588492632 5.349788189 -0.1030372083
-2.600509644 5.348404408 0.1031070277
-2.595518827 5.342888355 0.3090973198
-2.589223862 5.332290649 0.51489079
-2.571083069 5.29964447 0.7181107998
-2.55339241 5.267861366 0.9205120206
-2.563572168 5.291215897 1.134613156
-2.5422194 5.251814365 1.337105632
-2.528784037 5.228712082 1.544684172
-1.141433001 2.367491007 -0.6926518679
-1.165478587 2.419523478 -0.6100638509
-1.146196246 2.380555868 -0.5053250194
-1.159061551 2.409427404 -0.416792959
-1.157717466 2.408785105 -0.3230103254
-2.268347502 4.721709251 -0.4545789659
-2.28770566 4.766265392 -0.274869591
-2.567209959 5.353381157 -0.1029324979
-2.576614141 5.346641541 0.1028975919
-2.573387861 5.344716549 0.3086785972
-2.566273212 5.332320213 0.5140191913
-2.550848722 5.305008411 0.7176232934
-2.533279181 5.273180962 0.919886291
-2.541688681 5.293052197 1.133086801
-2.523872852 5.260656357 1.337105632
-2.503838062 5.223570347 1.540543079
-1.13649404 2.378432989 -0.6947223544
-1.145272255 2.39895606 -0.6037651896
-1.140416741 2.389857769 -0.5064698458
-1.146392822 2.4045434 -0.4152286053
-1.15271616 2.419980526 -0.3239852488
-2.25527668 4.736794472 -0.455276221
-2.267621279 4.767008305 -0.2744508982
-2.548506021 5.36231041 -0.1029324979
-2.551038742 5.341167927 0.1026183516
-2.551276445 5.346456051 0.3082599342
-2.544211864 5.33405304 0.5133219361
-2.525484562 5.299543858 0.7156733871
-2.513157129 5.278425217 0.9192605615
-2.51307416 5.280618668 1.128507257
-2.503819466 5.265915394 1.336205959
-2.485587597 5.232278824 1.540543079
-1.129837751 2.385877848 -0.6957576275
-1.142724752 2.415270329 -0.6069145799
-1.13038826 2.390274763 -0.5057066679
-1.148119569 2.429962635 -0.4189830422
-1.144262314 2.423989296 -0.3239852488
-2.238729477 4.744637489 -0.455276221
-2.247561932 4.767668247 -0.2740322053
-2.530625582 5.372982025 -0.1029673964
-2.532380342 5.350039482 0.1026183516
-2.52747345 5.34449625 0.30763188
-2.52557826 5.34290123 0.5133219361
-2.501034737 5.295762539 0.7139672041
-2.494717836 5.287165165 0.9192605615
-2.494624615 5.28935957 1.128507257
-2.482101202 5.267571449 1.334406376
-2.467309475 5.240922928 1.540543079
-1.127247095 2.402049541 -0.6993811727
-1.141732812 2.43512392 -0.6109636426
-1.113705873 2.376429319 -0.5018904805
-1.149682641 2.455423117 -0.4227374792
-1.139159203 2.435160875 -0.3249602318
-2.223842621 4.756032944 -0.4556248486
-2.231752396 4.777293682 -0.2741368711
-2.505933285 5.36909914 -0.1027230695
-2.511992693 5.355225563 0.1025485471
-2.507106066 5.34967041 0.3074225485
-2.5069139 5.351684093 0.5133219361
-2.484215498 5.308056831 0.7144547105
-2.472064495 5.286893368 0.9176962376
-2.479469538 5.305149555 1.130033731
-2.457101583 5.262077808 1.33080709
-2.449001312 5.249503136 1.540543079
-1.156327724 2.486547947 -0.723192513
-1.126656175 2.424956322 -0.6073644161
-1.103750587 2.376740932 -0.501127243
-1.139441133 2.455837965 -0.4221117496
-1.133990645 2.446326733 -0.325935185
-2.200525522 4.749304771 -0.4542303383
-2.215061665 4.785055637 -0.2741368711
-2.47626543 5.35421896 -0.1022692993
-2.493282795 5.363962173 0.1025485471
-2.486735344 5.354765415 0.3072131872
-2.481505394 5.345945835 0.5119274855
-2.46483779 5.314895153 0.7142109871
-2.44694972 5.281152248 0.9151932597
-2.457637072 5.306646347 1.128507257
-2.437083006 5.267085075 1.329907298
-2.424175739 5.243992329 1.536401868
-1.161385655 2.520396233 -0.7319923043
-1.115740418 2.42356348 -0.6060147285
-1.102834105 2.396630287 -0.5045617819
-2.144124269 4.663802147 -0.806314826
-2.17688632 4.739428043 -0.6352396011
-2.182272434 4.753335476 -0.4538817406
-2.200009108 4.79638958 -0.2743462324
-2.460893869 5.370100975 -0.1024089307
-2.467852354 5.358101845 0.1022692993
-2.468029737 5.363412857 0.3072131872
-2.457835197 5.34371376 0.5108816028
-2.44627142 5.323466301 0.7142109871
-2.428501129 5.289660931 0.9151932597
-2.435824394 5.308054924 1.126980901
-2.418683767 5.275559902 1.329907298
-2.401027679 5.241884232 1.533296108
-1.157395482 2.534978628 -0.7350981832
-1.063600659 2.331701994 -0.5817199945
-1.076542854 2.361166239 -0.4961662591
-2.129468203 4.674853802 -0.8069406152
-2.163626194 4.752040386 -0.6359708309
-2.168140173 4.766365051 -0.4544046223
-2.181601763 4.800403118 -0.2741368711
-2.443071127 5.378232956 -0.1024089307
-2.44415164 5.355769157 0.1020598784
-2.446913481 5.364299774 0.3067945242
-2.435860872 5.345009327 0.5101843476
-2.422737122 5.321133614 0.7127485275
-2.409309149 5.294090271 0.9145675302
-2.41240406 5.305802345 1.124691129
-2.401174545 5.283551693 1.329907298
-2.382035494 5.246299267 1.532260895
-1.151371598 2.54408288 -0.7366511226
-1.060680389 2.345870018 -0.5844194293
-1.076792955 2.382613182 -0.4999823868
-2.113954782 4.681889534 -0.8069406152
-2.140507936 4.742904186 -0.6337771416
-2.151504517 4.771711826 -0.4542303383
-2.159929514 4.794863224 -0.273404181
-2.425223827 5.386304379 -0.1024089307
-2.424730301 5.360199928 0.1019900665
-2.422529697 5.357825279 0.3059571683
-2.4214046 5.360320091 0.5108816028
-2.397730112 5.312853336 0.7105548382
-2.391740799 5.302050114 0.9145675302
-2.394796848 5.313772202 1.124691129
-2.377238274 5.277270317 1.326308012
-2.364626169 5.254168987 1.532260895
-1.142928123 2.547887325 -0.7366511226
-1.073700786 2.396921158 -0.5022720695
-2.103257895 4.699692249 -0.8088178039
-2.12231946 4.746722221 -0.6332896948
-2.138919353 4.78609705 -0.4549275637
-2.150532484 4.816588879 -0.2742415369
-2.398259878 5.376475811 -0.1020598784
-2.406943083 5.368210793 0.1019900665
-2.398912191 5.355312824 0.3053291142
-2.403616905 5.368319988 0.5108816028
-2.379286766 5.318964005 0.7103111148
-2.368381262 5.299546242 0.9126903415
-2.375559807 5.318100452 1.123927832
-2.355624676 5.278419018 1.324508429
-2.346269846 5.262392044 1.532260895
-1.132458806 2.548330307 -0.7356157899
-1.088970423 2.45277667 -0.609613955
-1.060549974 2.389887571 -0.4999823868
-2.087641716 4.708811283 -0.8091306686
-2.104128361 4.750472069 -0.6328021884
-2.118974686 4.7862463 -0.4542303383
-2.133705139 4.824067116 -0.2742415369
-2.374629259 5.373838902 -0.10185045
-2.389811993 5.380235672 0.1020598784
-2.381825447 5.367304325 0.3055384457
-2.381630659 5.369392872 0.5101843476
-2.359098196 5.323606014 0.7098236084
-2.343471527 5.293330193 0.910187304
-2.354599714 5.320973873 1.122782946
-2.33561039 5.283044338 1.323608637
-2.324765682 5.263480663 1.530190349
-1.11810863 2.539891005 -0.7319923043
-1.085109711 2.467265844 -0.6123133898
-1.055361986 2.400763512 -0.501508832
-2.071193218 4.716069221 -0.8091306686
-2.09391284 4.772331715 -0.6347521544
-2.095017672 4.779382706 -0.4528358579
-2.11524868 4.827827454 -0.2740322053
-2.355053186 5.380263805 -0.1018155366
-2.367793798 5.381223679 0.1019202545
-2.359861612 5.368271828 0.3051197529
-2.356460094 5.363081455 0.5087898374
-2.342098236 5.335443974 0.7103111148
-2.324981213 5.301477432 0.910187304
-2.333645582 5.323766708 1.121638179
-2.315592527 5.287594318 1.322708845
-2.301730871 5.260944843 1.52708447
-1.108791351 2.543972254 -0.7319923043
-1.065593839 2.446026802 -0.6060147285
-1.054389834 2.422617435 -0.5053250194
-2.049166679 4.712760448 -0.8072534204
-2.074077606 4.772328377 -0.6337771416
-2.083083868 4.797631741 -0.4538817406
-2.094361305 4.828217983 -0.2736135423
-2.337850571 5.392120838 -0.101885356
-2.339408875 5.367458344 0.1015014052
-2.341106892 5.376477242 0.3051197529
-2.332814932 5.362546921 0.5079182982
-2.318708897 5.33266449 0.7088487148
-2.303312063 5.302314758 0.9089358449
-2.30942893 5.32147789 1.119348526
-2.294645309 5.292470455 1.321809053
-2.283353806 5.268946648 1.52708447
-1.037884593 2.404162407 -0.6900636554
-1.048904538 2.432021618 -0.6015157104
-1.079346418 2.503806353 -0.5217345953
-2.035830021 4.727140903 -0.8085048795
-2.052648067 4.770781517 -0.632558465
-2.066325426 4.804873466 -0.4538817406
-2.075917006 4.831830025 -0.273404181
-2.31570673 5.395139694 -0.1017806381
-2.319721699 5.375996113 0.1015014052
-2.315061569 5.370348454 0.304282397
-2.31644845 5.376146317 0.5084412694
-2.289730787 5.319246769 0.7059237957
-2.285424709 5.314350128 0.9095616341
-2.288514614 5.324095249 1.11820364
-2.274620533 5.296866417 1.320909262
-2.260978937 5.270179749 1.525013924
-1.006700873 2.354482174 -0.6745344996
-1.043470263 2.442837 -0.6033153534
-1.075995445 2.520198345 -0.5244059563
-2.144867897 5.028572559 -0.8591897488
-2.035983562 4.777917385 -0.632558465
-2.051881552 4.817556381 -0.4544046223
-2.058257341 4.837208748 -0.2732995152
-2.295294046 5.39951086 -0.1017108336
-2.300940514 5.384061337 0.1015014052
-2.291594744 5.367376804 0.3036543727
-2.296102524 5.380534649 0.5080926418
-2.27270484 5.330860138 0.7064113021
-2.260666132 5.307756424 0.9070586562
-2.272221804 5.337471008 1.119348526
-2.248488665 5.286841393 1.316410184
-2.244080544 5.28159523 1.526049137
-0.9924504161 2.343750238 -0.6703934073
-1.044807434 2.469795942 -0.6091640592
-2.149594069 5.088799 -0.8682629466
-2.019294024 4.784994602 -0.632558465
-2.031956196 4.817346096 -0.453707397
-2.042136192 4.846203804 -0.273404181
-2.267895937 5.387216568 -0.1013268754
-2.282133579 5.392059803 0.1015014052
-2.271290541 5.371663094 0.3034450114
-2.271103382 5.373835087 0.5066981316
-2.254083872 5.338759899 0.7064113021
-2.237519741 5.304694176 0.9051814079
-2.253577709 5.345369816 1.119348526
-2.230021715 5.294657707 1.316410184
-2.221136332 5.278711796 1.522943377
-1.008168578 2.404210091 -0.6869577765
-1.029403567 2.457251072 -0.6051149368
-1.061408043 2.534892321 -0.5259323716
-2.132581234 5.098093033 -0.8685758114
-2.005639553 4.799340725 -0.6335334182
-2.008983612 4.809702396 -0.4523129165
-2.025206089 4.853302956 -0.273404181
-2.250617504 5.398791313 -0.1013966873
-2.258658648 5.388928413 0.1012919694
-2.254067421 5.383244038 0.3036543727
-2.246176004 5.367026806 0.5053036213
-2.234667301 5.344764709 0.7061675787
-2.217465162 5.308827877 0.904555738
-2.226583719 5.333275318 1.11515069
-2.210024595 5.298812866 1.315510392
-2.193778992 5.265034676 1.516731739
-1.033108711 2.488001108 -0.7102515101
-1.032019734 2.487829924 -0.6118634343
-1.060073018 2.556716919 -0.529748559
-2.11250329 5.100031853 -0.8676371574
-1.987357378 4.802643776 -0.6330459118
-1.995229244 4.82404995 -0.4530101717
-2.008253574 4.860342503 -0.273404181
-2.230233431 5.402916908 -0.1013268754
-2.234469414 5.383850574 0.1010476425
-2.233733892 5.387388706 0.3034450114
-2.227429152 5.374834061 0.5053036213
-2.211441994 5.341527939 0.7047051191
-2.200431347 5.320186138 0.9051814079
-2.207204819 5.339200497 1.114769101
-2.193003416 5.310096741 1.316410184
-2.176859617 5.276232243 1.517766953
-1.012664437 2.463004589 -0.7019693255
-1.03887713 2.529272318 -0.6213114262
-1.051142454 2.56040144 -0.529748559
-2.09768486 5.114686012 -0.8688886166
-1.967569113 4.802204609 -0.6320709586
-1.978376627 4.830985546 -0.4530101717
-1.985224247 4.852535248 -0.2725668252
-2.212115288 5.412520885 -0.1013617739
-2.212623358 5.384218693 0.1009080261
-2.211881638 5.38776207 0.3030263186
-2.207142591 5.378890038 0.5049550533
-2.187513828 5.336357117 0.7029989958
-2.180348396 5.324179173 0.904555738
-2.188555002 5.346871853 1.114769101
-2.168552399 5.303290367 1.312811017
-2.156968832 5.280221462 1.516731739
-1.017899156 2.500520945 -0.7118044496
-1.73772347 4.273076057 -1.055017114
-1.058461666 2.604068279 -0.5381441712
-2.079819679 5.121976852 -0.8688886166
-1.94631803 4.798005581 -0.6306085587
-1.960753798 4.836015224 -0.4528358579
-1.972773314 4.870541573 -0.2731948197
-2.190209389 5.41279459 -0.1012221575
-2.196828365 5.399318695 0.1010476425
-2.187043667 5.38064909 0.3021889627
-2.18835187 5.386562347 0.5049550533
-2.16513896 5.334763527 0.7017802596
-2.155813456 5.317111969 0.9020527601
-2.169876099 5.354479313 1.114769101
-2.14564085 5.299988747 1.310111523
-2.138525248 5.287718296 1.516731739
-1.004832387 2.493307829 -0.7086986303
-1.730803609 4.299000263 -1.059965968
-1.98894918 4.94268322 -1.02737844
-2.101715803 5.228177547 -0.8857836127
-1.933995485 4.815824032 -0.6320709586
-1.943862081 4.842829704 -0.4528358579
-1.953528643 4.871837616 -0.2728807926
-2.167582512 5.41112566 -0.1010476425
-2.178716183 5.408808231 0.101082541
-2.166755676 5.384545326 0.3019796014
-2.165076256 5.383076668 0.5039091706
-2.149462938 5.349657059 0.7027552128
-2.132090807 5.31177187 0.8998626471
-2.149708986 5.358377457 1.114005804
-2.127128363 5.307446003 1.310111523
-2.118617058 5.291564465 1.515696406
-1.727329493 4.33398056 -1.067164421
-1.970231891 4.945947647 -1.026615262
-1.921574354 4.833612919 -0.6335334182
-1.922530055 4.838476658 -0.4517899752
-1.938722372 4.884195328 -0.2731948197
-2.146470785 5.413082123 -0.1009429246
-2.153155088 5.399663925 0.1007683948
-2.147948027 5.392075062 0.3019796014
-2.143323183 5.383197784 0.5032119155
-2.130043507 5.355282784 0.7025114894
-2.112805367 5.317346573 0.8995497823
-2.128094196 5.358549595 1.112479329
-2.110024929 5.318462372 1.311011434
-2.093016386 5.280967712 1.510520101
-1.019333124 2.581118584 -0.7319923043
-1.710045934 4.334545135 -1.065814734
-1.956557274 4.96192646 -1.028523326
-2.116564751 5.373216629 -0.9079972506
-1.898149014 4.823665142 -0.6313397884
-1.92312932 4.889657497 -0.4559734464
-1.918741107 4.883497238 -0.2727761269
-2.12464118 5.413095474 -0.1008033082
-2.129155397 5.394126415 0.1005240604
-2.129114389 5.399539948 0.3019796014
-2.121598244 5.38323164 0.5025146604
-2.107702494 5.353449821 0.7012928128
-2.096399069 5.330204487 0.9004884362
-2.105067968 5.354982376 1.110189557
-2.090021133 5.322167873 1.310111523
-2.073157072 5.284645081 1.509484768
-1.003283143 2.56666851 -0.7268159389
-1.691359758 4.331411839 -1.063565254
-1.881406426 4.820586205 -0.9976122975
-2.099232197 5.384252548 -0.9086230397
-2.101974726 5.394067764 -0.7056800723
-2.100474834 5.395785332 -0.5028632879
-2.103645086 5.409513474 -0.3019796014
-2.110299587 5.429430962 -0.1009778306
-2.110314608 5.401525021 0.1005240604
-2.108289719 5.399129391 0.3015609384
-2.104243517 5.394316196 0.5028632879
-2.082514048 5.344128132 0.6990991235
-2.076562166 5.331604481 0.8995497823
-2.083513737 5.354979992 1.108663201
-2.069536686 5.321804047 1.308311939
-2.055622339 5.291490555 1.509484768
-1.019871354 2.63483882 -0.7454509139
-1.67558229 4.333361149 -1.062665462
-1.81303966 4.691284657 -0.9693725109
-1.810977817 4.69813776 -0.4367991984
-2.084978104 5.414595127 -0.3018749356
-2.085820198 5.419602394 -0.1006636843
-2.092389584 5.408494473 0.1005240604
-2.08533287 5.393050671 0.3008282185
-2.087778091 5.404982567 0.5032119155
-2.064781904 5.351004124 0.6990991235
-2.055317402 5.329245567 0.8979854584
-2.064334154 5.358194828 1.107899904
-2.04487586 5.310451508 1.303812981
-2.039452076 5.301884174 1.510520101
-1.052609682 2.746440411 -0.7765091658
-1.661900759 4.340713501 -1.063115239
-1.797471523 4.697271824 -0.9693725109
-2.062617779 5.415638447 -0.1004542559
-2.075159073 5.417269707 0.1005589664
-2.066493273 5.400297642 0.3008282185
-2.066997051 5.40443182 0.5025146604
-28.09221649 73.52775574 9.659420967
-2.038109779 5.340079308 0.8986111879
-2.045853138 5.363177299 1.107518315
-2.026324987 5.317557812 1.303812981
-2.015433311 5.294528008 1.506379008
-1.042536974 2.750279903 -0.7765091658
-1.646737576 4.346488476 -1.063115239
-1.805422068 4.788014889 -0.2659724653
-2.044407368 5.424676418 -0.1004891619
-2.050564766 5.409522057 0.1002797335
-2.046924114 5.405609608 0.3007235527
-2.040124416 5.393336296 0.5007715225
-27.82838058 73.60678864 9.656984329
-2.012478828 5.328680515 0.8954825401
-2.024104357 5.365128517 1.106373429
-2.008197308 5.328595638 1.304712772
-1.991492867 5.287067413 1.502237797
-1.012577653 2.699638128 -0.7609800696
-1.626010537 4.339720249 -1.059965968
-1.799866915 4.824228764 -0.2676472068
-2.022665739 5.424284458 -0.1003495455
-2.025809288 5.403894901 0.1000353992
-2.027342796 5.410851002 0.3006188869
-2.021284342 5.400425434 0.5007715225
-27.55630684 73.70271301 9.656252861
-1.999396205 5.350477219 0.8979854584
-1.998497248 5.353768826 1.102557302
-1.98822403 5.331920624 1.303812981
-1.973023891 5.293986797 1.502237797
-0.907705605 2.445971966 -0.6874754429
-1.583146691 4.268350124 -1.041070104
-1.654597998 4.465771198 -0.9174724817
-1.750967741 4.728406906 -0.7919228673
-1.778437495 4.807740211 -0.6242713332
-1.77278924 4.80019331 -0.2659724653
-2.001641273 5.425683975 -0.1002448276
-2.007879257 5.410583019 0.1000353992
-2.004970789 5.408532143 0.3000955284
-2.002422094 5.407447815 0.5007715225
-27.30556107 73.77693939 9.65405941
-1.975228667 5.342600822 0.8954825401
-1.980733514 5.360366344 1.102557302
-1.967831135 5.331172466 1.302013397
-1.953197002 5.297216892 1.501202583
-0.8942598104 2.434461594 -0.6833343506
-1.560854435 4.253726482 -1.03612113
-1.630990982 4.447272301 -0.9125114679
-1.709990621 4.667716026 -0.7806595564
-1.731587172 4.734339714 -0.4373221397
-1.986382723 5.439805031 -0.100384444
-1.987603307 5.413803577 0.09996558726
-1.979456902 5.394525051 0.2989441156
-1.984480381 5.414058208 0.5007715225
-27.04102135 73.85316467 9.651621819
-1.960217595 5.356541634 0.8967339993
-1.962008953 5.367248535 1.102557302
-1.945200562 5.327025414 1.299313903
-1.938267827 5.310924053 1.503273129
-0.8712418079 2.397622824 -0.6719462872
-0.9041268826 2.489474535 -0.6015157104
-1.614118934 4.44924736 -0.9117481709
-1.959228635 5.424137115 -0.09996558726
-1.971004009 5.424124718 0.1000353992
-1.961297274 5.403278828 0.2990487814
-1.962851882 5.413460255 0.5000742674
-26.789217 73.92376709 9.649184227
-1.933437943 5.341063499 0.8929796219
-1.943532825 5.371878624 1.102175713
-1.924873948 5.326116562 1.297514319
-1.914470673 5.303120613 1.499131918
-0.8611424565 2.39716363 -0.6709110141
-0.8945619464 2.492927551 -0.6015157104
-1.599790215 4.46067667 -0.9128930569
-1.697664618 4.746609211 -0.4373221397
-1.94040215 5.437270164 -0.1000702977
-1.946109056 5.420359612 0.09982597083
-1.940534472 5.410770416 0.2990487814
-1.938964725 5.4093647 0.4990283549
-26.50652885 74.02980804 9.649671555
-1.916242838 5.357746601 0.8945438862
-1.91958642 5.370058537 1.100267529
-1.907031417 5.340808392 1.299313903
-1.891499281 5.303153515 1.497061491
-0.8566507101 2.411076784 -0.6740168929
-0.8923716545 2.514400482 -0.6060147285
-1.577645421 4.447731495 -0.9090768695
-1.686450481 4.765032291 -0.6154967546
-1.681084275 4.75250721 -0.4373221397
-1.919415236 5.438353062 -0.09996558726
-1.924498677 5.419582844 0.0996863544
-1.92230165 5.419394493 0.299153477
-1.920735121 5.417978287 0.4992026985
-1.902639389 5.372888088 0.6947118044
-1.895551562 5.358816624 0.8936052918
-1.89363277 5.356365204 1.096069813
-1.887077689 5.343758106 1.298414111
-1.872974753 5.309724331 1.497061491
-0.8443861604 2.403116941 -0.6709110141
-0.8771361709 2.499112368 -0.6015157104
-1.576408029 4.49396801 -0.9174724817
-1.660816789 4.739893436 -0.7887941599
-1.66932869 4.766851425 -0.6150093079
-1.664485693 4.758345604 -0.4373221397
-1.904667974 5.454127312 -0.1001401171
-1.902920008 5.418720722 0.09954673052
-1.90035212 5.414431095 0.2985254526
-1.901812434 5.424649715 0.4992026985
-1.878625154 5.364508152 0.6927619576
-1.876466751 5.361344337 0.8929796219
-1.876868844 5.36850214 1.09721458
-1.866133928 5.340788364 1.296164632
-1.852811694 5.308609962 1.494990945
-0.8376805186 2.409553766 -0.6719462872
-0.8675659895 2.498325109 -0.6006159186
-1.651560903 4.76403904 -0.7919228673
-1.645712018 4.749853134 -0.6120843887
-1.648698092 4.763839245 -0.4373221397
-1.692753673 4.896672249 -0.2693219781
-1.882000923 5.447182178 -0.09989578277
-1.88625145 5.428778648 0.09961653501
-1.879767179 5.413155556 0.2981067598
-1.881852746 5.425280094 0.4986797869
-1.863423467 5.378211975 0.6937369108
-1.854797721 5.356337547 0.8911023736
-1.858412743 5.372841835 1.096832991
-1.843954563 5.334054947 1.293015361
-1.836457253 5.318377972 1.496026278
-0.8290576935 2.410491228 -0.6714286804
-0.8694064021 2.530676842 -0.6078143716
-1.625498891 4.739593029 -0.7869169712
-1.629122972 4.755568504 -0.6120843887
-1.632890344 4.769280434 -0.4373221397
-1.855863094 5.43290329 -0.09951182455
-1.868239641 5.435003757 0.09961653501
-1.858264446 5.412128925 0.297688067
-1.860619187 5.422067642 0.4978081882
-1.845579624 5.384361267 0.6937369108
-1.832251191 5.351565838 0.8892251253
-1.842493296 5.384546757 1.097977877
-1.824694872 5.338614464 1.292565346
-1.814137459 5.313786507 1.492920399
-0.8131747246 2.391422749 -0.665217042
-1.596894026 4.709693432 -0.7809724808
-1.607419848 4.746184349 -0.610134542
-1.626453996 4.805146217 -0.4401111007
-1.734869242 5.131341934 -0.2816732526
-1.838165641 5.443138123 -0.09958163649
-1.845396876 5.430131435 0.09940710664
-1.839359879 5.418582916 0.297688067
-1.835921407 5.411547661 0.4962393939
-1.826771975 5.390771389 0.6937369108
-1.814827442 5.361670971 0.8898509145
-1.819910407 5.379787922 1.095688224
-1.807918429 5.350490093 1.293915033
-1.793107629 5.312763691 1.490849733
-0.8140558004 2.421714067 -0.6729816198
-1.602185249 4.785650253 -0.6145218015
-1.611357689 4.818634033 -0.4408083558
-1.704284072 5.099481583 -0.2795798182
-1.819155574 5.449521065 -0.09958163649
-1.822608709 5.425167561 0.09919768572
-1.821071029 5.42686367 0.2977927327
-1.818286061 5.421701908 0.4965880215
-1.805422664 5.389585495 0.6927619576
-1.7948457 5.364226818 0.8892251253
-1.797385693 5.374935627 1.093398452
-1.789231777 5.356767654 1.293915033
-1.774550438 5.318991184 1.490849733
-0.8337897062 2.510851145 -0.6973105669
-1.791645527 5.411094666 -0.8961082697
-1.795012236 5.424434662 -0.6964179873
-1.799615622 5.444717407 -0.4979825318
-1.759466648 5.329489231 -0.2919311225
-1.802002788 5.4615345 -0.0996863544
-1.804921746 5.43529129 0.09926749021
-1.799602628 5.425604343 0.2973740697
-1.79965663 5.432112217 0.4969366491
-1.78285563 5.384547234 0.6912994981
-1.777351737 5.374210358 0.8898509145
-1.776440501 5.37775898 1.092635155
-1.766534567 5.354036808 1.291665673
-1.754761457 5.321484089 1.48981452
-0.9503235817 2.895534992 -0.8049793243
-1.77997911 5.449072838 -0.4978081882
-1.776163101 5.443827629 -0.2978973985
-1.773297429 5.441485405 -0.09919768572
-1.78374052 5.438070774 0.09919768572
-1.777215838 5.424571991 0.2969553471
-1.781922698 5.442148685 0.4972852767
-1.764341235 5.394820213 0.6917870045
-1.755800843 5.37505579 0.8889123201
-1.758877516 5.387660027 1.093398452
-1.74300015 5.345348835 1.288066387
-1.736443043 5.331552982 1.490849733
-0.9318669438 2.87310791 -0.7977323532
-1.454836607 4.493529797 -0.9098401666
-1.759295464 5.440386295 -0.8989240527
-1.756150007 5.437140942 -0.6964179873
-1.758497715 5.447669029 -0.4971109927
-1.755312324 5.444291115 -0.2975833714
-1.752454638 5.441931248 -0.09909296781
-1.765981436 5.448068142 0.09926749021
-1.759501219 5.434542656 0.2971647084
-1.759235978 5.436961174 0.4962393939
-1.743668795 5.395278931 0.6910557747
-1.734598875 5.373632431 0.8876607418
-1.740061522 5.393766403 1.093398452
-1.727317691 5.360675335 1.290315866
-1.713088512 5.322870731 1.486708641
-0.9147562981 2.854267359 -0.7915207148
-1.622190237 5.070770264 -1.026615262
-1.734280467 5.427678108 -0.8957953453
-1.735954285 5.439455032 -0.6959305406
-1.734628916 5.438588619 -0.4957164824
-1.73993361 5.46180439 -0.2982114255
-1.73621738 5.453429699 -0.09919768572
-1.742074966 5.43896389 0.09898825735
-1.742686391 5.444152832 0.2973740697
-1.735393882 5.427886486 0.4948449135
-1.724823713 5.401332855 0.6910557747
-1.715572476 5.375590324 0.8870350718
-1.717644334 5.388585091 1.09110868
-1.706231475 5.359244347 1.288516283
-1.693083167 5.321158886 1.484638214
-0.9024554491 2.85007596 -0.7894501686
-1.371742845 4.334777355 -1.039720297
-1.502122402 4.752549648 -0.9605953097
-1.70972836 5.412679195 -0.8923538327
-1.720891476 5.454648018 -0.6971492171
-1.716234207 5.446510315 -0.4958907962
-1.7194134 5.459923744 -0.2977927327
-1.715971708 5.455640793 -0.09912787378
-1.720405698 5.433272839 0.09877882153
-1.723673344 5.450201988 0.2973740697
-1.718835473 5.441511154 0.4955421686
-1.7063061 5.405129433 0.6908119917
-1.69798398 5.385313988 0.8876607418
-1.697406769 5.386761189 1.089582324
-1.69079113 5.372307777 1.290315866
-1.675658464 5.330721855 1.485673308
-0.8929998875 2.853052616 -0.7894501686
-1.334506989 4.268860817 -1.022624135
-1.47523129 4.721899986 -0.9533445239
-1.456045389 4.666218758 -0.7675191164
-1.695596576 5.45063591 -0.2969553471
-1.698696136 5.467327118 -0.09923259169
-1.702624559 5.443061829 0.09884864092
-1.699874282 5.440933704 0.2965366542
-1.699594975 5.443377495 0.4951935709
-1.682701707 5.395891666 0.6888620853
-1.679173946 5.391208649 0.8876607418
-1.679761052 5.396401882 1.090345502
-1.668555379 5.367012024 1.287616491
-1.654747605 5.329158783 1.483602881
-0.8808252811 2.850769758 -0.7878972888
-1.31269908 4.251148701 -1.017225266
-1.47122097 4.770424843 -0.9621217847
-1.47905755 4.801785469 -0.7891070843
-1.532673717 4.978939533 -0.6345083714
-1.569263339 5.104137897 -0.4634688497
-1.675495982 5.459841251 -0.09898825735
-1.684793591 5.452793598 0.09891844541
-1.677336454 5.435383797 0.2959086299
-1.680804849 5.453377724 0.4955421686
-1.665023565 5.405527592 0.6893495917
-1.656861186 5.385708809 0.8857836127
-1.659969687 5.402522564 1.090345502
-1.64658761 5.36563921 1.285816908
-1.638402104 5.342290401 1.485673308
-0.8674863577 2.842740059 -0.78479141
-1.301655054 4.27084446 -1.020824552
-1.344730616 4.414941788 -0.8888511658
-1.360527635 4.472413063 -0.7337293029
-1.515569806 4.988322258 -0.6349958777
-1.537543178 5.063830376 -0.4592853785
-1.652365923 5.452260971 -0.09874392301
-1.663631439 5.455106258 0.09884864092
-1.659518838 5.445026398 0.2961179912
-1.658278584 5.447775364 0.4944962859
-1.644043922 5.407795429 0.6888620853
-1.63575542 5.383899212 0.884532094
-1.641099691 5.408284187 1.090345502
-1.630107284 5.378814697 1.287616491
-1.615262866 5.33318615 1.481532335
-0.8553277254 2.838352442 -0.7827208638
-1.291979671 4.290064812 -1.024423718
-1.339488626 4.453449726 -0.8957202435
-1.342846632 4.467440605 -0.7321649194
-1.502443075 5.004728794 -0.6364583373
-1.523292065 5.080616951 -0.4603312612
-1.354086757 4.519135952 -0.245038107
-1.634471536 5.461826324 -0.0988137275
-1.644377112 5.456764221 0.09877882153
-1.640500546 5.450786591 0.2961179912
-1.636956692 5.44589901 0.4937990308
-1.627245307 5.417019844 0.6893495917
-1.618086219 5.393361092 0.8851578236
-1.619774342 5.402413368 1.088055849
-1.612262487 5.384190559 1.287616491
-1.595530748 5.335089207 1.480497003
-0.8470137715 2.844876051 -0.7837561369
-1.273664951 4.283340931 -1.021724343
-1.326951146 4.465394974 -0.897246778
-1.323870778 4.460738659 -0.7302876711
-1.489478111 5.025168419 -0.6384081841
-1.497380495 5.055075645 -0.4575422704
-1.6186167 5.474886894 -0.09895334393
-1.621898651 5.450970173 0.09856939316
-1.622417212 5.456196308 0.2961179912
-1.620023966 5.455117226 0.4941476882
-1.606069684 5.415053368 0.6883746386
-1.600193381 5.398696899 0.8851578236
-1.59867847 5.400503635 1.086529255
-1.590142012 5.378572941 1.284916997
-1.578925967 5.344056129 1.481532335
-0.839256525 2.855229378 -0.785826683
-1.281424046 4.362330437 -1.039720297
-1.311354637 4.470000267 -0.897246778
-1.308518529 4.463207722 -0.7299748063
-1.464995146 5.003408432 -0.6349958777
-1.473016381 5.037323475 -0.455450505
-1.59837687 5.47666502 -0.09888353944
-1.602684498 5.4524827 0.09849958867
-1.602235079 5.457993984 0.2959086299
-1.603215575 5.468385696 0.4948449135
-1.583637357 5.405110359 0.6864247322
-1.581337094 5.404250145 0.8851578236
-1.580759406 5.405776024 1.086529255
-1.567928076 5.368851662 1.28131783
-1.559178829 5.345826626 1.480497003
-0.8330160975 2.869127989 -0.7889325023
-1.258589864 4.340574265 -1.033421755
-1.294339538 4.466780663 -0.8957202435
-1.293478847 4.469646454 -0.7302876711
-1.444215178 4.997049332 -0.6335334182
-1.453214884 5.034777164 -0.4547532797
-1.335157633 4.628789902 -0.250271678
-1.575929642 5.470680714 -0.09867411107
-1.585871935 5.465725422 0.0986392051
-1.577615499 5.444369793 0.2948619127
-1.581746101 5.462190151 0.4937990308
-1.5647614 5.410604954 0.6864247322
-1.56027174 5.402145386 0.8839063644
-1.562970161 5.415032864 1.087292552
-1.548099279 5.370546341 1.280418038
-1.541579008 5.354948997 1.481532335
-0.8187723756 2.859161377 -0.7853090763
-1.227344632 4.28873539 -1.01992476
-1.275802374 4.463943958 -0.8941937685
-1.279255748 4.481955528 -0.7315391898
-1.347264767 4.723353386 -0.5979475975
-1.425805092 5.005328655 -0.4516156912
-1.325833082 4.660547733 -0.251737088
-1.552994728 5.462684631 -0.09842977673
-1.566784501 5.471227169 0.0986392051
-1.560796976 5.457525253 0.2952806056
-1.559525728 5.460288048 0.4931018054
-1.546953559 5.419852257 0.6869122386
-1.535988688 5.388562202 0.8807777166
-1.543111205 5.420725822 1.087292552
-1.528403521 5.37618494 1.280418038
-1.520763993 5.352864742 1.479461789
-0.8093116283 2.863861084 -0.785826683
-1.216381907 4.310084343 -1.023973823
-1.26127708 4.472149849 -0.8949570656
-1.26253283 4.482590675 -0.7309134603
-1.409495115 5.011077881 -0.6340209246
-1.418030143 5.044799805 -0.4547532797
-1.310637236 4.668992519 -0.2519464493
-1.532963753 5.46833992 -0.09842977673
-1.545089126 5.471159935 0.09853449464
-1.539700508 5.459364414 0.295071274
-1.538295269 5.458027363 0.4924045801
-1.528155327 5.429306984 0.6873996854
-1.518367648 5.401762009 0.8820291758
-1.520995736 5.414738655 1.08500278
-1.511734247 5.388991833 1.282217622
-1.499051332 5.350961208 1.477391243
-0.8024224043 2.877834082 -0.7889325023
-1.230081439 4.417555809 -1.048718333
-1.245657563 4.476525307 -0.8949570656
-1.243703365 4.475550652 -0.729036212
-1.387749076 5.000665188 -0.6320709586
-1.324803591 4.777089596 -0.4300010502
-1.285803199 4.642742157 -0.250271678
-1.514931083 5.477513313 -0.09849958867
-1.522762418 5.464962006 0.09832505882
-1.521703839 5.46855402 0.2952806056
-1.520302534 5.467202663 0.4927531779
-1.506536961 5.425045013 0.6861810088
-1.500557184 5.410837173 0.8826549053
-1.499986649 5.412447453 1.083476424
-1.492912531 5.394236565 1.282217622
-1.479335666 5.352437019 1.47635591
-0.7959590554 2.893656015 -0.7925559878
-1.214652538 4.421823025 -1.048718333
-1.227946043 4.4732728 -0.8934305906
-1.228074193 4.479864597 -0.729036212
-1.368711114 4.999734879 -0.6313397884
-1.33020246 4.862399578 -0.4373221397
-1.265903473 4.63371563 -0.2495390028
-1.496855378 5.486625195 -0.09856939316
-1.503675461 5.470244408 0.09832505882
-1.500491977 5.466127872 0.2948619127
-1.499099374 5.464790821 0.4920559227
-1.486543059 5.426441193 0.6856935024
-1.480619192 5.412230492 0.8820291758
-1.481085658 5.417649746 1.083476424
-1.469969392 5.384375095 1.278618455
-1.461658001 5.361296654 1.477391243
-1.454095602 5.359349251 -1.47635591
-1.20023036 4.429798126 -1.049618244
-1.211298704 4.473742008 -0.8926672935
-1.21191442 4.482217312 -0.7287233472
-1.343487263 4.975735664 -0.6276836991
-1.33398366 4.943956852 -0.4442946017
-1.259592533 4.674747467 -0.2515277267
-1.472499728 5.472506523 -0.09822034836
-1.485616684 5.479320526 0.09839487821
-1.477227926 5.455909729 0.2940245569
-1.481053829 5.473837376 0.4924045801
-1.467593312 5.431597233 0.6856935024
-1.459660769 5.409736633 0.8807777166
-1.463189006 5.426578045 1.084239602
-1.448126435 5.378182888 1.275918961
-1.443936467 5.37009716 1.478426456
-1.43937242 5.379322052 -1.480497003
-1.1877774 4.445257187 -1.052317619
-1.193647981 4.470355988 -0.8911408782
-1.196259975 4.486420631 -0.7287233472
-1.298019409 4.874890804 -0.6142780781
-1.292125583 4.856164455 -0.4359276295
-1.246858239 4.692628384 -0.2522604465
-1.453829527 5.475426674 -0.09818544239
-1.464932799 5.478677273 0.0982901603
-1.461188078 5.468496799 0.2944432199
-1.461938739 5.478973866 0.4924045801
-1.448112011 5.434769154 0.685449779
-1.438662291 5.403094769 0.8789004683
-1.443227291 5.427857876 1.083476424
-1.429342866 5.383205414 1.275918961
-1.42215836 5.359918118 1.474285364
-1.42058742 5.384313107 -1.480497003
-1.173030734 4.449171066 -1.052317619
-1.178037286 4.474495411 -0.8911408782
-1.179869056 4.484631538 -0.7277847528
-1.27982986 4.871488094 -0.6133031249
-1.275167584 4.860644817 -0.4359276295
-1.245978832 4.752763748 -0.2552959323
-1.434706211 5.48046875 -0.09818544239
-1.446247578 5.481570721 0.09825524688
-1.440056324 5.465838432 0.2940245569
-1.439764261 5.472482204 0.4913586974
-1.430082798 5.439540863 0.685449779
-1.418791175 5.404262066 0.8782746792
-1.424224615 5.428815365 1.082713127
-1.411484838 5.387915611 1.275918961
-1.403441191 5.364849567 1.474285364
-1.400779128 5.38151598 -1.478426456
-1.15553093 4.445694923 -1.050518036
-1.163193703 4.478377342 -0.8911408782
-1.161726594 4.479162216 -0.7262203693
-1.265304685 4.885534763 -0.6145218015
-1.261037469 4.872562408 -0.4366248548
-1.216386795 4.706807613 -0.2525744438
-1.416068077 5.487379551 -0.09822034836
-1.423076034 5.471103668 0.09797601402
-1.422977805 5.478564262 0.2944432199
-1.421607494 5.477226734 0.4913586974
-1.407598853 5.431049347 0.6837435961
-1.40140152 5.414919376 0.8792133331
-1.40329802 5.426151276 1.081186652
-1.394616365 5.400357246 1.277718544
-1.384704351 5.369716167 1.474285364
-1.382944345 5.390115738 -1.479461789
-1.140006542 4.449701309 -1.050518036
-1.148526788 4.486213684 -0.8919040561
-1.146085262 4.48319006 -0.7262203693
-1.245789289 4.880304337 -0.6133031249
-1.247469664 4.89044857 -0.4378450811
-1.197485566 4.701346874 -0.252051115
-1.397398829 5.494226456 -0.09825524688
-1.402977586 5.472163677 0.09790620208
-1.402853251 5.479628086 0.2942338884
-1.400999427 5.476365089 0.4908357561
-1.386668086 5.428235531 0.6827686429
-1.382980704 5.421691418 0.8795261383
-1.384349823 5.431016445 1.081186652
-1.37287426 5.393860817 1.275019169
-1.365953207 5.374516487 1.474285364
-1.363645792 5.393037319 -1.478944063
-1.124466062 4.453653812 -1.050518036
-1.131898284 4.48638916 -0.8911408782
-1.132358193 4.49482584 -0.7274718881
-1.228262901 4.882697582 -0.6130593419
-1.231846929 4.900569916 -0.4383679926
-1.184472084 4.719058514 -0.2527838051
-1.377238154 5.495192051 -0.09818544239
-1.38778758 5.492537022 0.09818544239
-1.37687552 5.457380295 0.2927684784
-1.384311318 5.490881443 0.491707325
-1.368679285 5.436892986 0.6832561493
-1.360193133 5.411159992 0.8770232201
-1.365382195 5.435816288 1.081186652
-1.351191878 5.387279987 1.272319794
-1.347185493 5.37925148 1.474285364
-1.34107995 5.382767677 -1.474802971
-1.113618493 4.476462364 -1.055017114
-1.115284681 4.486501694 -0.8903775811
-1.117614031 4.502584934 -0.7280976176
-1.21312058 4.894663334 -0.6140343547
-1.213776469 4.900971889 -0.4380193949
-1.174703479 4.75030899 -0.2542492151
-1.352773428 5.478610516 -0.09780148417
-1.366672993 5.489587307 0.09804582596
-1.359745741 5.469905376 0.2931871712
-1.361292124 5.480211258 0.4903128147
-1.350649714 5.445491314 0.6837435961
-1.337498546 5.400535583 0.8745203018
-1.34734118 5.444360733 1.081949949
-1.333314538 5.395746708 1.273219585
-1.327473164 5.380170345 1.473250031
-1.321820498 5.385540485 -1.474285364
-1.096131444 4.472751617 -1.05321753
-1.099617958 4.490367413 -0.8903775811
-1.09954536 4.496864319 -0.7265332937
-1.201124072 4.916013718 -0.6162279844
-1.197604418 4.909049988 -0.4383679926
-1.146768928 4.707808018 -0.251737088
-1.180898666 4.851602554 -0.08645743132
-1.344642997 5.482671738 0.09783639759
-1.343502164 5.482144356 0.293605864
-1.339311481 5.473318577 0.489266932
-1.331634283 5.450172424 0.6837435961
-1.32098639 5.410698414 0.8754589558
-1.32554245 5.437585354 1.079660177
-1.31633532 5.403925896 1.274119377
-1.306886315 5.373279572 1.470144272
-1.303952694 5.389894485 -1.474285364
-1.081294179 4.476361275 -1.05321753
-1.083798766 4.490172386 -0.8896143436
-1.083239675 4.494724751 -0.7255946994
-1.184813976 4.919970512 -0.6162279844
-1.182719588 4.918805122 -0.4388909042
-1.123691916 4.680511951 -0.2500623465
-1.319212198 5.499128342 -0.09801091999
-1.325515747 5.483212471 0.09776658565
-1.326254368 5.490451813 0.2938151956
-1.321154952 5.477729321 0.489266932
-1.311692953 5.446838379 0.6827686429
-1.303499818 5.416969776 0.8757717609
-1.30566752 5.434316158 1.078133702
-1.29749918 5.404470921 1.273219585
-1.288158655 5.373827457 1.469109058
-1.286072969 5.394188404 -1.474285364
-1.062832594 4.464756489 -1.049618244
-1.069812417 4.497561455 -0.8903775811
-1.06695807 4.492526531 -0.7246560454
-1.168547511 4.927939415 -0.6167154312
-1.14802587 4.845152378 -0.4319184721
-1.105864167 4.674494267 -0.2495390028
-1.300467014 5.505646706 -0.09804582596
-1.30639708 5.483687878 0.09769678116
-1.305230856 5.487276077 0.2933965027
-1.30344224 5.484019756 0.4894412756
-1.289499283 5.433775425 0.6805750132
-1.285950541 5.427252769 0.8767104149
-1.288545132 5.442436695 1.07889688
-1.27683413 5.401381016 1.271420002
-1.270278573 5.382051468 1.470144272
-1.266793013 5.396764278 -1.473767638
-1.047240019 4.468439579 -1.049618244
-1.054105163 4.501268864 -0.8903775811
-1.052168131 4.500071049 -0.7252818346
-1.150890827 4.930054665 -0.6164717078
-1.151924133 4.938384533 -0.4399367869
-1.096338987 4.707503319 -0.2511090636
-1.2803334 5.506257057 -0.09797601402
-1.289077878 5.496001244 0.09783639759
-1.283334732 5.480130672 0.2927684784
-1.285203099 5.492414951 0.4897898734
-1.271877408 5.444042683 0.6813062429
-1.263406754 5.416318893 0.8742073774
-1.269538164 5.446901798 1.07889688
-1.25532043 5.394417286 1.268720508
-1.252362132 5.390215397 1.471179605
-1.246643424 5.395506859 -1.472214937
-1.034264922 4.483460903 -1.052317619
-1.032754183 4.484056473 -0.8861798048
-1.039110303 4.515266895 -0.7271589637
-1.130561709 4.920499802 -0.6147655845
-1.131590009 4.932863235 -0.4390652478
-1.072831869 4.684235096 -0.2496436685
-1.257983804 5.497047901 -0.09773167968
-1.269883871 5.500468254 0.09783639759
-1.263301849 5.480685234 0.2925591469
-1.262891531 5.483276844 0.4885697067
-1.25242269 5.446514606 0.6810624599
-1.242723107 5.412995338 0.8729559183
-1.250444293 5.455344677 1.079660177
-1.237351418 5.402565956 1.269620419
-1.231815338 5.387022018 1.469109058
-1.022135019 4.50622654 -1.056816697
-1.019348741 4.501214981 -0.8888511658
-1.019067407 4.503631592 -0.7246560454
-1.118207455 4.949782372 -0.6179341674
-1.113939643 4.938921452 -0.4392395616
-1.058289647 4.699826241 -0.250271678
-1.236948252 5.497719765 -0.09766186774
-1.248830795 5.50118494 0.09776658565
-1.244972706 5.493069649 0.2929778397
-1.241466761 5.482038498 0.4880467653
-1.233328581 5.454940319 0.6815499663
-1.224181294 5.423294067 0.8738945723
-1.228715777 5.452230453 1.078133702
-1.218399048 5.410866261 1.270520091
-1.208671331 5.376421928 1.464967847
-0.6116356254 2.738544464 -0.7402745485
-1.004764676 4.506137848 -1.055916786
-1.0032022 4.502830029 -0.8884695768
-1.003412843 4.511192799 -0.7252818346
-1.10565865 4.974971294 -0.6206153035
-1.101009607 4.962230682 -0.4409826696
-1.034967542 4.672291756 -0.2485969514
-1.217751265 5.50200367 -0.09766186774
-1.224302769 5.486207962 0.0974175334
-1.225789189 5.497382164 0.2929778397
-1.220931411 5.484607697 0.4878724515
-1.212894797 5.457486629 0.6813062429
-1.206100583 5.431390762 0.8745203018
-1.207125425 5.444985867 1.075844049
-1.200348258 5.418891907 1.271420002
-1.191566467 5.388153076 1.467038393
-0.6037946939 2.746218204 -0.7418274879
-0.986474812 4.494217873 -1.052317619
-1.06607008 4.860902309 -0.9590688348
-1.03576839 4.730617523 -0.7603231668
-1.092198849 5.000891209 -0.4441202581
-1.013512254 4.648378372 -0.2471315414
-1.201200247 5.513826847 -0.09780148417
-1.206962466 5.494143963 0.09748735279
-1.205840826 5.493613243 0.2925591469
-1.202738166 5.488626003 0.4878724515
-1.190122247 5.440146923 0.6786250472
-1.188083887 5.435360432 0.8745203018
-1.189898252 5.452795982 1.076607347
-1.180712461 5.415225983 1.269620419
-1.173690677 5.392075062 1.467038393
-0.5946851373 2.748205185 -0.7418274879
-0.9740337133 4.50889349 -1.055017114
-1.05947268 4.908548832 -0.9678460956
-1.159050941 5.378999233 -0.8648213148
-1.182815671 5.498608112 -0.685449779
-1.182787895 5.503149986 -0.4887439907
-0.9897108674 4.612658024 -0.245038107
-1.177759051 5.498433113 -0.09745243937
-1.190425515 5.505935192 0.09762696922
-1.184127331 5.486075401 0.2919311225
-1.185369134 5.496479511 0.4882210493
-1.173747897 5.451826096 0.6796000004
-1.167026639 5.429818153 0.8729559183
-1.172635078 5.460550308 1.077370524
-1.160575747 5.413599014 1.268270731
-1.155671477 5.399917603 1.468073726
-0.5830791593 2.740816355 -0.7392392755
-0.9590993524 4.516077995 -1.055916786
-1.084714651 5.11194849 -1.007534385
-1.160733938 5.479637146 -0.8804647923
-1.163202524 5.500761032 -0.685205996
-1.161510348 5.497498512 -0.4878724515
-0.9801972508 4.647352695 -0.2467128336
-1.15691185 5.494683266 -0.09731282294
-1.171200037 5.510056496 0.09762696922
-1.164971352 5.49017477 0.2919311225
-1.164108038 5.490839005 0.48734954
-1.156355619 5.463658333 0.6805750132
-1.146023035 5.424196243 0.871391654
-1.153568149 5.4646101 1.077370524
-1.141268373 5.415710449 1.267820835
-1.133632183 5.388795376 1.463932633
-0.5691583157 2.722034454 -0.7335452437
-0.9449210763 4.527029514 -1.057716489
-1.066862702 5.115703583 -1.007534385
-1.139990091 5.475919724 -0.8792133331
-1.144401908 5.506731033 -0.685449779
-1.14069438 5.49371624 -0.4871752262
-1.137723327 5.498688698 -0.09731282294
-1.149506688 5.502366066 0.0974175334
-1.147429466 5.502028942 0.2923497856
-1.14290607 5.485115528 0.4864779413
-1.13646698 5.463774681 0.6800875068
-1.12627995 5.424294472 0.8707658648
-1.132490635 5.458992481 1.075462461
-1.123148561 5.423477173 1.268720508
-1.113251567 5.385151386 1.461861968
-0.5627640486 2.739143372 -0.737686336
-1.065552115 5.200174809 -1.023562312
-1.119283795 5.472125053 -0.877961874
-1.123582959 5.502912521 -0.6844748259
-1.122305751 5.501568794 -0.487523824
-1.120295167 5.501503468 -0.2920357883
-1.122108579 5.520263195 -0.09762696922
-1.12868309 5.498510361 0.09727791697
-1.127416134 5.502087116 0.2921404541
-1.124150634 5.491024494 0.4866522849
-1.116196513 5.461873055 0.679356277
-1.108127117 5.432064533 0.871391654
-1.11146903 5.453293324 1.073554277
-1.104985833 5.431184292 1.269620419
-1.095217228 5.392790794 1.462897301
-0.5539628267 2.744878531 -0.7387216091
-0.5630818605 2.795086622 -0.6483055353
-1.046617627 5.200014114 -1.022799134
-1.101346731 5.481807709 -0.8789004683
-1.104365945 5.506801605 -0.6844748259
-1.103490114 5.507406235 -0.4876981676
-1.10304153 5.515173435 -0.2925591469
-1.103613973 5.528068542 -0.09769678116
-1.109086156 5.500457287 0.09724301845
-1.105837345 5.494241714 0.2915124297
-1.106546283 5.502728462 0.48734954
-1.094778776 5.454059124 0.677893877
-1.090714812 5.443645954 0.8726431131
-1.093195915 5.460989952 1.074317575
-1.083733439 5.423541546 1.266920924
-1.07714045 5.400370598 1.463932633
-0.5466307402 2.758165598 -0.7418274879
-0.8993546367 4.546234131 -1.059965968
-1.023129106 5.176671505 -1.017456412
-1.081438899 5.481742859 -0.8782746792
-1.082069755 5.495040894 -0.6825249195
-1.084642053 5.513179302 -0.4878724515
