# .PCD v0.7 - Point Cloud Data file format
VERSION 0.7
FIELDS x y z
SIZE 4 4 4
TYPE F F F
COUNT 1 1 1
WIDTH 1215
HEIGHT 1
VIEWPOINT 0 0 0 1 0 0 0
POINTS 1215
DATA ascii
-2.426022053 -3.794924736 1.195278406
-2.164811373 -3.377225161 -1.063280702
-2.026693344 -3.159323931 -0.8566102386
-2.369635582 -3.69250536 -0.8445834517
-2.378877401 -3.704059839 -0.6905533671
-2.376624584 -3.697714329 -0.5345754623
-2.389079332 -3.715664864 -0.3827626109
-1.812495589 -2.816759586 -0.1733378321
-1.840536356 -2.858144045 -0.05863828957
-2.07144165 -3.230322123 0.0662824437
-2.061469793 -3.212303638 0.1978310645
-2.412317038 -3.757571459 0.3869461119
-2.410315752 -3.751572609 0.5423751473
-2.421413422 -3.765953064 0.702442348
-2.428729296 -3.775882244 0.8644275665
-2.428254366 -3.772249699 1.025773406
-2.440300226 -3.78805685 1.195796013
-2.166105032 -3.353420496 -1.058104277
-2.04511404 -3.163686514 -0.8597595096
-2.378246069 -3.677616596 -0.8430569172
-2.392864943 -3.697391987 -0.6908662319
-2.388439178 -3.687729359 -0.5343317389
-2.394450426 -3.695598125 -0.3815424442
-1.814710855 -2.798685074 -0.1726051271
-1.846148014 -2.844992161 -0.05849866942
-2.077278614 -3.214673996 0.0661079213
-2.072670698 -3.205088139 0.1978310645
-2.422171831 -3.744108915 0.3864231706
-2.426633835 -3.748134613 0.5431063771
-2.42809844 -3.747530937 0.7005650997
-2.439759254 -3.764086485 0.8636643291
-2.443527699 -3.767021179 1.026673317
-2.448249102 -3.771414042 1.193207979
-2.184120893 -3.355553389 -1.061210155
-2.052954197 -3.151630163 -0.8584098816
-2.387853384 -3.664358377 -0.8419120908
-2.399283409 -3.679088593 -0.6889889836
-2.401296377 -3.679369926 -0.5343317389
-2.40515852 -3.683880568 -0.3811938465
-1.827745795 -2.797349691 -0.1729191393
-1.86920023 -2.858614445 -0.05891752616
-2.083031416 -3.199024439 0.06593339145
-2.083845854 -3.197833538 0.1978310645
-2.427610397 -3.723947763 0.3852030039
-2.442955494 -3.744629383 0.5438376069
-2.441166162 -3.739031792 0.7005650997
-2.450735569 -3.752260447 0.8629010916
-2.464126587 -3.769886494 1.029822588
-2.456110239 -3.754761696 1.190619707
-2.193701506 -3.344677925 -1.060174823
-2.055388212 -3.131411552 -0.8548106551
-2.404940367 -3.662565231 -0.8434386253
-2.408855915 -3.665739298 -0.6880503893
-2.419579268 -3.679258823 -0.5355504751
-2.421287298 -3.680456638 -0.3817167878
-1.833106756 -2.784279346 -0.1725004464
-1.890168667 -2.868770838 -0.05926657468
-2.091991425 -3.188390017 0.06586358696
-2.097188234 -3.193879128 0.1980404109
-2.4274683 -3.695467949 0.3831112683
-2.446197748 -3.721149683 0.5416439176
-2.450945139 -3.725537777 0.699626565
-2.457342863 -3.733843088 0.8606113791
-2.469766855 -3.7498703 1.026673317
-2.471329451 -3.749391079 1.19165504
-2.211754322 -3.346670389 -1.063280702
-2.060931444 -3.116090536 -0.8525611162
-2.420960665 -3.659060001 -0.8445834517
-2.421637297 -3.65730834 -0.6880503893
-2.425828695 -3.660861731 -0.5340880156
-2.43411994 -3.67198205 -0.3817167878
-1.840605736 -2.774535418 -0.1722911149
-2.094832897 -3.155367136 -0.06540982425
-2.098697186 -3.1743958 0.06572397053
-2.092895269 -3.163219452 0.1965750009
-2.441452742 -3.688633204 0.3832855523
-2.444921494 -3.691074133 0.5384753346
-2.458477974 -3.70872736 0.6980621815
-2.461681366 -3.712152958 0.8575584292
-2.475298405 -3.729860067 1.023523927
-2.482263565 -3.737523317 1.190619707
-2.215927601 -3.327673674 -1.059657216
-2.070715427 -3.107255936 -0.8521112204
-2.428272963 -3.6424191 -0.8426753283
-2.435485363 -3.650475979 -0.6883632541
-2.431978941 -3.64246583 -0.5326256156
-2.45134902 -3.67008996 -0.3824140131
-1.851389527 -2.769754171 -0.1723957807
-2.108619928 -3.153389931 -0.06551453471
-2.10754776 -3.163722038 0.06565415859
-2.105588675 -3.159585953 0.1967843473
-2.457630157 -3.685061216 0.3838084936
-2.45779109 -3.682517052 0.5384753346
-2.470762968 -3.700554371 0.6980621815
-2.474624395 -3.703537464 0.8575584292
-2.480720282 -3.709857225 1.020374537
-2.492495775 -3.726059675 1.189584374
-2.230759144 -3.324731112 -1.061210155
-2.085351706 -3.106844902 -0.8539108634
-2.4267416 -3.612734079 -0.8377143145
-2.450882673 -3.647298336 -0.689301908
-2.448475361 -3.640969992 -0.5336005688
-2.453021288 -3.644981861 -0.3806709051
-1.859448791 -2.761942625 -0.1722911149
-2.112910271 -3.136059523 -0.06530510634
-2.121370316 -3.161697388 0.06575886905
-2.114377975 -3.14890027 0.1965750009
-2.470478535 -3.676459789 0.3838084936
-2.478849173 -3.687526464 0.540425241
-2.474844694 -3.678795099 0.6955592632
-2.491276741 -3.701826096 0.8590849042
-2.493009329 -3.701610327 1.020374537
-2.496849537 -3.704521179 1.185443282
-2.239607811 -3.314114094 -1.060174823
-2.100551367 -3.106003046 -0.8557104468
-2.453009129 -3.625806332 -0.8426753283
-2.455847025 -3.627270699 -0.6871117353
-2.464510679 -3.637331009 -0.5343317389
-2.462859154 -3.633528471 -0.3803222775
-1.8701998 -2.757087946 -0.1723957807
-2.119352102 -3.122047186 -0.06516548991
-2.122313976 -3.139363289 0.06544473022
-2.121999025 -3.136538267 0.1962609887
-2.490473509 -3.679797173 0.3850286603
-2.497271776 -3.687068462 0.5416439176
-2.503187418 -3.693025827 0.6999394298
-2.510794163 -3.702856541 0.8613746166
-2.513574839 -3.704173326 1.023523927
-2.50433898 -3.687791586 1.18285501
-2.255512714 -3.312663555 -1.062245488
-2.104795933 -3.088989496 -0.8530110121
-2.464546204 -3.615599394 -0.8422937393
-2.465153456 -3.613780975 -0.686173141
-2.480550051 -3.633624792 -0.5350629687
-2.477774382 -3.628200531 -0.3806709051
-1.873050928 -2.740649223 -0.1717677563
-2.132494926 -3.117931366 -0.06523530185
-2.128756046 -3.125325203 0.06530510634
-2.132935524 -3.129111528 0.1962609887
-2.499936104 -3.666143179 0.3845057189
-2.513484001 -3.683248281 0.5423751473
-2.51717639 -3.685897112 0.7002522349
-2.517059565 -3.684343576 0.8590849042
-2.531988859 -3.703420162 1.025773406
-2.530287027 -3.698159933 1.189066768
-2.269247293 -3.307956219 -1.063280702
-2.108948231 -3.071984291 -0.8503116369
-2.47603941 -3.605356455 -0.8419120908
-2.478872776 -3.606781483 -0.6864860654
-2.480843306 -3.606953144 -0.5323818922
-2.492683411 -3.622811317 -0.3810195029
-1.879208088 -2.729159117 -0.1714537293
-2.138285398 -3.104255199 -0.06509567797
-2.13738966 -3.114578009 0.06523530185
-2.138777733 -3.115435362 0.1958422959
-2.516102076 -3.662321329 0.3850286603
-2.515078306 -3.658094645 0.5399377346
-2.531624556 -3.680784941 0.7008780241
-2.532131672 -3.678769112 0.8598482013
-2.540479183 -3.688139915 1.023973823
-2.549113989 -3.699293613 1.192172647
-2.276386976 -3.293658257 -1.061210155
-2.121340513 -3.068179369 -0.8512114286
-2.474087477 -3.575702906 -0.8369510174
-2.490818739 -3.598541975 -0.6864860654
-2.487139225 -3.590547085 -0.531163156
-2.507583618 -3.617363691 -0.3813681304
-1.891662478 -2.727836132 -0.1717677563
-2.139986753 -3.083630085 -0.06481644511
-2.143158674 -3.100892782 0.06509567797
-2.142822981 -3.098094702 0.1952142566
-2.528870583 -3.653516054 0.3850286603
-2.529455662 -3.652998447 0.540425241
-2.538831949 -3.663806915 0.6993136406
-2.544316053 -3.670352697 0.8598482013
-2.548252583 -3.673290491 1.022174239
-2.562011719 -3.690372944 1.192172647
-2.281778574 -3.278163433 -1.058621883
-2.136492968 -3.067152023 -0.8530110121
-2.420830965 -3.47405529 -0.8148172498
-2.431050062 -3.486125469 -0.6664624214
-2.445127487 -3.503705502 -0.5194637179
-2.476846218 -3.54651618 -0.3747442961
-1.902316213 -2.722854137 -0.1718724221
-2.148446798 -3.072863102 -0.06474663317
-2.152827024 -3.091751575 0.065060772
-2.151340723 -3.087318659 0.1950049102
-2.536414862 -3.638572216 0.384331435
-2.543327093 -3.645774603 0.5406689644
-2.544821024 -3.645204067 0.6974364519
-2.561609745 -3.667886257 0.8613746166
-2.571105719 -3.678749084 1.026223302
-2.573769808 -3.679825068 1.19165504
-2.294887781 -3.271359921 -1.059139609
-2.150544643 -3.064460993 -0.8543606997
-2.433547974 -3.465159416 -0.8148172498
-2.442675352 -3.475575924 -0.6661495566
-2.444783688 -3.477285624 -0.5167825818
-2.444497347 -3.474299908 -0.3679461777
-1.911133289 -2.714230537 -0.1717677563
-2.159159184 -3.065345287 -0.06474663317
-2.160161018 -3.079306841 0.06495606154
-2.159809113 -3.07652092 0.1947955787
-2.539426088 -3.614578962 0.3827626109
-2.559462309 -3.641746998 0.5414001942
-2.560939074 -3.641145945 0.6983750463
-2.570515394 -3.652051926 0.8598482013
-2.574471712 -3.654962063 1.022174239
-2.577697039 -3.658184528 1.187513828
-2.312983036 -3.2727952 -1.062245488
-2.151634693 -3.042238951 -0.8503116369
-2.443360806 -3.453437805 -0.8140539527
-2.436528683 -3.441233158 -0.6611436605
-2.455217123 -3.465062618 -0.516295135
-2.458914042 -3.468996525 -0.3682947755
-1.918285131 -2.704284668 -0.1715584099
-2.175009966 -3.063933372 -0.0648862496
-2.16566062 -3.063204527 0.06478153914
-2.171070814 -3.068583965 0.1947955787
-2.52325201 -3.565036058 0.3784048557
-2.560171843 -3.614522934 0.5387191176
-2.571982622 -3.628512144 0.6977493167
-2.571891785 -3.627041817 0.8560320139
-2.591725349 -3.652310133 1.023973823
-2.587732077 -3.64398694 1.185960889
-2.322152138 -3.261553764 -1.061210155
-2.163371086 -3.036297321 -0.8507614732
-2.457679987 -3.448085546 -0.8148172498
-2.45311451 -3.439139605 -0.6623951197
-2.461530924 -3.44839263 -0.5150763988
-2.46869278 -3.457149506 -0.3679461777
-1.92539084 -2.694322109 -0.1713490635
-2.178712606 -3.046563148 -0.06467682123
-2.174020052 -3.052368879 0.0647117272
-2.175972939 -3.052854776 0.1942722201
-2.498666286 -3.504294634 0.3728268743
-2.501285076 -3.505378246 0.523607254
-2.511164427 -3.516626358 0.6777256727
-2.514924526 -3.520593166 0.8327532411
-2.548927307 -3.565560818 1.001928687
-2.585824013 -3.614506483 1.179231644
-2.339151859 -3.261277676 -1.063798428
-2.172821283 -3.027143717 -0.8503116369
-2.462830544 -3.429916859 -0.8125275373
-2.472020864 -3.440181017 -0.6642723083
-2.471235514 -3.436556339 -0.5145889521
-1.942952156 -2.698930979 -0.1720817685
-2.243102551 -3.11357379 -0.0662824437
-2.182329416 -3.041512489 0.06464191526
-2.177296638 -3.032261848 0.1934348345
-2.508557796 -3.492315054 0.3724782467
-2.516982079 -3.501461506 0.5243384838
-2.517656565 -3.499821663 0.6761614084
-2.524905205 -3.508606195 0.8319900632
-2.534026146 -3.518689156 0.9911310673
-2.546468019 -3.533364534 1.155420303
-2.344864607 -3.2452631 -1.061210155
-2.181090117 -3.016382694 -0.8494117856
-2.472486734 -3.418117285 -0.8117642403
-2.488646507 -3.437931776 -0.6655237675
-2.486709595 -3.432731152 -0.5153201222
-2.491598606 -3.438217163 -0.3677718341
-1.950016499 -2.688898802 -0.1718724221
-2.265703201 -3.121909142 -0.06663149595
-2.273762703 -3.145700455 0.06705035269
-2.50158143 -3.458339691 0.2214869112
-2.506718159 -3.464167833 0.3703865409
-2.522203684 -3.483007431 0.5228760839
-2.52753973 -3.487813234 0.6755356193
-2.538289547 -3.501360416 0.8323716521
-2.547437429 -3.511399508 0.9915808439
-2.540627003 -3.499441624 1.147138
-1.946902871 -2.674770594 -0.8748604655
-2.082607031 -2.859109879 -0.806671083
-2.486666679 -3.410070658 -0.6617693901
-2.496335983 -3.420823574 -0.5148326755
-2.498886585 -3.423062086 -0.3670746088
-1.958211899 -2.680463314 -0.1717677563
-2.275406599 -3.112366915 -0.06659658998
-2.269426823 -3.116729975 0.06659658998
-2.519518375 -3.457658052 0.2220102847
-2.52348876 -3.461837053 0.3710837662
-2.537855864 -3.478993177 0.523607254
-2.538534641 -3.4773736 0.6752227545
-2.548180342 -3.489307642 0.8316084146
-2.545881033 -3.483605385 0.986182034
-2.560809851 -3.501467228 1.150761604
-1.959654808 -2.672632217 -0.8764133453
-1.972676754 -2.688423634 -0.759881258
-1.965383053 -2.677503824 -0.6373648643
-1.968793631 -2.680188417 -0.5200397372
-1.976819515 -2.689145327 -0.4046627879
-1.959270477 -2.662350655 -0.1710350513
-2.274398804 -3.088303566 -0.06624753773
-2.272013426 -3.097502232 0.06635225564
-2.532754421 -3.450451851 0.2221149504
-2.539096117 -3.457824469 0.3716067076
-2.548808336 -3.468514204 0.5233635902
-2.551826954 -3.470083237 0.6755356193
-2.551037312 -3.467741013 0.8285555243
-2.57535553 -3.49823761 0.9929306507
-2.569579363 -3.487840652 1.149208665
-1.972415328 -2.670437098 -0.8779662848
-1.977415681 -2.675252914 -0.7580816746
-1.980553508 -2.678519964 -0.6392729282
-1.978137374 -2.673299789 -0.5200397372
-1.981468558 -2.675847769 -0.4036878347
-1.986669898 -2.681892872 -0.2882858217
-1.970930219 -2.658704758 -0.1712443978
-2.278016806 -3.070709229 -0.06603810936
-2.279247046 -3.084727526 0.06624753773
-2.536471605 -3.430348873 0.2213822454
-2.548780203 -3.445737123 0.3712580502
-2.551451445 -3.446831226 0.5214136243
-2.568627596 -3.467503309 0.6767870784
-2.567802429 -3.465123653 0.8300819397
-2.566656828 -3.461051226 0.9848322868
-2.579435349 -3.475747824 1.148173332
-1.98403132 -2.666635752 -0.8790015578
-1.983250856 -2.663645029 -0.7567319274
-1.981682181 -2.660568714 -0.6366016269
-1.993359685 -2.674297571 -0.5216041207
-1.987236261 -2.664141178 -0.402956605
-1.998402357 -2.678135395 -0.2886344194
-1.982589364 -2.655008554 -0.1714537293
-2.299494267 -3.077156067 -0.06635225564
-2.285224915 -3.070335865 0.0661079213
-2.546043873 -3.418269873 0.221172899
-2.56555438 -3.443210125 0.3719553351
-2.567028046 -3.44267869 0.5221448541
-2.572446346 -3.44743371 0.6745970249
-2.579881668 -3.456139565 0.8300819397
-2.590384245 -3.467683792 0.989331305
-2.595022917 -3.471364021 1.149726272
-2.408097029 -3.213120222 -1.064316034
-2.122323036 -2.829753637 -0.806671083
-2.525873661 -3.366594553 -0.809856236
-2.01217103 -2.679960489 -0.524107039
-1.998908758 -2.660362482 -0.4034441113
-2.006541729 -2.669550657 -0.2884601355
-1.991844654 -2.648072481 -0.1714537293
-2.313829422 -3.073903799 -0.0664569661
-2.311522722 -3.083139658 0.06656168401
-2.561556578 -3.41415453 0.2214869112
-2.575165987 -3.431046486 0.3716067076
-2.580221415 -3.435283899 0.5223885775
-2.582091093 -3.435275316 0.6739712954
-2.599009752 -3.456528187 0.8323716521
-2.591927767 -3.444605827 0.9852823019
-2.601313353 -3.454568624 1.147138
-2.421626329 -3.207778454 -1.065351248
-2.176825762 -2.881414413 -0.823767364
-2.545895338 -3.36872077 -0.8125275373
-2.550567627 -3.37245512 -0.6630208492
-2.003488302 -2.644287348 -0.1716630906
-2.339043617 -3.084929466 -0.06687582284
-2.327091455 -3.081435204 0.06670130044
-2.575866938 -3.408379078 0.2216962725
-2.577514887 -3.409322262 0.3702122271
-2.598186016 -3.434171915 0.523607254
-2.597643852 -3.4309659 0.6749099493
-2.603947163 -3.438044548 0.8300819397
-2.615707397 -3.451067924 0.9897813201
-2.609853983 -3.440850019 1.145585179
-2.438655615 -3.206994534 -1.06793952
-2.251776218 -2.959091663 -0.8485119939
-2.533855915 -3.328571081 -0.8048951626
-2.563520908 -3.365102291 -0.663333714
-2.571040154 -3.372529984 -0.5155639052
-2.571233273 -3.371562958 -0.3672488928
-2.007859707 -2.630926847 -0.1712443978
-2.371644974 -3.105351686 -0.0675041154
-2.349939346 -3.089209318 0.06705035269
-2.590168238 -3.402544975 0.221905604
-2.591814041 -3.403474092 0.3705608249
-2.601735115 -3.41402936 0.5219011307
-2.609604359 -3.421877623 0.6749099493
-2.608787775 -3.419569016 0.8277922273
-2.619460106 -3.431073666 0.9866318703
-2.628885984 -3.440929174 1.148690939
-2.454533339 -3.204597712 -1.070009947
-2.490894318 -3.24971962 -0.9353431463
-2.509620428 -3.2729671 -0.79344666
-2.512720346 -3.274640799 -0.647064507
-2.513884068 -3.273790359 -0.5016707778
-2.037724018 -2.650820971 -0.173023805
-2.597062588 -3.37601018 -0.07364735752
-2.425169468 -3.16511488 0.06890030205
-2.594737053 -3.383973598 0.2212775648
-2.606103897 -3.397567987 0.3709094524
-2.613636494 -3.404926777 0.5219011307
-2.621533394 -3.412747383 0.6749099493
-2.623101473 -3.413555145 0.8285555243
-2.639736414 -3.432722807 0.9897813201
-2.643237352 -3.434793472 1.149726272
-2.468064547 -3.199069262 -1.07104528
-2.511749744 -3.253344774 -0.9389423132
-2.523430586 -3.267293692 -0.7942098379
-2.528967857 -3.272101879 -0.6483160257
-2.525295734 -3.264995813 -0.5016707778
-2.5325284 -3.273165226 -0.3583590388
-2.174131632 -2.807929993 -0.1839096993
-2.606381893 -3.363762856 -0.07357754558
-2.603584051 -3.373509884 0.07368226349
-2.601650953 -3.368572235 0.2208588719
-2.622819424 -3.394757271 0.3716067076
-2.625506401 -3.395782709 0.5219011307
-2.629803658 -3.398888588 0.6739712954
-2.637403965 -3.407482862 0.8293187022
-2.637382984 -3.404999495 0.9843824506
-2.661128759 -3.433180332 1.152314544
-2.476845741 -3.187383652 -1.070009947
-2.582904816 -3.321474552 -0.9614374042
-2.577010632 -3.312701702 -0.8075664639
-2.590124846 -3.327162743 -0.6611436605
-2.598896027 -3.336025238 -0.5141014457
-2.586803436 -3.319308043 -0.364459902
-2.56713748 -3.291702747 -0.2165673375
-2.61810708 -3.354644775 -0.07357754558
-2.620252848 -3.370716095 0.07382187992
-2.615845919 -3.36262393 0.2210682333
-2.628535986 -3.377718687 0.3707351387
-2.641002178 -3.391296387 0.5226323605
-2.639223337 -3.386571646 0.6733455658
-2.651695728 -3.401352882 0.8300819397
-2.660041332 -3.409600973 0.9884315729
-2.658830404 -3.405597448 1.146102786
-2.496292591 -3.189366817 -1.073633432
-2.602894783 -3.323177338 -0.9645867944
-2.604300499 -3.323775291 -0.8125275373
-2.60781765 -3.325873852 -0.6627080441
-2.610524178 -3.326933622 -0.5141014457
-2.609445572 -3.324363947 -0.3660287261
-2.561338902 -3.260733843 -0.2151019424
-2.631037712 -3.347057104 -0.073612459
-2.624606609 -3.352102518 0.073612459
-2.63126421 -3.358188152 0.2213822454
-2.639080763 -3.366955519 0.3705608249
-2.654049873 -3.383618116 0.5228760839
-2.652247429 -3.378892422 0.673658371
-2.663553476 -3.3920753 0.8300819397
-2.664702415 -3.391101122 0.9857321382
-2.662342548 -3.385666609 1.14247942
-2.506213665 -3.179117203 -1.073115826
-2.607238054 -3.304891109 -0.9618873596
-2.613453388 -3.311582327 -0.8117642403
-2.614514589 -3.310548544 -0.6614564657
-2.624583483 -3.320915937 -0.5145889521
-2.634627104 -3.332426786 -0.3679461777
-2.629709959 -3.32382369 -0.2199168503
-2.645186901 -3.340988636 -0.07368226349
-2.631338596 -3.336639404 0.07347283512
-2.645443916 -3.352118731 0.2215915769
-2.650817633 -3.357722521 0.3705608249
-2.660921574 -3.368103266 0.5219011307
-2.667702198 -3.374261856 0.6745970249
-2.665634394 -3.370439291 0.8270290494
-2.68740797 -3.395531416 0.9897813201
-2.686139107 -3.39149642 1.147655725
-2.518496752 -3.171862125 -1.073633432
-2.609058857 -3.283564091 -0.9582880735
-2.624997139 -3.302439451 -0.8117642403
-2.630973101 -3.307586908 -0.6627080441
-2.630637646 -3.305980682 -0.5136139393
-2.642519474 -3.318534613 -0.3674232364
-2.646275759 -3.320871115 -0.2203355283
-2.653758764 -3.329071045 -0.073612459
-2.650431395 -3.336829662 0.07368226349
-2.652818203 -3.33863616 0.2212775648
-2.665002346 -3.351567984 0.3709094524
-2.670190096 -3.355687141 0.5214136243
-2.678876877 -3.365396738 0.6745970249
-2.677383184 -3.361113787 0.8270290494
-2.679221869 -3.362216234 0.9825828671
-2.702188492 -3.388611555 1.149726272
-2.530207872 -3.165002346 -1.074151158
-2.631027699 -3.287585497 -0.8102378249
-2.641927004 -3.298843861 -0.6627080441
-2.640345097 -3.295689583 -0.5133702159
-2.653509378 -3.309753418 -0.3674232364
-2.657272816 -3.312077999 -0.2203355283
-2.662280321 -3.317133188 -0.07354264706
-2.661482334 -3.328022003 0.07368226349
-2.657636881 -3.322023153 0.2207542211
-2.678592443 -3.345822811 0.3712580502
-2.682544708 -3.348363161 0.5216573477
-2.685080528 -3.350329876 0.6733455658
-2.698340654 -3.364468575 0.8300819397
-2.701331377 -3.366993427 0.9866318703
-2.714620113 -3.381138325 1.150243878
-2.512829781 -3.121980906 -1.062245488
-2.508537054 -3.11442256 -0.9132978916
-2.639451742 -3.275785208 -0.8094745874
-2.65657115 -3.294678688 -0.6636466384
-2.653079748 -3.287997961 -0.5136139393
-2.660039663 -3.2942698 -0.3667259514
-2.672006845 -3.30790925 -0.2206495553
-2.668815136 -3.301599503 -0.07340303063
-2.675013065 -3.322292566 0.07375207543
-2.670469522 -3.314280987 0.2208588719
-2.680920601 -3.326063156 0.3700378835
-2.694880009 -3.340994596 0.5219011307
-2.694277287 -3.337862492 0.6727197766
-2.711949825 -3.358556986 0.8308452368
-2.700820208 -3.342386246 0.9821328521
-2.714259148 -3.356620073 1.145067453
-2.493834734 -3.075238228 -1.049304485
-2.498522997 -3.0799191 -0.9056496024
-2.653914452 -3.269138098 -0.8102378249
-2.662401676 -3.277252674 -0.6620822549
-2.667043924 -3.281798601 -0.5141014457
-2.663980484 -3.275690317 -0.3656801283
-2.694198608 -3.31048584 -0.2214869112
-2.680323601 -3.292263508 -0.07340303063
-2.679035425 -3.303616047 0.07354264706
-2.684539795 -3.308040857 0.2210682333
-2.691837311 -3.314668179 0.3698635995
-2.712784052 -3.339270353 0.5231198072
-2.705912352 -3.32843709 0.6727197766
-2.719284773 -3.342503548 0.8293187022
-2.733968496 -3.358155727 0.9897813201
-2.727179527 -3.348623037 1.145585179
-2.483779907 -3.041078568 -1.040504694
-2.477729559 -3.031510592 -0.8939521313
-2.667795897 -3.262893438 -0.8110010624
-2.670071602 -3.263353348 -0.6611436605
-2.676540136 -3.268928528 -0.5136139393
-2.67918539 -3.270996094 -0.3662030697
-2.689278603 -3.280980587 -0.2201261818
-2.694334507 -3.285980463 -0.07347283512
-2.688596249 -3.290677071 0.07347283512
-2.698597431 -3.301743031 0.2212775648
-2.707175493 -3.309878349 0.3703865409
-2.71620369 -3.318552256 0.5214136243
-2.723771572 -3.326613665 0.6742841601
-2.723470926 -3.323879004 0.8270290494
-2.73702383 -3.338043928 0.9866318703
-2.746202707 -3.348045111 1.148690939
-2.464926958 -2.996582508 -1.028081417
-2.458051443 -2.98716259 -0.8831544518
-2.674177408 -3.247498989 -0.8094745874
-2.682134628 -3.256005287 -0.6614564657
-2.683577776 -3.255439758 -0.5128827691
-2.690587759 -3.261623383 -0.3662030697
-2.700144053 -3.272044182 -0.2201261818
-2.715975761 -3.288890123 -0.07375207543
-2.702034712 -3.284831524 0.07354264706
-2.707568169 -3.289219618 0.2210682333
-2.719978571 -3.30194664 0.3705608249
-2.7234056 -3.304931402 0.5206823945
-2.731596231 -3.312514067 0.6733455658
-2.731979847 -3.311800241 0.8262657523
-2.744356632 -3.324440718 0.9852823019
-2.757873058 -3.338438511 1.148690939
-2.464992046 -2.976489544 -1.023940206
-2.448567867 -2.95455718 -0.8759559989
-2.684931993 -3.238613129 -0.8094745874
-2.701051712 -3.255744934 -0.663333714
-2.694924355 -3.24605298 -0.5128827691
-2.706480026 -3.258814096 -0.366900295
-2.715378284 -3.267207623 -0.220440194
-2.721752882 -3.273715496 -0.073612459
-2.716035366 -3.278460503 0.073612459
-2.717186451 -3.278685093 0.2209635675
-2.730913639 -3.292908669 0.3705608249
-2.736194134 -3.296931744 0.5209261179
-2.74256587 -3.303437471 0.6733455658
-2.751051426 -3.311304331 0.8285555243
-2.749715328 -3.30734849 0.9830327034
-2.772634506 -3.333730221 1.150243878
-2.433296442 -2.917425871 -1.006340504
-2.434631586 -2.917991161 -0.867407918
-2.69244504 -3.224700689 -0.808329761
-2.714365959 -3.249802351 -0.6639595032
-2.708220005 -3.24014473 -0.5133702159
-2.710170031 -3.240176916 -0.3658544123
-2.724916458 -3.256653547 -0.2203355283
-2.728029251 -3.258060932 -0.07347283512
-2.729453802 -3.272506714 0.07368226349
-2.726054907 -3.266113281 0.2207542211
-2.737282515 -3.277239323 0.3698635995
-2.749656916 -3.290887117 0.5214136243
-2.751546144 -3.290812969 0.6727197766
-2.764536142 -3.305174828 0.8293187022
-2.773175955 -3.313155174 0.9875317216
-2.779292107 -3.318108559 1.148173332
-2.41562748 -2.876792669 -0.9949524403
-2.425997496 -2.88709569 -0.8606593609
-2.719546318 -3.235291243 -0.8132907748
-2.714249372 -3.226702452 -0.6611436605
-2.725905895 -3.238264799 -0.5145889521
-2.716328859 -3.224602222 -0.365157187
-2.743989944 -3.256285906 -0.2209635675
-2.744541168 -3.254634142 -0.073612459
-2.73314333 -3.25377202 0.07347283512
-2.741294861 -3.261164427 0.2210682333
-2.748135567 -3.268143892 0.3698635995
-2.76624012 -3.287344456 0.5223885775
-2.765561342 -3.284210205 0.6733455658
-2.773526192 -3.292502403 0.8285555243
-2.775932074 -3.293025017 0.9843824506
-2.777155638 -3.29214406 1.14247942
-2.116725206 -2.502147436 -0.8665782213
-2.412141562 -2.850346565 -0.8521112204
-2.807512045 -3.315193892 -0.8361878395
-2.7733109 -3.272491455 -0.6727197766
-2.760298967 -3.255985022 -0.5189762115
-2.739168167 -3.228774309 -0.3667259514
-2.758491278 -3.249251366 -0.221172899
-2.770124435 -3.261800289 -0.07399640977
-2.749650717 -3.250318527 0.073612459
-2.760404587 -3.260721445 0.2216962725
-2.761383057 -3.259569883 0.3700378835
-2.767431021 -3.265553236 0.5204386711
-2.777008533 -3.27453661 0.6733455658
-2.780493975 -3.276327372 0.8270290494
-2.80185914 -3.299167633 0.989331305
-2.799887657 -3.295680046 1.147138
-2.135468721 -2.506508112 -0.8707193136
-2.39602232 -2.810343981 -0.8426632285
-2.854737759 -3.347199202 -0.8468731046
-2.865507603 -3.357450962 -0.6924305558
-2.871483803 -3.362075567 -0.5377441049
-2.881138325 -3.372187853 -0.384331435
-2.868457794 -3.35497427 -0.2291279584
-2.838682652 -3.318976164 -0.07553221285
-2.769327641 -3.249350071 0.07382187992
-2.771769762 -3.251065731 0.2216962725
-2.772744417 -3.249910593 0.3700378835
-2.778091908 -3.253879309 0.5201949477
-2.79611969 -3.273835421 0.6752227545
-2.793189764 -3.268093109 0.8274106383
-2.793092012 -3.26567173 0.9821328521
-2.805095673 -3.278546333 1.144549966
-2.137915373 -2.491707802 -0.8681311607
-2.385021448 -2.778723478 -0.8354648352
-2.863847017 -3.334234715 -0.8461099267
-2.875338316 -3.346431732 -0.692117691
-2.873557568 -3.341998339 -0.5360379219
-2.891591549 -3.36060071 -0.3841571212
-2.899111986 -3.368149757 -0.2306980491
-2.897232056 -3.363592386 -0.07678879052
-2.866029024 -3.340313196 0.07612560689
-2.815628052 -3.279254675 0.2243130505
-2.810040474 -3.270435572 0.3735240996
-2.804394245 -3.262713432 0.5231198072
-2.810106754 -3.267050266 0.675848484
-2.820656776 -3.278160334 0.8323716521
-2.819164753 -3.274112463 0.9875317216
-2.835437775 -3.290687799 1.152314544
-2.136064053 -2.472908735 -0.8639900088
-2.389608383 -2.764484406 -0.8336651921
-2.869750977 -3.318779945 -0.8445834517
-2.889586449 -3.339362621 -0.6927434206
-2.886505604 -3.333448172 -0.5362817049
-2.90011096 -3.347981215 -0.3838084936
-2.908234835 -3.354991198 -0.2304887027
-2.902404785 -3.345905066 -0.07661426812
-2.912972927 -3.371140957 0.07706803083
-2.910665274 -3.36609602 0.2310120612
-2.926449776 -3.383155346 0.3876433671
-2.939189911 -3.395489216 0.54627496
-2.934015036 -3.387121201 0.7030680776
-2.946509123 -3.400343657 0.86633569
-2.8905797 -3.333449841 1.008677125
-2.874762058 -3.312870026 1.163702488
-2.137076139 -2.456691742 -0.8608842492
-2.3941257 -2.750247002 -0.8318656087
-2.883897543 -3.31170249 -0.8453466296
-2.896034479 -3.323298693 -0.6914919615
-2.902037382 -3.327841043 -0.5370129347
-2.902611971 -3.327327967 -0.3825883269
-2.919927597 -3.344819546 -0.2304887027
-2.916697741 -3.338765144 -0.07668407261
-2.918158293 -3.353410006 0.07689350843
-2.923709869 -3.357420683 0.231116727
-2.929079771 -3.36240387 0.3864231706
-2.949721336 -3.383712053 0.5460312366
-2.938029289 -3.367927551 0.7011908889
-2.957070112 -3.388558626 0.8659541011
-2.968852997 -3.399666786 1.032072067
-2.960039616 -3.387185574 1.193725586
-2.15200305 -2.456483126 -0.8634724617
-2.394718647 -2.731615305 -0.8287162781
-2.898028374 -3.304568529 -0.8461099267
-2.903709173 -3.30871439 -0.6905533671
-2.909706354 -3.313216209 -0.5362817049
-2.915524721 -3.318671465 -0.3827626109
-2.924991846 -3.327106714 -0.2299653441
-2.938318491 -3.341087818 -0.07696332037
-2.924574375 -3.337187767 0.07675388455
-2.944042921 -3.358220339 0.231849432
-2.942112684 -3.35365653 0.3865974844
-2.953655958 -3.364444733 0.5445687771
-2.959609985 -3.370040417 0.7036938667
-2.96239996 -3.37084198 0.864045918
-2.985850573 -3.395135403 1.033871651
-2.968703747 -3.374450207 1.192690253
-2.152896404 -2.440263987 -0.8603665829
-2.362500191 -2.676903963 -0.8143194318
-2.90954566 -3.294432163 -0.8461099267
-2.9185884 -3.303508997 -0.6914919615
-2.921992302 -3.305036068 -0.5365254283
-2.929731846 -3.311458826 -0.3831112683
-2.933361769 -3.314397335 -0.2297559977
-2.945985794 -3.326319456 -0.07685860246
-2.940916777 -3.333468914 0.07689350843
-2.942528725 -3.332950592 0.2308027148
-2.955120564 -3.344859123 0.3867717683
-2.95822382 -3.347194195 0.5433501005
-2.972664118 -3.361168146 0.7040067315
-2.974862814 -3.36247015 0.8644275665
-2.986758709 -3.373542786 1.030272484
-2.995837212 -3.38141942 1.198901892
-2.159693956 -2.431666851 -0.8598489165
-2.37182951 -2.668641567 -0.8143194318
-2.917845488 -3.281831026 -0.8453466296
-2.932728052 -3.296252489 -0.692117691
-2.92559123 -3.28592062 -0.5350629687
-2.944672346 -3.306188345 -0.3836342096
-2.948899984 -3.308610678 -0.2300700098
-2.953585148 -3.311539412 -0.07675388455
-2.955191374 -3.326172829 0.07696332037
-2.956799507 -3.325644493 0.2310120612
-2.968844891 -3.338018894 0.3871204257
-2.968569994 -3.335364819 0.5431063771
-2.981751919 -3.347820282 0.7033809423
-2.989193439 -3.354997635 0.865190804
-2.985548019 -3.348550797 1.025773406
-3.012766838 -3.376707077 1.200972438
-2.16945672 -2.425553322 -0.8603665829
-2.391528368 -2.671962023 -0.8179186583
-2.926664591 -3.268700838 -0.8445834517
-2.946852684 -3.288937569 -0.6927434206
-2.943668604 -3.283078909 -0.5362817049
-2.952203751 -3.291440725 -0.3831112683
-2.967102766 -3.305727959 -0.2305933833
-2.961117983 -3.296746016 -0.07664917409
-2.966783285 -3.31583786 0.07696332037
-2.968390226 -3.315302849 0.2310120612
-2.984465837 -3.33208847 0.3876433671
-2.986819506 -3.332373381 0.5443250537
-2.989462376 -3.332980633 0.702442348
-3.00088644 -3.34454298 0.865190804
-3.001123667 -3.342459679 1.027123094
-3.009042263 -3.348925114 1.194760799
-2.16498065 -2.403611898 -0.8551902175
-2.403450251 -2.666492462 -0.81881845
-2.943314791 -3.264297724 -0.8461099267
-2.953022242 -3.272764683 -0.6914919615
-2.956441879 -3.274256229 -0.5365254283
-2.958332777 -3.275200844 -0.3824140131
-2.978623152 -3.295351505 -0.2305933833
-2.984680653 -3.299737215 -0.07696332037
-2.972986221 -3.299518108 0.07682370394
-2.982618809 -3.307888031 0.2312213928
-2.985403538 -3.309813499 0.3862488568
-2.999762535 -3.323400974 0.5445687771
-3.005050659 -3.326922655 0.7033809423
-3.012542963 -3.334047318 0.865190804
-3.028456926 -3.349309206 1.032521963
-3.028490305 -3.346996784 1.197866559
-2.169464111 -2.391747236 -0.8536372781
-2.39964509 -2.643657684 -0.8143194318
-2.95469141 -3.254003525 -0.8461099267
-2.961770535 -3.259513378 -0.6908662319
-2.973195076 -3.269790888 -0.5375003815
-2.972428799 -3.267802238 -0.3827626109
-2.984730005 -3.279025793 -0.2301746756
-2.996180773 -3.289298296 -0.07696332037
-2.984485388 -3.289120436 0.07682370394
-2.999517918 -3.303371191 0.2316401005
-3.004976988 -3.30822134 0.3872947097
-3.010011196 -3.311440468 0.5443250537
-3.019303799 -3.319335222 0.7040067315
-3.018877268 -3.317703009 0.8636643291
-3.037505627 -3.335835457 1.031622171
-3.034950495 -3.330693007 1.195796013
-2.179103136 -2.385585785 -0.8541549444
-2.408858538 -2.635265112 -0.8143194318
-2.968682289 -3.246566772 -0.8468731046
-2.978464603 -3.25498414 -0.692117691
-2.98325038 -3.257928371 -0.5372566581
-2.983816624 -3.257407188 -0.3827626109
-2.962418556 -3.231779814 -0.2275578976
-3.00707221 -3.279344559 -0.07696332037
-2.998645544 -3.281635761 0.07689350843
-3.002370834 -3.284561157 0.2310120612
-3.015161037 -3.296242476 0.3871204257
-3.017530441 -3.296520233 0.5435938835
-3.032962799 -3.312218189 0.7046324015
-3.027787209 -3.304249763 0.8629010916
-3.034643888 -3.309412718 1.026673317
-3.060343504 -3.336270332 1.201490045
-2.195263863 -2.386495829 -0.857260704
-2.418904066 -2.62869668 -0.8147693276
-2.97733736 -3.233296156 -0.8461099267
-2.989242315 -3.245089531 -0.692117691
-2.985965252 -3.239260435 -0.5357941985
-3.011380672 -3.264544725 -0.3848543763
-3.008335114 -3.26010108 -0.2302793711
-3.010361195 -3.260012865 -0.07675388455
-3.012219191 -3.274617195 0.07696332037
-3.011112452 -3.27112174 0.2308027148
-3.029348612 -3.28862834 0.3874690533
-3.03248167 -3.290874958 0.5443250537
-3.040488482 -3.297255516 0.7036938667
-3.044052601 -3.299963236 0.8644275665
-3.058819056 -3.313651085 1.031172276
-3.069349289 -3.322729349 1.200454831
-2.188727617 -2.363610983 -0.8515667319
-2.4280653 -2.620237112 -0.8147693276
-2.982704401 -3.217645884 -0.8445834517
-3.008612156 -3.24332428 -0.6939948797
-3.004005909 -3.236092567 -0.5370129347
-3.004564524 -3.235561609 -0.3825883269
-3.026493549 -3.256896019 -0.2308027148
-3.01843214 -3.24708271 -0.07668407261
-3.026349306 -3.267016649 0.07703312486
-3.021943569 -3.26111865 0.2308027148
-3.038882732 -3.277103424 0.3872947097
-3.046650887 -3.283179283 0.5448125005
-3.046030045 -3.281363249 0.702442348
-3.063570499 -3.297948122 0.866717279
-3.057100058 -3.288679838 1.026673317
-2.190376997 -2.348891973 -0.848978579
-2.443387508 -2.619295597 -0.8170188665
-2.999275923 -3.212955713 -0.8461099267
-3.011261702 -3.224667072 -0.692117691
-3.016076326 -3.227563381 -0.5372566581
-3.015841246 -3.22505331 -0.3825883269
-3.034548998 -3.243925095 -0.2305933833
-3.035214901 -3.242366076 -0.07682370394
-3.037166595 -3.256962538 0.07703312486
-3.04148531 -3.259310722 0.2314307541
-3.043504238 -3.259194613 0.3864231706
-3.060231686 -3.275959492 0.5453000069
-3.064210415 -3.27792573 0.7040067315
-3.074489832 -3.28777051 0.866717279
-3.0852983 -3.297022581 1.032521963
-2.20079875 -2.344432354 -0.8500138521
-2.447177887 -2.605069876 -0.8152192235
-3.015291929 -3.208714724 -0.8476364017
-3.022499084 -3.214136839 -0.692117691
-3.035486937 -3.22568965 -0.5387191176
-3.035275221 -3.22320962 -0.3836342096
-3.040375471 -3.227497339 -0.2301746756
-3.052000284 -3.23757267 -0.07696332037
-3.045779467 -3.243425608 0.07696332037
-3.055578709 -3.251585722 0.2316401005
-3.055660009 -3.25053525 0.3865974844
-3.068927288 -3.262366295 0.5448125005
-3.076988935 -3.268647432 0.7043195367
-3.075179577 -3.265584707 0.8636643291
-3.0874331 -3.27630353 1.029372573
-2.212030888 -2.339158297 -0.8510490656
-2.457596302 -2.597926855 -0.8156691194
-3.027032375 -3.197641611 -0.8476364017
-3.034260035 -3.203036308 -0.692117691
-3.037169933 -3.204987764 -0.5370129347
-3.043766022 -3.209703684 -0.3832855523
-3.052184582 -3.216331959 -0.2301746756
-3.064659595 -3.228349447 -0.07699821889
-3.057081938 -3.232774973 0.07696332037
-3.064164639 -3.237998724 0.2314307541
-3.077143431 -3.249440908 0.387817651
-3.076200962 -3.247310162 0.5440813303
-3.09381485 -3.263621569 0.7055709958
-3.092532396 -3.259989262 0.865190804
-3.110153437 -3.276273251 1.032971859
-2.216185808 -2.327225208 -0.8494961858
-2.45634675 -2.577615738 -0.8120698929
-3.035465479 -3.184214115 -0.8468731046
-3.050875902 -3.19814229 -0.6933691502
-3.043413401 -3.188090563 -0.5360379219
-3.060455561 -3.204823017 -0.3839828372
-3.068912983 -3.211434364 -0.2305933833
-3.079236031 -3.219985723 -0.07706803083
-3.07166934 -3.224443197 0.07703312486
-3.070498943 -3.220964432 0.2310120612
-3.091217279 -3.241563559 0.3881663084
-3.08945322 -3.237449884 0.5443250537
-3.10029912 -3.24654603 0.7043195367
-3.109318018 -3.254852533 0.866717279
-3.10541153 -3.248492956 1.027572989
-2.21226263 -2.306925774 -0.8448374271
-2.520650148 -2.626674414 -0.8305159211
-3.042484045 -3.169349194 -0.8457282186
-3.067494869 -3.193172693 -0.6946206689
-3.062777996 -3.186034203 -0.5375003815
-3.064718008 -3.18694067 -0.3831112683
-3.080104351 -3.20070219 -0.2305933833
-3.083521605 -3.2020154 -0.07689350843
-3.085674763 -3.216587543 0.0771029368
-3.087256908 -3.215989113 0.2314307541
-3.09837389 -3.226442099 0.3876433671
-3.106236696 -3.232370853 0.5453000069
-3.10613513 -3.230009556 0.7030680776
-3.126104593 -3.249638319 0.8682436943
-3.132950544 -3.2544806 1.032971859
-2.212249994 -2.290851355 -0.8417316079
-2.536575079 -2.62486577 -0.8327654004
-3.054893494 -3.160121202 -0.8461099267
-3.06214118 -3.165407181 -0.6908662319
-3.076641321 -3.17817688 -0.5379878879
-3.077210426 -3.17765379 -0.3832855523
-3.096817017 -3.195668936 -0.2310120612
-3.09829855 -3.196079731 -0.07699821889
-3.094104528 -3.202921152 0.07703312486
-3.10068059 -3.208605766 0.2316401005
-3.104076624 -3.209878922 0.3869461119
-3.120261908 -3.22436142 0.5457874537
-3.125072956 -3.228206873 0.7049453259
-3.140222788 -3.239326954 1.031622171
-2.236394405 -2.299735069 -0.8479432464
-2.557494402 -2.629011631 -0.8368145227
-3.07959938 -3.163506746 -0.8499261141
-3.080889702 -3.163727045 -0.6927434206
-3.089934587 -3.170800209 -0.5384753346
-3.093848467 -3.1725986 -0.3839828372
-3.104607821 -3.182522058 -0.2308027148
-3.085689545 -3.160919428 -0.07640483975
-3.101920843 -3.189775705 0.07696332037
-3.120219231 -3.206350803 0.2322681099
-3.124992371 -3.209015608 0.3881663084
-3.130937099 -3.213996172 0.5457874537
-3.140460253 -3.221521616 0.7058839202
-3.192013502 -3.273262262 0.8804554939
-3.157752275 -3.235868692 1.033871651
-2.237251282 -2.285403967 -0.8453550339
-2.577566147 -2.631204367 -0.8404137492
-3.090073109 -3.153276682 -0.8499261141
-3.100214005 -3.161415339 -0.6946206689
-3.112726212 -3.170851946 -0.3850286603
-3.110099316 -3.165966272 -0.2303840369
-3.128391504 -3.183473825 -0.07720764726
-3.118632555 -3.184643269 0.0771029368
-3.123846769 -3.188852787 0.2317447662
-3.128642797 -3.191521168 0.3872947097
-3.136575699 -3.197380304 0.5448125005
-3.153891802 -3.213909864 0.7065096498
-3.160271168 -3.217039347 1.031172276
-2.248885632 -2.282100201 -0.8469079733
-2.602696896 -2.639293432 -0.8458126187
-3.097755194 -3.140216827 -0.849162817
-3.110680103 -3.15111804 -0.6946206689
-3.13181591 -3.166996241 -0.2312213928
-3.134711981 -3.168817282 -0.0771029368
-3.131984234 -3.177132368 0.07717274874
-3.130196333 -3.17421031 0.2314307541
-3.149005651 -3.191055536 0.3885149062
-3.159715176 -3.199673653 0.5470061898
-3.158979654 -3.197812319 0.7052581906
-0.9727557302 -0.9840263128 0.2607079148
-3.170922041 -3.206541538 1.031172276
-1.090481162 -1.101961136 0.4038097858
-2.260522842 -2.278744698 -0.8484609127
-2.623790741 -2.643095255 -0.8498616815
-3.103163481 -3.123813391 -0.8476364017
-3.123897076 -3.143587112 -0.6952463388
-3.121873856 -3.139358759 -0.5384753346
-3.120182991 -3.13546896 -0.3832855523
-3.145670652 -3.158875704 -0.2314307541
-3.145753622 -3.157856464 -0.0771029368
-3.15095377 -3.175244808 0.07738216966
-3.149701357 -3.171767712 0.2320587784
-3.156761885 -3.177768469 0.3881663084
-3.173107386 -3.191993713 0.5474936962
-3.1701231 -3.186765671 0.7052581906
-0.9193965197 -0.9235782623 0.2450615615
-3.191721201 -3.20511961 1.034321547
-3.26796174 -3.279390097 1.22892499
-2.252473116 -2.254045963 -0.8422492743
-2.6472404 -2.6472404 -0.8543606997
-3.120715141 -3.115273714 -0.5362817049
-3.140117407 -3.132454395 -0.384331435
-3.165714264 -3.155785322 -0.2320587784
-3.157306433 -3.146305323 -0.0771029368
-3.156915188 -3.158018589 0.07724255323
-3.159892797 -3.158789635 0.2319540977
-3.158522844 -3.156318903 0.3869461119
-3.183380365 -3.178939104 0.5472499132
-3.188773394 -3.182102203 0.7068225741
-0.9088737369 -0.9063393474 0.241245389
-3.196546316 -3.186520576 1.032072067
-3.197841406 -3.18558526 1.197866559
-2.259349108 -2.244413614 -0.8417316079
-2.6472435 -2.627910137 -0.8512114286
-3.065515041 -3.042063236 -0.8312268257
-3.069710732 -3.04410243 -0.6780385971
-3.082761049 -3.054909229 -0.5277508497
-3.080260038 -3.051365376 -0.375615865
-3.173872232 -3.141905308 -0.231849432
-3.176799059 -3.143703699 -0.07731236517
-3.165631771 -3.143607855 0.07717274874
-3.170898914 -3.147741079 0.2319540977
-3.177142382 -3.151736498 0.387817651
-3.199240208 -3.171442747 0.547981143
-1.050271869 -1.040783048 0.2275072485
-0.9148219824 -0.9059240818 0.2420086116
-1.061201215 -1.050145864 0.3347237408
-3.247396231 -3.212445021 1.212360501
-2.263043642 -2.232443094 -0.8401786685
-3.137643576 -3.091976881 -0.8480179906
-3.106526136 -3.060245275 -0.6839830875
-3.099948168 -3.051632881 -0.5289695263
-3.102255106 -3.051772118 -0.3770103455
-3.172881365 -3.120160103 -0.2310120612
-3.192031384 -3.136801004 -0.07741708308
-3.178885937 -3.135901451 0.07724255323
-3.184713125 -3.139457226 0.2321634442
-1.034947038 -1.019528389 0.123387143
-1.068322539 -1.052039027 0.1789607406
-1.034186721 -1.017713189 0.223127082
-0.912222743 -0.8973781466 0.2404821366
-1.011868715 -0.9947084188 0.3176274896
-2.271814346 -2.226278305 -0.8406963348
-2.755570889 -2.698455095 -0.8804550171
-3.163311958 -3.096662283 -0.8522158265
-3.16378808 -3.094967604 -0.6943077445
-3.176481962 -3.104130983 -0.3848543763
-3.182323694 -3.107670784 -0.2309073806
-3.202668667 -3.137381077 0.07755669951
-3.239896536 -3.171633244 0.2354082912
-1.029778242 -1.007729769 0.1223412901
-1.032249093 -1.009442091 0.1721360683
-1.063163638 -1.03894794 0.2287587225
-0.9237758517 -0.9024198055 0.242771849
-1.002784848 -0.9789185524 0.3135783672
-2.28234005 -2.221029758 -0.8417316079
-2.668576002 -2.595076084 -0.8494117856
-3.165655136 -3.077391148 -0.8499261141
-3.183074474 -3.092162848 -0.6961849332
-3.182423353 -3.089373589 -0.5394502878
-3.195877075 -3.101349115 -0.385900259
-3.210980892 -3.111656904 -0.07734727114
-1.013285756 -0.9846896529 0.1199009195
-1.032917976 -1.003067017 0.1716485769
-1.046937108 -1.015970826 0.224378556
-0.9353750944 -0.9073919654 0.2450615615
-0.9488284588 -0.9197999239 0.2951323688
-1.002504349 -0.9711549878 0.3623987138
-2.285911322 -2.209021807 -0.8401786685
-2.628554583 -2.538366079 -0.8336651921
-3.185317755 -3.072804689 -0.6943077445
-3.197475672 -3.082377672 -0.540181458
-3.200943947 -3.084645271 -0.3852030039
-2.783858776 -2.680839062 -0.2003431916
-3.218400955 -3.098217964 -0.07727746665
-2.839051008 -2.742598057 0.068202205
-1.013849616 -0.9783793092 0.1195522919
-0.987829864 -0.9526045918 0.16336146
-0.9706593156 -0.9357190132 0.2068579048
-0.9272254705 -0.8932248354 0.2420086116
-0.9534373283 -0.9178336859 0.2955822647
-0.9556071162 -0.9196017385 0.3437637687
-2.296396494 -2.203704357 -0.8412139416
-2.551174164 -2.447343111 -0.8062211871
-2.549306154 -2.443843126 -0.6781979799
-2.546557903 -2.440355778 -0.5519523621
-2.549602032 -2.441566467 -0.4283054471
-2.775414705 -2.655025244 -0.199087128
-2.840916395 -2.726245165 0.0680276826
-0.952942431 -0.9138390422 0.06699115783
-0.9482100606 -0.9086657166 0.1111853495
-0.9580133557 -0.9177395105 0.1577554792
-0.9453807473 -0.9050053954 0.2006005347
-0.9230902791 -0.8833582401 0.2401005179
-0.9635177851 -0.9214011431 0.2978317738
-0.953224957 -0.9109214544 0.3416931927
-2.307886362 -2.200075865 -0.842766881
-2.547002792 -2.426326036 -0.8021720648
-2.557396173 -2.435375929 -0.6781979799
-2.563646793 -2.439622402 -0.5538296103
-2.571056366 -2.444962502 -0.4304990768
-2.579272985 -2.451920271 -0.3076343834
-2.773081303 -2.634316206 -0.1982497424
-3.252464533 -3.088632584 -0.07759159803
-2.856204987 -2.721830368 0.06816729903
-0.9487370849 -0.903785944 0.06646779925
-0.9541041851 -0.9082637429 0.1115339622
-0.9468284249 -0.9007078409 0.1553180963
-0.9440824389 -0.8977812529 0.1996619105
-0.9304376841 -0.8841879368 0.241245389
-0.9483577013 -0.9005874395 0.2919830382
-0.9590423107 -0.9104155898 0.3427284658
-2.319760323 -2.195991278 -0.8443198204
-2.560696602 -2.423223972 -0.8039717078
-2.563028336 -2.423736811 -0.6774347425
-2.577464819 -2.436535358 -0.5550810695
-2.576262712 -2.433698177 -0.4300116003
-2.58636713 -2.441534281 -0.3074600697
-2.81375885 -2.655262709 -0.2005525231
-0.9061867595 -0.8578377962 0.02108070999
-0.9518861175 -0.9004687071 0.06646779925
-0.9398946762 -0.8885035515 0.109442234
-0.9512529373 -0.8989264369 0.1555618197
-0.9515190125 -0.8985493779 0.2006005347
-0.9347922802 -0.8824452162 0.2416269928
-0.9513390064 -0.8974375725 0.2919830382
-0.969243288 -0.9136878848 0.3453166485
-2.328437328 -2.189610004 -0.8448374271
-3.189207554 -2.995914221 -0.8422937393
-2.610438108 -2.450507164 -0.5603998303
-2.583295345 -2.423331738 -0.4297678471
-2.585729361 -2.424766779 -0.306414187
-3.265190125 -3.057649851 -0.07738216966
-0.894605875 -0.840972662 0.02073166333
-0.9535676837 -0.8957732916 0.06636312604
-0.9530025721 -0.8949289322 0.1106624082
-0.958727479 -0.8996759057 0.1562930495
-0.9532087445 -0.8938711286 0.2002876401
-0.943596065 -0.8845478296 0.2431534678
-0.9373995662 -0.8781241775 0.2865842283
-0.9611437917 -0.8997373581 0.3411755264
-2.35583353 -2.199927807 -0.8520843387
-3.206823587 -2.991458893 -0.8442018032
-3.248966932 -3.028651953 -0.6968107224
-3.260523558 -3.036236048 -0.386074543
-3.265016794 -3.038291454 -0.2315354198
-3.287559032 -3.057127714 -0.07766140997
-2.892852783 -2.700461626 0.06837673485
-0.9815166593 -0.9155997038 0.0681425482
-0.9575778246 -0.8929556608 0.1108367145
-0.9647667408 -0.8990300894 0.1567805111
-0.9592142701 -0.8932310343 0.2009133995
-0.9380559921 -0.8732222319 0.2408637553
-0.9533006549 -0.8867923021 0.2906333506
-0.9572039843 -0.8898003697 0.3385873437
-2.505153179 -2.3230474 -0.9038481712
-3.215806723 -2.978911877 -0.8438202143
-3.2595191 -3.017292261 -0.6968107224
-3.269017458 -3.02396512 -0.5416439176
-3.272564888 -3.026188612 -0.3862488568
-3.290271521 -3.040430784 -0.232582137
-3.287926435 -3.036136866 -0.07741708308
-2.899327993 -2.687628984 0.06830692291
-1.002289414 -0.9284550548 0.06939861178
-0.9519175887 -0.881485641 0.1097908542
-0.9591571689 -0.8875675201 0.1553180963
-0.963776648 -0.8912183642 0.2012262642
-0.9324486256 -0.8619465232 0.2385740429
-0.9578217864 -0.8847815394 0.2910832465
-0.9603042603 -0.8864536285 0.3385873437
-2.507561922 -2.309054613 -0.9017776251
-3.230519533 -2.971656561 -0.8449650407
-3.278758287 -3.013916254 -0.6986879706
-3.276628971 -3.009851217 -0.5411564708
-3.296317577 -3.026874304 -0.387817651
-3.305278301 -3.032978535 -0.2328961492
-3.311769485 -3.036804914 -0.07773122936
-2.914577007 -2.682909012 0.06844653934
-1.017283559 -0.9357681274 0.07023598999
-0.9593884945 -0.8822031617 0.1103137881
-0.9578644633 -0.8801845312 0.1545868665
-0.9697920084 -0.8905205727 0.2018519938
-0.932559073 -0.8560311794 0.2378108203
-0.9709569216 -0.890653789 0.2942325473
-0.9719370604 -0.8909286857 0.3416931927
-3.236524343 -2.956389427 -0.8438202143
-3.289258718 -3.002452612 -0.6986879706
-3.284182072 -2.995719194 -0.5406689644
-3.311280012 -3.019376993 -0.3883405924
-2.935732126 -2.683512449 0.06872577965
-1.02496779 -0.9362525344 0.07055000961
-0.9654047489 -0.8815358281 0.1106624082
-0.9623971581 -0.8781738281 0.1548306048
-0.9670560956 -0.8818061352 0.2006005347
-0.9485996962 -0.8646740317 0.241245389
-0.9668566585 -0.880697608 0.2919830382
-0.9764698744 -0.888830781 0.3422108293
-3.249732971 -2.947711945 -0.8445834517
-3.308499813 -2.998912811 -0.7005650997
-3.301976204 -2.990899801 -0.5418877006
-3.31293726 -2.99977684 -0.3872947097
-3.122265816 -2.82316494 -0.07277473807
-2.948043346 -2.675935507 0.06879559159
-1.054857969 -0.9568223953 0.07243409753
-0.9684762359 -0.8781602979 0.1106624082
-0.9669278264 -0.8761419654 0.1550743431
-0.9642708898 -0.8731217384 0.1993490458
-0.9632564187 -0.8718973398 0.244298324
-0.9771509767 -0.8838537335 0.2942325473
-0.9681011438 -0.8750534058 0.3380697072
-3.292094469 -2.965257168 -0.8529790044
-3.313075304 -2.982059717 -0.6993136406
-3.319254875 -2.986572266 -0.5431063771
-3.318943024 -2.984197617 -0.3867717683
-3.142024755 -2.822149515 -0.07301907241
-2.945482731 -2.654918909 0.06851635128
-1.080281854 -0.9733732939 0.07400418073
-0.9611711502 -0.8654423952 0.109442234
-0.9773589373 -0.8794000745 0.1562930495
-0.9745044112 -0.8765243292 0.2009133995
-0.9633741379 -0.8659046888 0.2435350865
-0.9844253063 -0.8845158815 0.2955822647
-0.9738726616 -0.87441957 0.33910501
-3.319466829 -2.97003293 -0.8575584292
-3.335059881 -2.980840921 -0.5440813303
-3.330307722 -2.974502802 -0.3869461119
-3.243967533 -2.895352364 -0.2256737947
-3.140921116 -2.802395105 -0.07277473807
-2.991515875 -2.678484201 0.06938897073
-1.116244435 -0.9990898967 0.07630696148
-0.9699759483 -0.8675632477 0.1101394817
-0.9699090123 -0.8668942451 0.1545868665
-0.9729865193 -0.8693394661 0.1999747753
-0.954524219 -0.8522449136 0.2404821366
-0.9946224689 -0.8877346516 0.2978317738
-0.9782086611 -0.8724710941 0.3396226466
-0.944634676 -0.8404568434 -0.3271993399
-3.335167408 -2.964225769 -0.8590849042
-3.337211132 -2.963956356 -0.7002522349
-3.347604752 -2.970053911 -0.387817651
-3.158168316 -2.798044682 -0.07294926792
