# .PCD v0.7 - Point Cloud Data file format
VERSION 0.7
FIELDS x y z
SIZE 4 4 4
TYPE F F F
COUNT 1 1 1
WIDTH 1261
HEIGHT 1
VIEWPOINT 0 0 0 1 0 0 0
POINTS 1261
DATA ascii
5.77337265 -2.868439436 1.014372706
5.755491257 -2.860807657 1.241084695
5.569459438 -2.770764112 1.426186323
2.612293482 -1.304719329 -0.7708151937
2.95822072 -1.478784323 -0.7535826564
3.432435274 -1.71658814 -0.7377303839
4.053150177 -2.028781652 -0.7112026811
4.973611355 -2.491684437 -0.677893877
5.2779603 -2.645310163 -0.5127990246
5.248687267 -2.632931471 -0.3055384457
5.791994572 -2.908004999 -0.1124266088
5.806510925 -2.901348829 0.1126011238
5.784225464 -2.89273715 0.3367306888
5.682262897 -2.845465183 0.7751456499
5.773920536 -2.893885136 1.016249895
5.778813839 -2.897599936 1.248335361
5.772243023 -2.896826744 1.481074452
5.723598957 -2.874916553 1.704634309
2.605997801 -1.312960744 -0.7702975273
2.956520557 -1.49085629 -0.7544824481
3.415904999 -1.723253369 -0.7354406714
4.03546381 -2.037575483 -0.7093254924
5.018034458 -2.535891056 -0.685205996
5.348707199 -2.704170227 -0.5206430554
5.255503654 -2.659352779 -0.3064804971
5.785377026 -2.930012226 -0.1124964207
5.783847809 -2.915299416 0.1123567969
5.774092674 -2.912910223 0.3367306888
5.773291588 -2.916299343 0.7890387177
5.762021065 -2.913130999 1.01593709
5.751145363 -2.908893347 1.244519114
5.769050121 -2.920478582 1.482874036
5.727315426 -2.901863098 1.70877552
2.596232176 -1.319423556 -0.7687446475
2.954772711 -1.502934337 -0.7553822398
3.425616741 -1.743180156 -0.7388752699
4.021285534 -2.048063278 -0.7080740333
4.920722961 -2.508315563 -0.6730191112
5.506077766 -2.80790782 -0.5370283127
5.360041142 -2.735792398 -0.3131795228
5.771552086 -2.948369503 -0.1124266088
5.761158943 -2.929126978 0.1121124625
5.767449856 -2.934859753 0.3369400501
5.737082005 -2.920667171 0.5595145226
5.748927116 -2.92922473 0.7870888114
5.755336761 -2.935021162 1.016562819
5.730463982 -2.923597574 1.242229462
5.743200302 -2.932622671 1.478824854
5.72231102 -2.924474716 1.710328341
2.601925611 -1.333765626 -0.7718504667
2.947774649 -1.512349725 -0.754932344
3.407284498 -1.748851776 -0.7362039089
4.024654388 -2.067503452 -0.7099512219
4.947246075 -2.5436306 -0.677893877
5.775659561 -2.972109795 -0.5645695329
5.428592205 -2.794709921 -0.3177850842
5.757669449 -2.966666222 -0.1123567969
5.758016109 -2.952869415 0.112252079
5.73940134 -2.94585371 0.335893333
5.753437519 -2.954326868 0.5621291399
5.745729446 -2.952903748 0.7880637646
5.738029957 -2.951479435 1.01531136
5.716732025 -2.941786051 1.241466284
5.715604305 -2.943729639 1.474325895
5.71035099 -2.943546295 1.709810734
2.600451708 -1.345068216 -0.7728857398
2.930362225 -1.516360879 -0.7517830133
3.40782547 -1.764939904 -0.7377303839
4.013542652 -2.08042264 -0.7093254924
4.931288242 -2.557228804 -0.6769189239
5.765250206 -2.992252588 -0.5645695329
5.756839752 -2.9904387 -0.337777406
5.736632347 -2.981213331 -0.112147361
5.744122028 -2.971112967 0.1121822745
5.723762035 -2.963115215 0.3355793059
5.740801811 -2.974477768 0.5619548559
5.724812508 -2.967460632 0.7866013646
5.720678329 -2.967851639 1.014059782
5.70242691 -2.960909605 1.240702987
5.697859764 -2.961063862 1.472526193
5.708612442 -2.967917204 1.712399006
2.595740557 -1.354137421 -0.7728857398
2.94378686 -1.537012458 -0.7567319274
3.405123711 -1.778642535 -0.7384936213
4.006256104 -2.094419956 -0.7093254924
4.939470768 -2.58448863 -0.679356277
5.828907013 -3.051165819 -0.5718905926
5.769365311 -3.02256465 -0.3391381502
5.727962494 -3.002148151 -0.1121822745
5.729648113 -2.990295887 0.1121124625
5.711613655 -2.982152462 0.3354746103
5.709193707 -2.983425856 0.5598630905
5.701584339 -2.981983185 0.7848951817
5.699781895 -2.982307673 1.012182593
5.695534706 -2.982618332 1.241466284
5.694393158 -2.984553814 1.474325895
5.684529781 -2.980648994 1.708257794
2.585868835 -1.360491395 -0.7713328004
2.931776047 -1.543135405 -0.754932344
3.39542079 -1.788687706 -0.7377303839
4.002783775 -2.109535456 -0.7099512219
4.973012447 -2.623081446 -0.685205996
5.814697266 -3.069633961 -0.5715420246
5.80876112 -3.067796469 -0.3420689702
5.797004223 -3.064175844 -0.1137529835
5.716161251 -3.007417917 0.112042658
5.706470966 -3.004863262 0.3357886374
5.688169956 -2.997762918 0.5588172674
5.702200413 -3.006429195 0.7863576412
5.685842991 -3.000341654 1.011556864
5.675195694 -2.995990038 1.239176512
5.67929554 -3.000689507 1.472976089
5.663843632 -2.99505496 1.705151916
2.581343174 -1.369058847 -0.7713328004
2.934978008 -1.557928085 -0.7571818829
3.396406174 -1.803620577 -0.7392568588
4.002372742 -2.127203226 -0.7112026811
4.928774834 -2.621779442 -0.6803312302
5.809762478 -3.09170723 -0.5720649362
5.787439823 -3.082420826 -0.3414409459
5.788037777 -3.085333347 -0.1137878969
5.772753239 -3.062968016 0.1133690327
5.717114925 -3.03600502 0.3370447159
5.681716442 -3.018478632 0.559165895
5.674143791 -3.016995907 0.7839202285
5.675335407 -3.020170927 1.011556864
5.654305458 -3.010246038 1.23688674
5.668787003 -3.020495653 1.472976089
5.643127441 -3.009353161 1.702046156
2.588473082 -1.384438992 -0.7749563456
2.919213295 -1.562645435 -0.7544824481
3.395281792 -1.818246007 -0.7404017448
3.991440773 -2.139294624 -0.7105769515
4.954579353 -2.657735348 -0.685205996
5.823513031 -3.125157833 -0.5745052695
5.787202358 -3.108274221 -0.3420689702
5.773709774 -3.103624821 -0.113718085
5.772604942 -3.088760853 0.1135784686
5.754020691 -3.08140111 0.3398708403
5.751931667 -3.081573963 0.5671842098
5.723060131 -3.068677664 0.7922073007
5.678682804 -3.047435522 1.014059782
5.654141903 -3.035537004 1.239176512
5.64447546 -3.032886267 1.469376922
5.634289265 -3.029947996 1.702563763
2.590425968 -1.397134304 -0.7770268321
2.920600414 -1.576528549 -0.7562820315
3.383731842 -1.827287912 -0.7392568588
3.992638111 -2.157910824 -0.712141335
4.910351276 -2.656124592 -0.6803312302
5.859326363 -3.172091961 -0.5792117119
5.825491428 -3.15508914 -0.3449997604
5.794486046 -3.14091301 -0.1143463776
5.763547897 -3.109841347 0.1136133671
5.739715099 -3.099569321 0.3396615088
5.749905109 -3.106368542 0.5680558085
5.738506317 -3.1027987 0.7958634496
5.720129967 -3.095443726 1.023445845
5.705665112 -3.088903427 1.252914786
5.67154932 -3.072994471 1.479274869
5.623678684 -3.049597025 1.702563763
2.571712255 -1.399233103 -0.7728857398
2.915079355 -1.586713791 -0.7562820315
3.380460024 -1.841555953 -0.7400200963
3.986436129 -2.173475504 -0.7124541402
4.935904026 -2.692260027 -0.685205996
5.853464603 -3.195389271 -0.5797346234
5.855953217 -3.199401855 -0.3475118876
5.823844433 -3.18317914 -0.1151491851
5.794814587 -3.152878284 0.114451088
5.749908924 -3.131047726 0.3409175575
5.738481045 -3.127422333 0.5680558085
5.734611988 -3.12661171 0.7968384027
5.709290028 -3.115391731 1.023445845
5.711535454 -3.11920476 1.256730914
5.709837437 -3.120865583 1.492321849
5.604524136 -3.064574242 1.69997561
2.573587179 -1.411918283 -0.7749563456
2.919493198 -1.603014946 -0.7589814663
3.375731945 -1.854290128 -0.7404017448
3.985749483 -2.191184044 -0.7137055993
4.926002979 -2.71033287 -0.685205996
5.831802368 -3.210037708 -0.5786887407
5.834254265 -3.214041471 -0.3468838632
5.817391872 -3.207399607 -0.115253903
5.81477356 -3.191414595 0.1150793731
5.787410259 -3.179025412 0.3438483775
5.748482227 -3.158948183 0.5701475143
5.743985653 -3.15908885 0.7997632027
5.703024864 -3.139153957 1.024384499
5.697173119 -3.137228966 1.255967736
5.698909283 -3.140777588 1.492321849
5.586488247 -3.081363201 1.697905064
2.568643093 -1.420893073 -0.7749563456
2.91388011 -1.613196015 -0.7589814663
3.374390841 -1.868915915 -0.7415465713
3.971165419 -2.201252937 -0.7124541402
4.916512489 -2.727511168 -0.685205996
5.822303772 -3.231341839 -0.5788630843
5.819506645 -3.232447624 -0.3466745317
5.79916954 -3.223800182 -0.1151142716
5.808847427 -3.214596987 0.115184091
5.800738335 -3.212755442 0.3453137875
5.78447485 -3.205067158 0.5748539567
5.750284672 -3.188746691 0.8022006154
5.754211903 -3.193551064 1.03564775
5.710217953 -3.170438766 1.261310339
5.684504032 -3.15875864 1.491422176
5.568944931 -3.097089052 1.695834517
2.573790312 -1.435496688 -0.7780621052
2.884408951 -1.610060215 -0.7526828647
3.37470293 -1.884512067 -0.7430730462
3.977252245 -2.222810984 -0.7149570584
4.906961441 -2.744656563 -0.685205996
5.802295685 -3.246781349 -0.5779915452
5.799475193 -3.247862101 -0.3461511433
5.798347473 -3.249889374 -0.1153237075
5.792351723 -3.23193121 0.1150793731
5.782513618 -3.229089022 0.3448950946
5.78542757 -3.232041121 0.5760741234
5.761642933 -3.221393347 0.8053691983
5.780953884 -3.234839439 1.042530894
5.757361412 -3.222957373 1.274285316
5.663242817 -3.17286706 1.488722682
5.564840317 -3.120288849 1.697905064
2.565396309 -1.442578435 -0.7770268321
2.892357111 -1.627764702 -0.7562820315
3.364682674 -1.894354224 -0.7423098087
3.986679077 -2.246378183 -0.7180858254
4.918100357 -2.773469687 -0.6881309152
5.797867775 -3.270931005 -0.5786887407
5.7846241 -3.266122341 -0.3459418118
5.769557953 -3.260272026 -0.1149746552
5.777549744 -3.250169516 0.1150095612
5.753802299 -3.2394557 0.3438483775
5.76543045 -3.247327328 0.5752025247
5.762468338 -3.248309135 0.8070754409
5.752422333 -3.245292664 1.039402246
5.73752737 -3.238209724 1.272377372
5.643649101 -3.187823534 1.486473203
5.545506001 -3.134941339 1.695316911
2.557237148 -1.449172735 -0.775991559
2.905589342 -1.647922397 -0.7612309456
3.354967117 -1.903563738 -0.7415465713
3.979207993 -2.259586334 -0.7180858254
4.888165951 -2.777992964 -0.685205996
5.7765975 -3.284231663 -0.5776429176
5.763346195 -3.279360294 -0.3453137875
5.751764297 -3.275428534 -0.1148350388
5.761520863 -3.266352177 0.1149048507
5.758662701 -3.267388582 0.3447904289
5.754630089 -3.266428232 0.5752025247
5.758569241 -3.27132225 0.8080503345
5.734760284 -3.260445356 1.038150787
5.736996174 -3.263041973 1.274666905
5.631353378 -3.205557108 1.486023307
5.531722546 -3.151401281 1.694281578
2.557195187 -1.460965276 -0.7775444984
2.88966918 -1.652251244 -0.7585315704
3.361935377 -1.92306149 -0.7445995212
3.954152346 -2.263648033 -0.7149570584
4.895663738 -2.80490756 -0.6876434684
5.747811317 -3.294467449 -0.5758997798
5.758793831 -3.303433418 -0.3457324803
5.736826897 -3.293494463 -0.1147652268
5.753556252 -3.288428068 0.1149746552
5.726418495 -3.275569916 0.3435343802
5.720712662 -3.273631573 0.5729364753
5.735056877 -3.284497976 0.8063442111
5.723343849 -3.28044343 1.038150787
5.720462322 -3.280118465 1.273522139
5.621819496 -3.226164579 1.486473203
5.512312412 -3.165880442 1.691693425
2.553753614 -1.470846653 -0.7780621052
2.885572433 -1.66330111 -0.7589814663
3.365406752 -1.940669537 -0.7468892336
3.980444908 -2.297184944 -0.7212145329
4.90303278 -2.831908464 -0.6900808215
5.74145174 -3.317501307 -0.5764226913
5.7368536 -3.31751585 -0.3451044261
5.728757381 -3.315503359 -0.1148350388
5.728181362 -3.3005054 0.1146954224
5.733981609 -3.306513786 0.3446857631
5.719605923 -3.29955411 0.573982358
5.714960575 -3.299534082 0.8051254749
5.713568687 -3.301390171 1.038463593
5.691980362 -3.290241003 1.269705892
5.612211227 -3.246744871 1.486923099
5.499555588 -3.18413496 1.691175699
2.541921616 -1.475872159 -0.775991559
2.876379013 -1.671405435 -0.7580816746
3.345033646 -1.94451201 -0.7438362837
3.975816965 -2.313051701 -0.7218402028
4.893117428 -2.849005461 -0.6900808215
5.728115559 -3.336519957 -0.5762484074
5.718336105 -3.333497763 -0.3446857631
5.720603943 -3.337495565 -0.1149048507
5.721813202 -3.323493242 0.1148001403
5.694777489 -3.310448885 0.3430109918
5.704608917 -3.317495823 0.5736337304
5.689682961 -3.311474562 0.8031755686
5.700303078 -3.320319653 1.038150787
5.677068233 -3.308113337 1.268942714
5.587376118 -3.258461475 1.483323812
5.488407612 -3.203312397 1.691175699
2.545090675 -1.48961544 -0.7785797715
2.875571728 -1.684390426 -0.7594313622
3.346694946 -1.961139441 -0.7457444072
3.957494736 -2.320919752 -0.7199630141
4.883142948 -2.866068602 -0.6900808215
5.719283581 -3.359510422 -0.5765970349
5.710109711 -3.355462074 -0.3448950946
5.691681385 -3.347306728 -0.1145557985
5.69982338 -3.337383509 0.1145907044
5.688356876 -3.333336592 0.3433250189
5.698149681 -3.340411425 0.574156642
5.678089142 -3.331315279 0.8031755686
5.681864738 -3.336196423 1.036899328
5.663793564 -3.326915264 1.268561125
5.567568302 -3.273006916 1.481074452
5.475527287 -3.22147131 1.690658092
2.5379498 -1.497951388 -0.7780621052
2.867996454 -1.693426728 -0.7589814663
3.324272394 -1.964403152 -0.7423098087
3.96936512 -2.347475767 -0.7237174511
4.866274357 -2.879053116 -0.6891058087
5.70237875 -3.376408815 -0.5760741234
5.687463284 -3.370258808 -0.3442670703
5.669641972 -3.361035585 -0.1143463776
5.698471546 -3.363357782 0.1148001403
5.671527386 -3.350125074 0.3430109918
5.668717384 -3.351134777 0.5724135637
5.666426182 -3.35111475 0.8031755686
5.653184414 -3.345947504 1.033770561
5.658318043 -3.351654053 1.2700876
5.560564041 -3.296372652 1.48242414
5.460925579 -3.238594532 1.68962276
2.522744179 -1.500875115 -0.7749563456
2.863445044 -1.704924345 -0.7594313622
3.314021826 -1.973985672 -0.7415465713
3.944179296 -2.351202726 -0.7205887437
4.889784813 -2.91721034 -0.6939805746
5.680293083 -3.390166521 -0.5750282407
5.677379131 -3.391115427 -0.344371736
5.662434578 -3.384871244 -0.114451088
5.670640469 -3.375016689 0.114485994
5.660927296 -3.371911764 0.3431156874
5.650138855 -3.366822004 0.5717163086
5.657515526 -3.373894691 0.8036630154
5.645971775 -3.36968255 1.034709215
5.644898415 -3.370378494 1.269705892
5.547350407 -3.314762831 1.481974125
5.435754776 -3.250655651 1.685481787
2.530744076 -1.517620206 -0.7790973783
2.860817909 -1.716914773 -0.7603311539
3.334042072 -2.00171113 -0.7476524711
3.952879906 -2.375129938 -0.7237174511
4.869364738 -2.928123474 -0.6925182343
5.659888268 -3.4048388 -0.574156642
5.656951904 -3.405761719 -0.3438483775
5.65229702 -3.405648232 -0.114485994
5.655395031 -3.39273262 0.114416182
5.649122238 -3.391652107 0.3431156874
5.640059948 -3.387550116 0.5718905926
5.632092953 -3.385441065 0.8017131686
5.630790234 -3.387334108 1.034083486
5.607867241 -3.374877453 1.2639817
5.532407284 -3.332095385 1.481074452
5.426029205 -3.270607233 1.685999393
2.523777962 -1.52544558 -0.7785797715
2.838133335 -1.716804028 -0.7558321357
3.321995735 -2.010287523 -0.7465076447
3.934427023 -2.382773638 -0.7218402028
4.869814873 -2.95042634 -0.6939805746
5.656487465 -3.429739237 -0.5750282407
5.64161396 -3.423415422 -0.343639046
5.64439106 -3.426448584 -0.1145557985
5.641807079 -3.411418438 0.1143812761
5.627590656 -3.404163361 0.342487663
5.626496315 -3.40618515 0.5717163086
5.620241642 -3.405079842 0.8017131686
5.621215343 -3.407011509 1.034396291
5.596052647 -3.394432068 1.2639817
5.517994881 -3.348401546 1.480174541
5.416805267 -3.28958559 1.686517
2.525305271 -1.537825346 -0.7806503177
2.842408895 -1.732291102 -0.7585315704
3.318663597 -2.023336649 -0.7472708225
3.953484535 -2.412269831 -0.7268461585
4.860003948 -2.966559172 -0.6939805746
5.643382549 -3.447439671 -0.5748539567
5.630230427 -3.442104578 -0.343639046
5.622762203 -3.438887119 -0.1143463776
5.633879185 -3.432189703 0.114451088
5.604332447 -3.415530682 0.3417549431
5.616871357 -3.425862074 0.5718905926
5.608918667 -3.423698664 0.8017131686
5.603142738 -3.421515465 1.033144832
5.588116169 -3.415018082 1.264744997
5.495222569 -3.359566212 1.47702527
5.414106369 -3.312571526 1.689105153
2.515252113 -1.543160319 -0.7790973783
2.853255749 -1.75190413 -0.7630305886
3.299871683 -2.027713537 -0.7445995212
3.952194214 -2.429504871 -0.7280976176
4.849619389 -2.983505726 -0.6939805746
5.621134758 -3.460850477 -0.573808074
5.614779949 -3.459641457 -0.3434296846
5.600510597 -3.452197552 -0.1141369417
5.619057655 -3.448761225 0.1143812761
5.595779419 -3.437163353 0.3419642746
5.595294952 -3.438210964 0.5708447695
5.592462063 -3.439160347 0.8009819388
5.581071377 -3.434840679 1.031267643
5.57950449 -3.4365623 1.265508175
5.485120773 -3.379750013 1.477475166
5.386066437 -3.321310282 1.683928847
2.499721766 -1.546271324 -0.775991559
2.856756926 -1.76850462 -0.7657299638
3.299093246 -2.043930292 -0.7461259961
3.933188915 -2.437730074 -0.7262203693
5.599947929 -3.476175785 -0.5729364753
5.608848572 -3.484413385 -0.3438483775
5.594613552 -3.476923227 -0.1142765582
5.597877026 -3.464071512 0.1142067462
5.581446171 -3.45659852 0.3418596089
5.575880527 -3.454498291 0.5701475143
5.584880829 -3.462772608 0.8017131686
5.566766262 -3.454232216 1.030954838
5.570207119 -3.459060431 1.266271472
5.472696781 -3.399831057 1.477475166
5.368935585 -3.337968588 1.682375908
2.507150888 -1.563601255 -0.7801327109
2.83041811 -1.766581416 -0.7603311539
3.286942244 -2.05231452 -0.7449811101
3.907475471 -2.441661596 -0.7230916619
4.93533659 -3.086336613 -0.709579885
5.586091042 -3.494645119 -0.5727621913
5.581415653 -3.494431973 -0.3429063261
5.57844305 -3.495281696 -0.1142067462
5.569874287 -3.475039244 0.1138926148
5.573821545 -3.480205774 0.342173636
5.566561699 -3.477023125 0.5704961419
5.562051773 -3.476905584 0.8002507091
5.552393913 -3.473564148 1.030641913
5.546449661 -3.471192837 1.263600111
5.465154171 -3.42296958 1.478824854
5.353391171 -3.355572462 1.681340575
2.508220196 -1.576455235 -0.7822031975
2.817636251 -1.772300482 -0.7585315704
3.29969883 -2.076322794 -0.7495605946
3.922330618 -2.470023632 -0.7274718881
4.823769093 -3.040041447 -0.6949555874
5.580600262 -3.518373251 -0.5734594464
5.567495346 -3.512827635 -0.3428016603
5.572971821 -3.51900363 -0.1143463776
5.564481258 -3.498718023 0.1140322313
5.554878235 -3.495385885 0.3417549431
5.556076527 -3.497493744 0.5706704259
5.541483402 -3.491008997 0.7990320325
5.545248032 -3.496084929 1.031580448
5.530977726 -3.488437414 1.262836814
5.43998909 -3.433704853 1.475225687
5.343278885 -3.375270844 1.681858301
2.509229898 -1.589335799 -0.7842737436
2.824599504 -1.790471435 -0.7621307373
3.28579855 -2.083622694 -0.74803406
3.923692226 -2.490050316 -0.7293490767
4.813127995 -3.056861162 -0.6949555874
5.571648121 -3.539968967 -0.573808074
5.551827908 -3.530097008 -0.3425923288
5.547157288 -3.529846668 -0.1140671298
5.547166824 -3.514909744 0.1139275134
5.527462482 -3.505128622 0.3408128917
5.540469646 -3.514732361 0.5703218579
5.529263496 -3.510331154 0.7990320325
5.529675961 -3.513302088 1.030954838
5.518767357 -3.507722616 1.262836814
5.419747829 -3.447443247 1.472976089
5.33309412 -3.394938707 1.682375908
2.497153282 -1.593927503 -0.7822031975
2.824901819 -1.804516673 -0.7639303803
3.288431406 -2.101422548 -0.7503237724
3.941602468 -2.520759821 -0.7343549728
4.902746677 -3.137849092 -0.709579885
5.554223537 -3.556173325 -0.5732851028
5.542835712 -3.551609993 -0.3428016603
5.524702072 -3.542711735 -0.1138577014
5.541605949 -3.538555622 0.1140671298
5.516876221 -3.525476694 0.3409175575
5.519773483 -3.528685331 0.5694502592
5.528681755 -3.537099361 0.8007382154
5.50240612 -3.522996664 1.028138995
5.513102055 -3.531201363 1.264363289
5.412603378 -3.469496012 1.474325895
5.316332817 -3.410405159 1.680822968
2.485075235 -1.598453999 -0.7801327109
2.821862698 -1.816476107 -0.7648301721
3.274473667 -2.108636618 -0.7487972975
3.932779551 -2.534503222 -0.7343549728
4.848389626 -3.126969576 -0.7032427192
5.525034428 -3.56473732 -0.5715420246
5.530404091 -3.57093668 -0.3428016603
5.51566124 -3.564145803 -0.1139275134
5.520812035 -3.552468061 0.1138926148
5.502858162 -3.543631554 0.3408128917
5.500722885 -3.543615341 0.5687530041
5.511295795 -3.553148985 0.8000069857
5.498374462 -3.547536373 1.029703379
5.497443199 -3.548295021 1.263600111
5.397186279 -3.4862535 1.473426104
5.291417122 -3.420552015 1.676681876
2.490828276 -1.614474058 -0.7837561369
2.808965445 -1.822072864 -0.7630305886
3.275327444 -2.125397205 -0.7507053614
3.894088268 -2.528850555 -0.7287233472
5.512557507 -3.58400178 -0.5715420246
5.511209011 -3.585862398 -0.3423829675
5.503186226 -3.583377123 -0.1139275134
5.501666546 -3.567365646 0.1137529835
5.502182484 -3.570428848 0.3415456116
5.488319874 -3.562794685 0.5687530041
5.487207413 -3.564795494 0.7983008027
5.485957623 -3.56670785 1.029703379
5.470211506 -3.557829142 1.260165572
5.393149853 -3.510387182 1.475675583
5.289156914 -3.445327759 1.679787755
2.477090359 -1.617876887 -0.781167984
2.800956726 -1.830800653 -0.7625806928
3.267888308 -2.136817455 -0.7507053614
3.911684275 -2.559734344 -0.7337293029
4.870175362 -3.188167334 -0.709579885
5.506680012 -3.607589722 -0.5722392201
5.481955528 -3.594127417 -0.3413362503
5.491272926 -3.601606607 -0.1139275134
5.484158039 -3.583267212 0.1136482805
5.476938248 -3.579913139 0.340708226
5.48251915 -3.586293459 0.5694502592
5.461442947 -3.575229406 0.7963508964
5.477404594 -3.587044477 1.030328989
5.462685585 -3.5801301 1.261310339
5.366811752 -3.518635988 1.471626401
5.276087284 -3.461788416 1.679270029
2.491078615 -1.63882339 -0.7873796225
2.801380634 -1.844365478 -0.7643802762
3.272261858 -2.155201674 -0.7533767223
3.906472445 -2.57486558 -0.7343549728
5.499675274 -3.629122734 -0.5727621913
5.483339787 -3.621091366 -0.342173636
5.472625732 -3.615388155 -0.1137878969
5.475586891 -3.603631735 0.113718085
5.455027103 -3.591466188 0.3400802016
5.467269421 -3.602262497 0.5691016316
5.45950079 -3.599877119 0.7978132963
5.453937531 -3.597574949 1.028138995
5.450783253 -3.598225355 1.261310339
5.356740475 -3.537487507 1.472076416
5.25974369 -3.476070166 1.67771709
2.482409477 -1.644940972 -0.7863443494
2.806617975 -1.861184001 -0.7675296068
3.250372887 -2.156273127 -0.7499421835
3.871581316 -2.570324659 -0.7293490767
4.798758984 -3.188287497 -0.702267766
5.472676277 -3.637414694 -0.5711933374
5.466312885 -3.635936737 -0.3418596089
5.44998455 -3.62782073 -0.1135784686
5.470273018 -3.62618947 0.1138577014
5.449114799 -3.61490202 0.3404988647
5.450313568 -3.617067814 0.5685787201
5.450840473 -3.620158434 0.7983008027
5.438055515 -3.614403963 1.027513146
5.438821316 -3.616281033 1.261310339
5.341114521 -3.554005384 1.471176505
5.244362354 -3.492267609 1.676681876
2.462192774 -1.643941522 -0.7816855311
2.803344488 -1.873134971 -0.7684293985
3.255883932 -2.176334143 -0.7529951334
3.888855457 -2.601396322 -0.7343549728
4.794198513 -3.209436417 -0.7032427192
5.448358059 -3.64873457 -0.5699731708
5.461883068 -3.660555124 -0.3423829675
5.438948631 -3.647935867 -0.1136133671
5.447605133 -3.638597727 0.1136482805
5.436462879 -3.633900881 0.3404988647
5.426060677 -3.628317833 0.5673585534
5.4365201 -3.638059616 0.7980570197
5.423764706 -3.632264853 1.027200341
5.426164627 -3.635244131 1.261310339
5.327057838 -3.57154274 1.470726609
5.228931427 -3.508399725 1.675646544
2.464453697 -1.657917738 -0.7842737436
2.790322781 -1.878555775 -0.7666297555
3.25315237 -2.190975904 -0.7541399598
3.860095024 -2.601706982 -0.7306005955
4.833983421 -3.260562658 -0.7107985616
5.443846226 -3.673303127 -0.5708447695
5.437485695 -3.671774387 -0.3416502476
5.427838802 -3.668019056 -0.1136482805
5.424916744 -3.650892496 0.1134388521
5.425401688 -3.653970957 0.3406035304
5.413362503 -3.647236109 0.5673585534
5.408975124 -3.6470263 0.7958634496
5.412690163 -3.652279854 1.027513146
5.397170544 -3.643179178 1.257494211
5.312943459 -3.589024782 1.470276833
5.216653347 -3.52663064 1.675646544
2.471444368 -1.675181746 -0.7884148359
2.774072409 -1.881720662 -0.7639303803
3.251982927 -2.206727743 -0.7556664944
3.860795021 -2.621824026 -0.7324778438
4.81436348 -3.27183795 -0.709579885
5.429342747 -3.691163063 -0.5706704259
5.416379452 -3.685114861 -0.3411269188
5.415001869 -3.686943531 -0.1136482805
5.412139416 -3.669806957 0.1134388521
5.407656193 -3.669522762 0.3402895331
5.400598049 -3.666110277 0.5673585534
5.389643669 -3.661422729 0.7948884368
5.404808998 -3.674483538 1.0284518
5.384420395 -3.661996365 1.257494211
5.301994324 -3.608644962 1.470726609
5.204310894 -3.544818401 1.675646544
2.461804152 -1.682478666 -0.7873796225
2.786128521 -1.905560136 -0.7693291903
3.240244865 -2.216981173 -0.7549031973
3.86047864 -2.643324614 -0.7343549728
4.802339554 -3.289461851 -0.709579885
5.421703815 -3.716489077 -0.571367681
5.402189732 -3.70588541 -0.3411269188
5.39485693 -3.702239275 -0.1135086566
5.402960777 -3.693947077 0.1135435626
5.377684116 -3.678043127 0.339242816
5.388125896 -3.687945366 0.5675328374
5.37226963 -3.679847479 0.79440099
5.366862774 -3.67751956 1.023758769
5.368700504 -3.681533575 1.257112503
5.279090405 -3.621439695 1.468027234
5.197654247 -3.568242788 1.67771709
2.453028679 -1.688442588 -0.7863443494
2.776584387 -1.912577748 -0.7684293985
3.229642153 -2.22548604 -0.7541399598
3.848439932 -2.653869629 -0.7337293029
4.791404724 -3.305368662 -0.709579885
5.392953873 -3.723128319 -0.5696246028
5.396443367 -3.728320122 -0.3415456116
5.375970364 -3.715561152 -0.1133690327
5.390681744 -3.711843491 0.1135435626
5.3671031 -3.696988583 0.3393475115
5.366024017 -3.69900775 0.5664869547
5.373109341 -3.706659555 0.7963508964
5.348134518 -3.690808535 1.02250731
5.348384857 -3.693738461 1.255204439
5.270258904 -3.641141176 1.468927026
5.168313503 -3.57337451 1.672023177
2.447416306 -1.696567774 -0.7863443494
2.783036232 -1.930661082 -0.772028625
3.242819071 -2.251300812 -0.7591009736
3.852597713 -2.675631285 -0.7362322211
4.779837608 -3.32207346 -0.709579885
5.381559849 -3.743068218 -0.5697988868
5.383396626 -3.747134447 -0.3415456116
5.362967968 -3.734304428 -0.1133690327
5.368483543 -3.722861767 0.1133341342
5.360728741 -3.720255613 0.3397661746
5.342271805 -3.708828688 0.565266788
5.339594364 -3.709733248 0.7931822538
7.615585804 -5.294940948 1.462401032
5.332235813 -3.710142136 1.254441261
5.257516861 -3.659515381 1.468927026
5.154223442 -3.590289593 1.67150557
2.438014269 -1.703313947 -0.7853090763
2.759970665 -1.929682016 -0.7675296068
3.228111506 -2.258669138 -0.7575744987
3.84276557 -2.689733505 -0.7362322211
4.767629623 -3.339570284 -0.709579885
5.369436264 -3.763911009 -0.5699731708
5.363086224 -3.762252569 -0.3411269188
5.35415554 -3.757381439 -0.1134737507
5.349885464 -3.739076853 0.1132294163
5.351967812 -3.743313074 0.3400802016
5.333539486 -3.731810808 0.5657896996
5.32596159 -3.729278564 0.7931822538
7.592892647 -5.320551872 1.461775422
5.312172413 -3.725152731 1.252914786
5.24566412 -3.679879665 1.469376922
5.147354126 -3.613596201 1.673576117
2.447550535 -1.723360062 -0.7904854417
2.759251118 -1.944274783 -0.7693291903
3.22823143 -2.275579453 -0.7594826221
3.85547924 -2.719741583 -0.7406123281
4.733236313 -3.340167761 -0.7061675787
5.354637623 -3.781481504 -0.5697988868
5.34828949 -3.779797077 -0.3410222232
5.344272614 -3.778357029 -0.1135435626
5.334510803 -3.757508516 0.1131945178
5.329072475 -3.755069971 0.3394521475
5.323082447 -3.753630161 0.5661383271
5.304148674 -3.743051291 0.7919635773
7.579114437 -5.350440025 1.462713957
5.295929909 -3.741407156 1.252151489
5.228012562 -3.69479394 1.468027234
5.134708881 -3.631541967 1.673576117
2.44182229 -1.731467128 -0.7904854417
2.740074396 -1.944392085 -0.7657299638
3.219066381 -2.285135508 -0.7591009736
3.814231157 -2.709631205 -0.7343549728
4.73346138 -3.363895178 -0.7078737617
5.343691826 -3.800372124 -0.5699731708
5.334098816 -3.796353817 -0.3409175575
5.321939945 -3.789099932 -0.1133341342
5.325282574 -3.777491331 0.1132643223
5.310075283 -3.768097878 0.3390334845
5.312230587 -3.7724154 0.5663126707
5.30465126 -3.769818783 0.7939134836
5.300911427 -3.768553972 1.023445845
5.289892197 -3.763501167 1.253678083
5.207792759 -3.706460238 1.465777636
5.125785351 -3.650790691 1.67461133
2.420345545 -1.728328466 -0.7853090763
2.752637863 -1.967064142 -0.7711288333
3.198694229 -2.286663771 -0.7560480833
3.824504375 -2.736057043 -0.7381094098
4.721689701 -3.380397558 -0.7078737617
5.326200485 -3.814591408 -0.5694502592
5.318233967 -3.81169486 -0.340708226
5.303805828 -3.804157019 -0.1132294163
5.311099529 -3.793967724 0.1132294163
5.29851532 -3.787771463 0.3391381502
5.30131197 -3.791169643 0.5664869547
5.300192356 -3.793166161 0.7951322198
5.282906532 -3.783584595 1.02250731
5.277382851 -3.78102231 1.253678083
5.197990894 -3.726887465 1.466677547
5.105162144 -3.663029671 1.672023177
2.415865898 -1.737894535 -0.785826683
2.752080917 -1.981214762 -0.7729284167
3.205030918 -2.30814147 -0.7594826221
3.802109957 -2.740150928 -0.7356064916
4.713080883 -3.399181128 -0.7083612084
5.303158283 -3.826165438 -0.5684043765
5.312992573 -3.836081266 -0.3412315845
5.290494442 -3.82264781 -0.1132294163
5.297823906 -3.812483311 0.1132294163
5.280398369 -3.802742243 0.3388241231
5.279963017 -3.803828478 0.5656154156
5.280478477 -3.80700016 0.794157207
5.279278755 -3.808936596 1.024384499
5.265744686 -3.800569296 1.254059672
5.183370113 -3.743868351 1.466227651
5.089213371 -3.678564072 1.670987844
2.416042089 -1.750851631 -0.7878972888
2.743570566 -1.989665151 -0.7724785209
3.199727058 -2.322178602 -0.7602458
3.798915863 -2.758048058 -0.7368579507
4.717246532 -3.427280188 -0.7107985616
5.274595737 -3.835031748 -0.5668355823
5.289206505 -3.848478317 -0.3406035304
5.280352592 -3.843445539 -0.1132992283
5.279626846 -3.827432394 0.1131247059
5.263858795 -3.818805456 0.3386147618
5.273103237 -3.826916456 0.5663126707
5.271975517 -3.82890892 0.7948884368
5.264353275 -3.826179981 1.024071693
5.245429039 -3.815224886 1.252533197
5.171845436 -3.763085365 1.466677547
5.077904224 -3.697443724 1.67150557
2.415849209 -1.764252186 -0.7899677753
2.748846769 -2.008905888 -0.7760777473
3.197533131 -2.338526964 -0.7617723942
5.236364365 -3.831036091 -1.020942926
5.148320675 -3.769380808 -0.7783142328
5.202646255 -3.811946392 -0.5605604053
5.209027767 -3.819417477 -0.336311996
5.243656158 -3.84621501 -0.1128105596
5.262333393 -3.844397783 0.1130548939
5.254663944 -3.841608763 0.3389287889
5.260649204 -3.84739399 0.5664869547
5.245091915 -3.838826895 0.7929385304
5.256668568 -3.85011816 1.025323153
5.232993603 -3.835585117 1.252914786
5.154875278 -3.779711008 1.465777636
5.065875053 -3.7171731 1.672023177
2.415590525 -1.777674913 -0.7920383811
2.732050657 -2.012034178 -0.7733783722
3.176705599 -2.340358496 -0.7587193847
3.80403614 -2.804576874 -0.7418638468
4.728736401 -3.48887372 -0.7164045572
5.179690838 -3.822984934 -0.5595145226
5.171565533 -3.819777966 -0.3347419202
5.161983967 -3.815485716 -0.1113445535
5.240155697 -3.857732296 0.1128803715
5.238940239 -3.859658241 0.3388241231
5.244909286 -3.86546731 0.5663126707
5.240571976 -3.865095139 0.79440099
5.23616457 -3.864666939 1.024071693
5.224311352 -3.857326984 1.254059672
5.136285782 -3.795105457 1.464428067
5.055324078 -3.738012791 1.67305851
2.403162718 -1.781494141 -0.7899677753
2.731271029 -2.026202917 -0.7751779556
3.174823284 -2.35611248 -0.7602458
5.085118294 -3.776541948 -0.9965391159
4.710156441 -3.500622034 -0.7154296041
5.078374386 -3.775660992 -0.5499273539
5.087695599 -3.785349369 -0.3301363587
5.11174345 -3.806013823 -0.110541746
5.167228222 -3.831927538 0.1115888953
5.16769743 -3.835072517 0.3350559473
5.189790726 -3.852873325 0.5617805719
5.222268105 -3.879813194 0.7936697602
5.211545467 -3.874670982 1.02188158
5.215540886 -3.879054546 1.255204439
5.118317127 -3.809520006 1.46307838
5.029850483 -3.746404409 1.668917298
2.396929264 -1.78987205 -0.7899677753
2.724181652 -2.035724401 -0.7751779556
3.182303905 -2.378935337 -0.7640619874
5.052924156 -3.780070066 -0.9927847981
4.697907925 -3.517042398 -0.7154296041
5.057190418 -3.787393093 -0.5490558147
5.069656849 -3.799491882 -0.3298223317
5.050434113 -3.787839651 -0.1094945967
5.134595871 -3.835580349 0.1111700311
5.125484943 -3.831562757 0.3331718445
5.12525177 -3.832783461 0.5562025905
5.167371273 -3.867093801 0.7873325348
5.161623001 -3.865604162 1.014685631
5.18782711 -3.886642694 1.2517699
5.119020939 -3.837884188 1.467127442
5.013651848 -3.761620998 1.667882085
2.393754721 -1.80055058 -0.7910030484
2.726400852 -2.052252769 -0.7778773904
3.177117348 -2.392391205 -0.7648252845
5.052319527 -3.807195425 -0.9952876568
4.691942215 -3.538200617 -0.7164045572
5.047120094 -3.807422638 -0.5494044423
5.048392296 -3.811148167 -0.3292989731
5.043563843 -3.810267687 -0.1096342281
5.034890652 -3.788553953 0.1092851758
5.067404747 -3.815790892 0.3302410245
5.089561939 -3.83386755 0.5537622571
5.107871056 -3.850454807 0.7802641392
5.110250473 -3.855046749 1.007176757
5.108410358 -3.855057716 1.235741973
5.097817421 -3.84985733 1.464877963
4.998949528 -3.777933359 1.667364359
2.392074585 -1.812395096 -0.7925559878
2.7067976 -2.052338123 -0.7742781639
3.18282485 -2.414144993 -0.7682598829
5.045292377 -3.829585314 -0.9965391159
4.701694965 -3.571367264 -0.7198169231
5.033798695 -3.825016737 -0.5494044423
5.020750046 -3.817867279 -0.3283569515
5.028641224 -3.826638699 -0.1095993146
5.023229599 -3.807314157 0.1093200818
5.00790596 -3.798453331 0.3272055387
5.020596027 -3.809458733 0.5476613045
5.048551083 -3.833447695 0.773195684
5.08103466 -3.8609097 1.004048109
5.071478367 -3.85504508 1.230017662
5.07814455 -3.862909079 1.46307838
4.99341774 -3.80121088 1.669952631
2.390340567 -1.824250102 -0.7941089272
2.702714443 -2.064139843 -0.7751779556
3.161897898 -2.415705204 -0.7652068734
5.053864002 -3.863970518 -1.000919342
4.682892799 -3.582932472 -0.71884197
5.021998405 -3.843776226 -0.5495787859
5.01056385 -3.837798595 -0.328566283
5.004143715 -3.835652828 -0.1093549803
5.009908676 -3.824825525 0.1093200818
4.993030071 -3.814698696 0.327100873
5.00410223 -3.824541092 0.5473127365
5.005180836 -3.82813406 0.7685647011
4.993800163 -3.822193384 0.9893431664
4.989403725 -3.820209265 1.213226438
5.042973042 -3.864018202 1.456779599
4.978585243 -3.817442417 1.669434905
2.374768496 -1.825518608 -0.7910030484
2.710938692 -2.085443497 -0.7796769738
3.148778439 -2.423135281 -0.7640619874
3.756987095 -2.893269777 -0.7443668246
4.620042801 -3.56048131 -0.7110423446
5.003817081 -3.857633114 -0.5490558147
5.009788036 -3.865025043 -0.3294036686
4.989140987 -3.851875305 -0.1093200818
5.001282692 -3.845947027 0.1094247922
4.978101254 -3.830886126 0.3269962072
4.984406471 -3.837123871 0.5466154218
4.993360043 -3.846793413 0.7688084245
4.972605705 -3.833571196 0.9877789021
4.971374512 -3.834005356 1.212081671
4.955403805 -3.82444787 1.43518436
4.957584858 -3.828893423 1.666846752
2.365326643 -1.831431627 -0.7899677753
2.71904707 -2.106829643 -0.784175992
3.151163101 -2.442531347 -0.766733408
3.734378576 -2.896680832 -0.7418638468
4.289260387 -3.329490423 -0.6615633965
4.989957333 -3.877586842 -0.328984946
4.975665569 -3.869267225 -0.1093200818
4.975179672 -3.853584528 0.1091455519
4.969434261 -3.85191083 0.3273102343
4.94893837 -3.837407351 0.5441750884
4.973628521 -3.859332085 0.7678334713
4.966995239 -3.856962919 0.9893431664
4.956409931 -3.850130796 1.211699963
4.960485935 -3.856074333 1.44058311
4.938090324 -3.841430426 1.664776206
2.366536379 -1.845617056 -0.7925559878
2.68402338 -2.094726562 -0.7760777473
3.142617941 -2.453516006 -0.766733408
3.758489847 -2.936454058 -0.7487469316
4.290122986 -3.354223728 -0.6635132432
4.275250435 -3.343797922 -0.4711385667
4.956968307 -3.867237806 0.109040834
4.960680962 -3.872920752 0.3276242316
4.905678749 -3.831357241 0.5408631563
4.947614193 -3.86689043 0.7658835649
4.947277546 -3.869409561 0.9880917072
4.930571079 -3.857730865 1.208647132
4.940858364 -3.868560314 1.438783526
4.933775425 -3.865793705 1.667882085
2.367675304 -1.85983336 -0.7951441407
2.69508028 -2.118534803 -0.7814766169
3.132490873 -2.463257074 -0.7663516998
3.735797882 -2.939783096 -0.7462440133
4.585623741 -3.61112237 -0.7115297914
4.277637959 -3.36979723 -0.4727073312
4.263222694 -3.360853672 -0.2823013067
4.271877766 -3.37009573 -0.09427610785
4.945011139 -3.885752916 0.1090757474
4.93928194 -3.884040117 0.327100873
4.904803276 -3.858313322 0.5422576666
4.923167706 -3.875542164 0.764177382
4.941499233 -3.892767668 0.9896560907
4.92015934 -3.877348185 1.20941031
4.921203613 -3.880956888 1.436983943
4.920251369 -3.882992029 1.667882085
2.373289108 -1.877675891 -0.7992852926
2.687668562 -2.127929449 -0.7814766169
3.122334957 -2.47295785 -0.7659701109
3.740994453 -2.965075493 -0.7493727207
4.660731316 -3.695374489 -0.7251791358
4.574882507 -3.629909277 -0.5072211027
4.897460938 -3.888643503 -0.3255307674
4.259112835 -3.382998943 -0.09424119443
4.250898361 -3.364391327 0.0939270556
4.923242569 -3.897918463 0.3268915117
4.881934643 -3.867986917 0.5412117839
4.922372341 -3.904222488 0.988404572
4.906594276 -3.894499302 1.20941031
4.897624016 -3.888772964 1.433834672
4.907347679 -3.899286985 1.667882085
2.357983112 -1.87831378 -0.7961794138
2.677549601 -2.134400845 -0.7805767655
3.118721724 -2.486970425 -0.7671149969
3.755845785 -2.997179031 -0.7543786168
4.629834652 -3.695948124 -0.7222543359
4.544139862 -3.630137205 -0.5051293373
4.881419182 -3.902368546 -0.3253214657
4.858500957 -3.885437012 -0.1078889817
4.239718437 -3.378469467 0.0939270556
4.907166481 -3.911733389 0.3266821802
4.856621265 -3.874214649 0.5398172736
4.85168314 -3.873047352 0.7571089268
4.907854557 -3.919291496 0.9880917072
4.905922413 -3.920553684 1.21246326
4.902966976 -3.919594526 1.439233541
4.892880917 -3.914331675 1.667364359
2.345713377 -1.881288171 -0.7941089272
2.685654879 -2.155465841 -0.7850757837
3.115050316 -2.500985861 -0.7682598829
3.73048687 -2.997244596 -0.7512499094
4.670159817 -3.753563166 -0.7305414081
4.535182476 -3.647683382 -0.5054779649
4.924464226 -3.963617563 -0.3290896416
4.914122581 -3.956707716 -0.1094247922
4.231611252 -3.395012617 0.09399686009
4.898840904 -3.931735039 0.3269962072
4.857728004 -3.901527405 0.5413861275
4.834170818 -3.885384321 0.756377697
4.890212059 -3.931831598 0.9871531129
4.883716583 -3.929416418 1.210173607
4.883870125 -3.930943966 1.437433839
4.873855591 -3.925688505 1.665293813
2.345474005 -1.893911004 -0.7961794138
2.660303354 -2.149662256 -0.7796769738
3.117426872 -2.51994133 -0.7709311843
3.683667421 -2.979782343 -0.7437410355
4.64842844 -3.761537075 -0.7290790081
4.529254436 -3.667718172 -0.50617522
4.912844181 -3.98118329 -0.3291943073
4.907188416 -3.978018284 -0.1095644161
4.214107513 -3.404000759 0.09385724366
4.893542767 -3.954234838 0.3275195658
4.846313 -3.918867826 0.5415604711
4.866011143 -3.937606335 0.7634461522
4.872541428 -3.944297791 0.9862145185
4.849302292 -3.928288698 1.204830885
4.87686348 -3.95202589 1.439233541
4.860810757 -3.941829443 1.665293813
2.343012571 -1.906152248 -0.7977323532
2.655429125 -2.161859035 -0.7805767655
3.100558758 -2.525151253 -0.7690230608
3.697221041 -3.013231277 -0.7487469316
4.627797604 -3.774339437 -0.7281040549
4.515781403 -3.684294224 -0.50617522
4.884295464 -3.987794638 -0.3282522559
4.890329361 -3.995566368 -0.1095295101
4.201602936 -3.419423342 0.09385724366
4.869031906 -3.965427876 0.3268915117
4.839640141 -3.942895889 0.5424319506
4.820775509 -3.930327892 0.7585713863
4.86654377 -3.970470667 0.9880917072
4.8470397 -3.955966711 1.207883835
4.840522766 -3.95346427 1.43293488
4.841152191 -3.956796408 1.663740873
2.334850311 -1.913095236 -0.7972147465
2.653894663 -2.176057577 -0.7823764086
3.097797155 -2.540939569 -0.7705495954
3.708056927 -3.043665171 -0.7531271577
4.614594936 -3.790470123 -0.7281040549
4.505971909 -3.702564478 -0.506523788
4.873431206 -4.007356644 -0.3284616172
4.868631363 -4.006259441 -0.1093549803
4.195827007 -3.439139366 0.09399686009
4.85515976 -3.982400417 0.3268915117
4.836628437 -3.968611956 0.5436521769
4.81009531 -3.949650764 0.7590588927
4.855707169 -3.989942551 0.9887174964
4.83623457 -3.975355864 1.208647132
4.831207752 -3.974050522 1.434284568
4.839243412 -3.983493567 1.667882085
2.325177908 -1.918774366 -0.7961794138
2.658303499 -2.195235252 -0.7859756351
3.085881472 -2.549236298 -0.7697862983
3.685229778 -3.04652071 -0.7506241798
4.604393959 -3.809086084 -0.7285915613
4.486879826 -3.713189363 -0.5058265924
4.856336594 -4.02179575 -0.3282522559
4.84691906 -4.016849518 -0.1091804653
4.189965725 -3.458857059 0.09413649142
4.793565273 -3.961356163 0.5403402448
4.840641499 -4.00310421 0.7661272287
4.834140301 -4.000570297 0.9871531129
4.828377247 -3.997220516 1.210173607
4.817306519 -3.990890265 1.434284568
4.82233429 -3.997895002 1.666846752
2.315494537 -1.924409509 -0.7951441407
2.65362072 -2.206993103 -0.7868754268
3.07847333 -2.561248064 -0.7701678872
3.689754009 -3.07200551 -0.7537528276
4.606320858 -3.837841988 -0.7310289145
4.4677701 -3.723726034 -0.5051293373
4.851470947 -4.04639864 -0.3288802803
4.839008808 -4.038869381 -0.1093200818
4.162489414 -3.460676908 0.09378743172
4.501744747 -3.745390654 0.3047010899
4.823588371 -4.017436504 0.7656398416
4.823182106 -4.019949436 0.9877789021
4.814394951 -4.014050484 1.210173607
4.806338787 -4.010178566 1.43518436
4.799451828 -4.007275105 1.663740873
2.314688683 -1.937440395 -0.7972147465
2.645900726 -2.216242552 -0.7868754268
3.081102371 -2.582603693 -0.7732208967
3.654789448 -3.064558983 -0.7487469316
4.629392147 -3.884521246 -0.7368786335
4.460194588 -3.745201349 -0.5058265924
4.833549976 -4.061583519 -0.3286709487
4.831003666 -4.060883045 -0.1094596982
4.156517029 -3.48032093 0.0939270556
4.470272541 -3.745688915 0.3034450114
4.472622871 -3.748987198 0.5068724155
4.815618992 -4.03935194 0.7666147351
4.8166852 -4.043111324 0.9893431664
4.790630817 -4.024093151 1.207883835
4.813198566 -4.044482708 1.441483021
4.794306278 -4.031463623 1.666846752
2.30461812 -1.943420172 -0.7961794138
2.622867107 -2.213357449 -0.7823764086
3.07611537 -2.597679377 -0.7743657827
3.676730871 -3.105978489 -0.7556300759
4.596931934 -3.886083841 -0.733953774
4.443395615 -3.758950233 -0.5054779649
4.81100893 -4.072820187 -0.3281475902
4.819139957 -4.081147194 -0.1095295101
4.134562492 -3.487795591 0.09371762723
4.445830345 -3.753029823 0.3027123213
4.460374355 -3.766640663 0.5070467591
4.79320097 -4.050568581 0.7653961182
4.801834106 -4.060738087 0.9893431664
4.775849819 -4.041624069 1.207883835
4.784956455 -4.050765038 1.437433839
4.7794981 -4.049008846 1.666846752
2.312202692 -1.964361906 -0.8013558388
2.623645067 -2.230529308 -0.7850757837
3.067029238 -2.608400583 -0.7743657827
3.67735672 -3.129675627 -0.7581329942
4.592407703 -3.909828186 -0.7354161739
4.43934679 -3.782190323 -0.506523788
4.796762466 -4.089589119 -0.3281475902
4.798778057 -4.092752934 -0.1093898863
4.130893707 -3.510696411 0.0939270556
4.43743372 -3.775216579 0.5060008764
4.769253254 -4.060388565 0.7639336586
4.769584179 -4.062105179 0.985588789
4.752747059 -4.050629616 1.205594063
4.75150919 -4.051006794 1.431585073
4.774153709 -4.073190689 1.669952631
2.295398951 -1.96322906 -0.7977323532
2.622156143 -2.24428606 -0.7868754268
3.035993099 -2.599404573 -0.7686414719
3.639956713 -3.118718386 -0.7525013685
4.579417229 -3.925035238 -0.7354161739
4.426780701 -3.796890736 -0.506523788
4.790753365 -4.1119771 -0.3286709487
4.779111862 -4.103433132 -0.1092502698
4.11922884 -3.5243752 0.0939270556
4.42928648 -3.79099679 0.3033403456
4.427917004 -3.792503357 0.506349504
4.763298988 -4.082640648 0.7651523352
4.748589039 -4.071470737 0.9840244055
4.748229027 -4.074038506 1.207883835
4.751826763 -4.081447601 1.666846752
2.285948277 -1.968308926 -0.7966970801
2.623557091 -2.260601759 -0.7895748615
3.046688318 -2.626121044 -0.7736024857
3.656519175 -3.153995991 -0.7581329942
4.598748207 -3.969532728 -0.7407784462
4.401437759 -3.801900864 -0.5051293373
4.778601646 -4.129146099 -0.3287756145
4.764758587 -4.120090485 -0.1092502698
4.10448885 -3.535405874 0.09385724366
4.420564651 -3.810346842 0.3036543727
4.407771587 -3.80066061 0.5054779649
4.751236439 -4.099710941 0.7653961182
4.740327835 -4.093185425 0.9852758646
4.734692574 -4.089761734 1.207883835
4.738567829 -4.095998287 1.436084151
4.728784084 -4.090426922 1.663740873
2.287474394 -1.984269619 -0.799802959
2.606819153 -2.262082338 -0.7868754268
3.044454336 -2.643706322 -0.7755106091
3.633006334 -3.157010794 -0.7556300759
4.566885948 -3.969933033 -0.7378535867
4.388139725 -3.817241669 -0.5051293373
4.758915901 -4.142699242 -0.3284616172
4.754871368 -4.140637875 -0.1093549803
4.086080551 -3.54447031 0.09371762723
4.40723753 -3.825754166 0.3036543727
4.396820068 -3.819403648 0.5058265924
4.732402325 -4.112364292 0.7646648884
4.726011276 -4.109707355 0.9852758646
4.706341743 -4.095488548 1.204449296
4.713236332 -4.104381084 1.43293488
4.717391014 -4.109446049 1.664776206
2.280534029 -1.992242098 -0.799802959
2.599977732 -2.272904158 -0.787325263
3.029295921 -2.649147511 -0.7739840746
3.621963978 -3.169673443 -0.7556300759
4.546330929 -3.981413603 -0.7368786335
4.383780956 -3.840413094 -0.50617522
4.736917019 -4.152702332 -0.3279382288
4.747179985 -4.16463089 -0.1095295101
4.076073647 -3.562054157 0.09378743172
4.394689083 -3.843196392 0.3037590384
4.393958092 -3.843910933 0.5070467591
4.712816715 -4.125759602 0.7639336586
4.71537447 -4.130906105 0.9862145185
4.694970131 -4.114480019 1.205212474
4.694485188 -4.116952896 1.431585073
4.713913441 -4.136902809 1.668917298
2.282268524 -2.007846594 -0.8029087186
2.593490601 -2.283253908 -0.7877752185
3.024450064 -2.663598299 -0.7751289606
3.619769812 -3.19013381 -0.7575073242
4.55622673 -4.018267632 -0.7407784462
4.373336315 -3.858328342 -0.506523788
4.728382111 -4.174499512 -0.3283569515
4.720624924 -4.170584679 -0.1092502698
4.069619179 -3.581545115 0.0939270556
4.390239716 -3.86643362 0.3043870628
4.393968582 -3.871078968 0.5086155534
4.701364517 -4.144809723 0.7644211054
4.696482182 -4.143420219 0.9852758646
4.686467171 -4.136039734 1.206738949
4.678625107 -4.132024765 1.431135297
4.696549416 -4.150774002 1.667882085
2.269462109 -2.010677099 -0.8008381724
2.588421345 -2.294878006 -0.7886750102
3.015134096 -2.6741395 -0.7751289606
3.629295588 -3.221106768 -0.7618874311
4.545140743 -4.036783218 -0.741265893
4.352394104 -3.86695385 -0.5056522489
4.719751835 -4.196287632 -0.3287756145
4.702286243 -4.182228565 -0.1091455519
4.060085773 -3.598381281 0.09399686009
4.686749935 -4.155243397 0.3260541558
4.684463978 -4.156137943 0.5441750884
4.692805767 -4.166467667 0.7653961182
4.681239605 -4.157660007 0.9849630594
4.676403999 -4.156285763 1.207883835
4.664173603 -4.148331165 1.431135297
4.679871559 -4.163756847 1.666846752
2.256664038 -2.013441801 -0.7987676859
2.592427969 -2.313830137 -0.7922742367
3.029209137 -2.705572844 -0.7812348604
3.61859417 -3.233124018 -0.7618874311
4.561326504 -4.078296185 -0.7461407185
4.344809055 -3.887437344 -0.506349504
4.705810547 -4.21191597 -0.3287756145
4.695106506 -4.205287933 -0.1093200818
4.042162418 -3.606500387 0.09385724366
4.566438675 -4.077134132 0.3186224401
4.629812717 -4.136622906 0.5394687057
4.681923389 -4.184652328 0.7658835649
4.666697979 -4.173975468 0.9849630594
4.655280113 -4.165225506 1.205975771
4.65329504 -4.16637516 1.432035089
4.659554482 -4.174910545 1.664776206
2.249974489 -2.020914316 -0.7987676859
2.584335327 -2.322865486 -0.7922742367
3.010988712 -2.708252668 -0.7789450884
3.607286215 -3.245735884 -0.7618874311
4.535260677 -4.083567142 -0.7441908121
4.332692623 -3.903913498 -0.506523788
4.684407711 -4.223785877 -0.3283569515
4.687822819 -4.228347778 -0.1094945967
4.026573658 -3.617915154 0.09378743172
4.565545559 -4.10506773 0.3195644915
4.553853512 -4.095992088 0.5321475863
4.66138649 -4.19565773 0.7649086118
4.65943861 -4.196849823 0.9865274429
4.632690907 -4.175687313 1.204067707
4.643064976 -4.186508179 1.433384776
4.650690079 -4.196326256 1.666846752
2.249714851 -2.03562808 -0.8013558388
2.572915316 -2.329705954 -0.791374445
3.008316278 -2.725861788 -0.7808532715
3.595365763 -3.258935452 -0.7618874311
4.520263195 -4.100162029 -0.7441908121
4.344909668 -3.94387126 -0.5096614361
4.665938854 -4.238240719 -0.3281475902
4.673774242 -4.246846199 -0.1095295101
4.022181511 -3.640700579 0.09399686009
4.54010725 -4.112387657 0.3188318014
4.544716358 -4.118007183 0.5328448415
4.641565323 -4.208714485 0.764177382
4.639636517 -4.209917545 0.985588789
4.620262146 -4.195278645 1.204830885
4.624804497 -4.200876713 1.432484984
4.640996456 -4.218542099 1.668917298
2.256516218 -2.056874037 -0.8065322638
2.561479568 -2.336493969 -0.7904746532
2.994432449 -2.732376337 -0.7797083855
3.595067263 -3.282747269 -0.7643904686
4.52351141 -4.13198185 -0.7471156716
4.429646015 -4.049077988 -0.5213403106
4.648168564 -4.251805305 -0.3279382288
