# .PCD v0.7 - Point Cloud Data file format
VERSION 0.7
FIELDS x y z
SIZE 4 4 4
TYPE F F F
COUNT 1 1 1
WIDTH 1223
HEIGHT 1
VIEWPOINT 0 0 0 1 0 0 0
POINTS 1223
DATA ascii
2.080830336 0.2746865153 0.325748086
2.078355789 0.2739898264 0.3992352486
2.08691287 0.2743778825 0.4759930074
2.06773591 0.2711213827 0.5471955538
2.16193819 0.2807860076 -0.5725598335
2.166672468 0.2806329429 -0.4944390059
2.154953718 0.278731674 -0.4141183496
2.150206327 0.2773556411 -0.3366985023
2.142746687 0.2756330669 -0.2601257265
2.140492201 0.2749633491 -0.1850934178
2.131745815 0.2730834782 -0.1104300097
2.144257307 0.2739244998 -0.03703221306
2.115963936 0.2744405568 0.03654354066
2.044257402 0.2644136846 0.1058244407
2.053356647 0.2652273178 0.1774237007
2.020631552 0.2602822781 0.2450139225
2.095491409 0.2691826224 0.3279381692
2.079299688 0.2667327821 0.3992352486
2.085925341 0.2668437064 0.4755431116
2.08016777 0.2653692663 0.550301373
2.178237677 0.2751761973 -0.5767009258
2.183106661 0.2750160992 -0.4980382323
2.155913353 0.2712092698 -0.4141183496
2.162921667 0.2713229954 -0.3385757208
2.147635221 0.2686440349 -0.260613203
2.157255173 0.2694649994 -0.1864879131
2.136650085 0.2661337852 -0.1106393486
2.143215656 0.2661929727 -0.03699730709
2.132781029 0.2690544724 0.03682278097
2.045167685 0.2572776973 0.1058244407
2.066131353 0.2595475912 0.1784695834
2.041224718 0.2556961179 0.2474513054
2.092498064 0.2613761425 0.3273124397
2.099699497 0.2619045079 0.4030514061
2.092645645 0.2602818906 0.4768928289
2.086832523 0.2588192225 0.5518542528
2.175350189 0.2670995891 -0.5756655931
2.187922001 0.267868042 -0.498938024
2.16074419 0.2641579509 -0.414881587
2.175620794 0.2652059495 -0.3404529393
2.160383701 0.2625822723 -0.2620756328
2.156250238 0.2613171935 -0.1863135844
2.161359549 0.2615526319 -0.1118954122
2.14611721 0.2589491308 -0.03703221306
2.145616055 0.2630696595 0.03703221306
2.057948351 0.251590848 0.10645248
2.070979834 0.2528181672 0.1788181961
2.057868958 0.2504876554 0.2494012117
2.091436863 0.2538328171 0.3269995749
2.116192818 0.2564626336 0.4061043561
2.095475912 0.2532097995 0.477342695
2.089641571 0.2517637908 0.5523719192
2.183987856 0.2600388825 -0.5777361989
2.204324722 0.2620690763 -0.5025372505
2.169496536 0.2571615577 -0.4164080918
2.180501461 0.2576942742 -0.3410786688
2.175086737 0.2566694319 -0.2637818158
2.155170679 0.2535565794 -0.1861392856
2.174205542 0.2550256252 -0.112523444
2.156938791 0.2526186705 -0.03720673546
2.138578415 0.254632175 0.03689258918
2.070713997 0.2458187938 0.1070805043
2.069914103 0.2449902296 0.1786438823
2.058730841 0.2433032542 0.2494012117
2.10800457 0.2483794242 0.3295024931
2.117118597 0.2487051487 0.4061043561
2.111874104 0.2473407388 0.4809419215
2.088588476 0.2442450821 0.5518542528
2.194477558 0.2535216808 -0.5803243518
2.201398373 0.2535426021 -0.5016374588
2.189885139 0.251829356 -0.4202242494
2.181387901 0.2500807345 -0.3410786688
2.185874224 0.2498221248 -0.2650004923
2.171878815 0.2478386164 -0.187533766
2.169128895 0.246757865 -0.1122094318
2.169771671 0.2460638583 -0.03741616011
2.143470526 0.2472509295 0.0369623974
2.091442823 0.2405088246 0.1081272215
2.078674316 0.238672927 0.1793411374
2.06749773 0.2366584986 0.2503761947
2.120676517 0.2419957817 0.3313797414
2.110171556 0.2404239774 0.4045779109
2.122406006 0.2410675138 0.4831914306
2.100987434 0.2378919572 0.554960072
2.208788157 0.2473655045 -0.5839478374
2.202270031 0.2458561659 -0.5016374588
2.202457666 0.2454890013 -0.422513932
2.194027424 0.2437729985 -0.3429558873
2.182786942 0.2417538911 -0.2645130157
2.176691532 0.2406932265 -0.1878824085
2.175932884 0.2398416102 -0.112523444
2.178568363 0.2393625081 -0.03755578399
2.156244278 0.2411000133 0.03717182949
2.084329844 0.2323223203 0.1077085361
2.089395523 0.232517764 0.1802126914
2.080149174 0.2307537645 0.2518385947
2.135252237 0.2361109555 0.3335697949
2.126609087 0.2347805798 0.4076308608
2.12323451 0.2336568981 0.4831914306
2.111406565 0.2316103876 0.5575482845
2.221161842 0.2409031391 -0.5870536566
2.214739561 0.239424482 -0.5043368936
2.203301191 0.2377988994 -0.422513932
2.206649065 0.2373810709 -0.344833076
2.183617592 0.2341324985 -0.2645130157
2.197329283 0.2352147996 -0.1896255165
2.186686754 0.2333035916 -0.11304681
2.185315609 0.2327715755 -0.03766049817
2.169001341 0.2348629087 0.03738125786
2.089060068 0.2258379012 0.1079178825
2.100099087 0.2262897044 0.1810842454
2.096731901 0.2251865566 0.2537885308
2.137987614 0.2292399406 0.3338826895
2.135224104 0.2281898111 0.409157306
2.120161772 0.2258316427 0.4822916389
2.123689175 0.2258325517 0.5606541038
2.227149963 0.2332973778 -0.5070362687
2.204117775 0.2301069796 -0.422513932
2.227071524 0.232110396 -0.3479617834
2.20017767 0.2285301387 -0.2664629519
2.194172859 0.2271333784 -0.1892768741
2.199368238 0.2272821963 -0.1136748269
2.188103914 0.2253473103 -0.03769540042
2.181700945 0.2289214581 0.03759068623
2.105727196 0.2202066332 0.1087552533
2.108802557 0.2197841704 0.1817814857
2.109313965 0.2194653302 0.2552509606
2.138774872 0.2217760384 0.3338826895
2.147686005 0.2223212123 0.4114470482
2.138344765 0.2205999047 0.4863407314
2.128308058 0.2188126892 0.5616893768
2.220827818 0.225584358 -0.5865359902
2.237644911 0.2265024334 -0.509285748
2.216588497 0.2239812911 -0.4248036444
2.22786808 0.2243344635 -0.3479617834
2.204912186 0.2212455422 -0.2669504285
2.19887948 0.2202525735 -0.1896255165
2.208097935 0.2203975171 -0.1140935272
2.198826551 0.2186969966 -0.03786992654
2.182486773 0.2213039249 0.03759068623
2.114431381 0.2136585414 0.1091739386
2.101590872 0.2119895071 0.1810842454
2.133768559 0.2144840062 0.2581758201
2.151329279 0.2154896706 0.335759908
2.148448944 0.2148234844 0.4114470482
2.144919395 0.2137134075 0.4876904488
2.1252141 0.2110009044 0.5606541038
2.150464535 0.2108551711 -0.5673834085
2.238421917 0.2186906934 -0.509285748
2.232988834 0.2177664638 -0.4278565943
2.22077322 0.2157926708 -0.3467103243
2.225429535 0.2154610455 -0.2693878114
2.207567215 0.2133427709 -0.1903227568
2.212829828 0.2130718082 -0.1143028662
2.221472502 0.213121444 -0.03825387731
2.187226295 0.2140743136 0.03766049817
2.127091408 0.2074390948 0.1098019779
2.116199017 0.2060039937 0.182304427
2.142407656 0.2078004628 0.2591508031
2.167797804 0.2094994038 0.3382628262
2.157002449 0.208076179 0.4129734933
2.157291174 0.2073440403 0.4903898835
2.14324522 0.2052380592 0.5653128624
2.191576242 0.2071646601 -0.5782538056
2.235291481 0.210509792 -0.5083859563
2.241554022 0.2107048929 -0.4293830693
2.241180658 0.20988065 -0.3498390019
2.226168156 0.2076920122 -0.2693878114
2.23012042 0.2076670825 -0.1922401935
2.217537403 0.2057157308 -0.1145122051
2.230167866 0.2061012387 -0.03839349747
2.199905157 0.2075656503 0.03786992654
2.121837139 0.1994515657 0.1094879583
2.134758472 0.2002913356 0.1838732362
2.154978752 0.2014286816 0.260613203
2.170482874 0.202113688 0.3385757208
2.157715797 0.2005449831 0.4129734933
2.154121161 0.1994525194 0.4894900918
2.153566837 0.1986441314 0.5679010153
2.250003338 0.2047665119 -0.5937829614
2.246186018 0.203233391 -0.430146277
2.253704071 0.2031205595 -0.3517162204
2.230834007 0.2002743781 -0.2698752582
2.236785173 0.2004140764 -0.1927631199
2.230178356 0.1990385205 -0.1151402444
2.234857559 0.1986698657 -0.03846330941
2.21256566 0.2009700686 0.03807935491
2.124509573 0.1922241896 0.1095926315
2.139413118 0.1931962371 0.1842218637
2.175439835 0.1956840754 0.263050586
2.161337852 0.1936540455 0.3370113671
2.17404604 0.1944113076 0.4160264432
2.15480423 0.1919314414 0.4894900918
2.161944389 0.1918079108 0.569971621
2.279571772 0.1994362473 -0.6015475392
2.135754824 0.1861037761 -0.4849910736
2.250793934 0.1957311034 -0.4309095442
2.262271166 0.1959346831 -0.3529676795
2.239430428 0.1931689531 -0.2708502412
2.233534336 0.191873908 -0.1924144924
2.234839201 0.1915931255 -0.1153495833
2.235537529 0.1908669621 -0.03846330941
2.221221924 0.1939417571 0.03821897134
2.137105942 0.1858447045 0.1102206558
2.142059088 0.185899809 0.1843961626
2.211708546 0.1911655217 0.2674378753
2.181681633 0.1878040731 0.3401400745
2.198184013 0.188837111 0.4206058383
2.167110682 0.1854067892 0.492189467
2.17414999 0.1852435917 0.5730774403
2.276437283 0.1907577217 -0.6005122662
2.149985075 0.1797836125 -0.4881403744
2.269104481 0.1889469326 -0.4343441129
2.262974024 0.1876422316 -0.3529676795
2.263831139 0.187314406 -0.2737751007
2.242133141 0.1847321987 -0.1931117475
2.247469902 0.1843810827 -0.1159776226
2.248147964 0.1840427816 -0.03867273405
2.217900038 0.1858524978 0.03814916313
2.145703077 0.1790494919 0.1106393486
2.146697521 0.1783769578 0.1847447902
2.212362289 0.1834455729 0.2674378753
2.19019866 0.1808370352 0.3413915634
2.196905136 0.1806187481 0.4202242494
2.183313608 0.1787351668 0.4957886934
2.170932531 0.1773391515 0.5720421672
2.286717653 0.1835827082 -0.6031004786
2.226388693 0.1779583395 -0.5056865811
2.26361537 0.1797412336 -0.3529676795
2.272417784 0.1796420366 -0.2747500539
2.254713058 0.1774494201 -0.1941576153
2.248099804 0.1765352786 -0.1159776226
2.260769367 0.1767351329 -0.03888216615
2.226539612 0.1783614606 0.03828878701
2.166254282 0.1727702022 0.1116860732
2.15723753 0.1716732234 0.1856163591
2.21499896 0.1754908115 0.2676816285
2.206600428 0.1740514636 0.3438944817
2.199479103 0.1731024235 0.4206058383
2.199466467 0.1723300666 0.4993879199
2.185049772 0.1704331636 0.5756655931
2.298932314 0.1760859489 -0.6062062383
2.298890114 0.1756791621 -0.5223329067
2.150984764 0.163621217 -0.4110653996
2.278047085 0.1724879593 -0.3551577628
2.269072294 0.1714090556 -0.2742625773
2.259291887 0.1698782444 -0.1945062429
2.252715111 0.1685919464 -0.1161869615
2.26934886 0.1694396138 -0.03902178258
2.243099451 0.1718094498 0.03856801987
2.16684413 0.1652089953 0.1116860732
2.169772148 0.164669469 0.186662212
2.211639166 0.1674597263 0.2671941519
2.220983267 0.1673865318 0.3460845947
2.207930088 0.1656277329 0.4221323431
2.194253206 0.1638326496 0.4980382323
2.208749771 0.1645263433 0.5818772912
2.311063528 0.1693087965 -0.6093121171
2.155431509 0.1567726582 -0.4118286371
2.268755674 0.1642190665 -0.3535934091
2.277576685 0.1640573591 -0.2752375305
2.279715538 0.1638125926 -0.1962493509
2.269199371 0.1622597277 -0.1170243397
2.265937328 0.1612326056 -0.03895197436
2.25166297 0.1645620465 0.03870764375
2.167407751 0.1576437205 0.1116860732
2.182229519 0.1583378762 0.1877080798
2.228049517 0.1608817875 0.2691440582
2.227464914 0.1600580364 0.3470231593
2.226090908 0.1595688164 0.4255668819
2.192840815 0.1564160883 0.4975883365
2.211237669 0.1569515318 0.5823948979
2.307785988 0.1609722972 -0.608276844
2.317557335 0.1608399004 -0.5263820887
2.19905448 0.1522311568 -0.4202242494
2.290018082 0.1569219381 -0.2766999602
2.276297808 0.1555815637 -0.1959007382
2.277722836 0.1548802108 -0.1174430177
2.274466991 0.1538613141 -0.03909159452
2.260203123 0.1572569162 0.03884726018
2.179899693 0.1509051472 0.112314105
2.178793669 0.1504465193 0.1873594671
2.240479946 0.1539202332 0.270606488
2.210273027 0.1510688663 0.3442073464
2.238386869 0.1525979191 0.4278565943
2.20892787 0.1498150229 0.5011875629
2.219481945 0.149752602 0.5844655037
2.312189341 0.1531704068 -0.6093121171
2.333660603 0.1537746638 -0.5299812555
2.303400755 0.1513769925 -0.4404500127
2.149605513 0.1405161768 -0.334508419
2.300456524 0.1495707035 -0.2779186368
2.284780025 0.1481510252 -0.1965979636
2.292201281 0.1478288025 -0.1181757301
2.286963463 0.1466894597 -0.03930102289
2.268719673 0.1498930901 0.03898688033
2.18838501 0.1438182741 0.1127327904
2.187258005 0.1433608234 0.1880567074
2.256850719 0.1471311003 0.2725563943
2.234441757 0.1448869705 0.3479617834
2.221273184 0.1436437964 0.4244220257
2.213326693 0.1423541456 0.5020873547
2.214207172 0.1416347474 0.5829125643
2.328134537 0.1460655332 -0.6134532094
2.330293179 0.1453855336 -0.5290814638
2.333307028 0.1451636553 -0.446174264
2.148111343 0.1328892708 -0.3341955841
2.304927588 0.1417839527 -0.2784061432
2.301192284 0.1411499679 -0.1979924589
2.296690226 0.1400702745 -0.1183850765
2.299437761 0.1394311786 -0.03951045126
2.261245966 0.1414738894 0.03884726018
2.204820871 0.1371700615 0.1135701686
2.201664686 0.1365890205 0.1892768741
2.257350683 0.1392517239 0.2725563943
2.244792223 0.1376905143 0.3495261073
2.227639914 0.1362482011 0.4255668819
2.233261585 0.1358096302 0.5065863729
2.21854496 0.1341385096 0.5839478374
2.336344004 0.1383953691 -0.6155237556
2.330786705 0.1372497827 -0.5290814638
2.34163928 0.1374787688 -0.4477007091
2.186030388 0.1275772601 -0.3401400745
2.311616421 0.1336921304 -0.1988640279
2.297165155 0.1320518702 -0.1183850765
2.315881968 0.132316798 -0.03978969157
2.281687975 0.1347581893 0.0391963087
2.213261604 0.1299416572 0.1139888465
2.21605134 0.1297173649 0.1904970706
2.249896049 0.130910486 0.271581471
2.263008118 0.1308808774 0.3523419499
2.249661922 0.1297150552 0.429764688
2.237612963 0.1282367259 0.5074861646
2.238286734 0.1274915189 0.5891242027
2.348386049 0.1308835596 -0.6186295748
2.342926025 0.1297600567 -0.5317808986
2.334263802 0.1288705766 -0.446174264
2.143324852 0.1168284342 -0.2584195733
2.322016239 0.1261632144 -0.1997355819
2.313567162 0.1248931363 -0.1192224547
2.312336445 0.1240172535 -0.03971988335
2.294124365 0.1274588406 0.03940573707
2.205724955 0.1217741668 0.1135701686
2.22643733 0.1225279272 0.1913686246
2.262232065 0.1237058192 0.2730438709
2.261478424 0.1228739917 0.3520290852
2.271665335 0.1230287701 0.4339624941
2.239993095 0.1205303967 0.5079360604
2.246434927 0.1200895831 0.5911948085
2.344969988 0.1224854365 -0.6175943017
2.358933687 0.1223880723 -0.535380125
2.342541933 0.1211288124 -0.4477007091
2.285506725 0.117378667 -0.3557835221
2.159579754 0.110155575 -0.2603694797
2.314483404 0.1176518947 -0.1990383416
2.32595706 0.1174211949 -0.1198504716
2.316749334 0.1161456704 -0.03978969157
2.310531139 0.120281145 0.03968497738
2.218104124 0.1146943495 0.1141982004
2.230831146 0.1149610057 0.1917172521
2.274545193 0.1164187938 0.2745063305
2.261893749 0.114978604 0.3520290852
2.266198635 0.1148009226 0.4328176379
2.255970478 0.1134933382 0.5115352869
2.250699043 0.1124405786 0.592230022
2.356960535 0.1148627847 -0.6207001209
2.371025324 0.1147186607 -0.5380795002
2.34687233 0.1131395251 -0.4484639764
2.2859025 0.1094005331 -0.3557835221
2.34031868 0.1099569201 -0.1205831841
2.325130701 0.1084310934 -0.039929308
2.314931631 0.1124085039 0.0397547856
2.23445034 0.1077198088 0.1150355637
2.231218815 0.1071726605 0.1917172521
2.290800571 0.1092342362 0.2764562368
2.283986092 0.1081102863 0.3554706573
2.274429798 0.1072601229 0.4343441129
2.25879693 0.1049415097 0.5943005681
2.372786283 0.1073325202 -0.6248412132
2.375304937 0.1066156849 -0.5389793515
2.370788574 0.105998382 -0.4530434012
2.286270618 0.1014199704 -0.3557835221
2.352663755 0.1035435349 -0.2840121388
2.158000708 0.09459780157 -0.1852677315
2.334701777 0.1015282944 -0.1202691719
2.337482214 0.1008306667 -0.04013874009
2.315309763 0.1043287888 0.0397547856
2.25077486 0.1006325409 0.1158729419
2.245512009 0.1000056416 0.1929374188
2.297117233 0.1014994457 0.2771874666
2.28434968 0.1001364142 0.3554706573
2.274790287 0.09931961447 0.4343441129
2.287858248 0.09909009188 0.5187336802
2.26107955 0.09714066982 0.5948182344
2.384727716 0.09953316301 -0.6279470921
2.383450747 0.09864537418 -0.540778935
2.290557861 0.09359946847 -0.3564092517
2.172252893 0.08762595057 -0.1864879131
2.335042 0.09337742627 -0.1202691719
2.357801199 0.09346327931 -0.04048778862
2.33164382 0.09690994024 0.04003402591
2.247121334 0.09261124581 0.1156636029
2.259782791 0.09273801744 0.1941576153
2.287540197 0.09307734668 0.2759687304
2.302448988 0.09287789464 0.3582864404
2.286893129 0.09185172617 0.4366338253
2.284295797 0.09094771743 0.5178338885
2.276847601 0.08985628933 0.5989593267
2.404364824 0.09194589406 -0.6331234574
2.395464659 0.09076935798 -0.5434783697
2.328310013 0.08781667799 -0.4446478188
2.377726793 0.08885055035 -0.3701755106
2.371182919 0.08777610213 -0.2862057686
2.172545433 0.08004433662 -0.1864879131
2.350119591 0.08494288474 -0.04034816474
2.343957186 0.08922728151 0.04024345428
2.251422405 0.0849167183 0.1158729419
2.27203846 0.0852971971 0.1952034831
2.313639402 0.08605030924 0.2791373432
2.296837091 0.08462368697 0.3573478758
2.302895308 0.08444333822 0.4396867752
2.296284199 0.08339944482 0.5205333233
2.404670954 0.08355418593 -0.6331234574
2.395766973 0.08240643144 -0.5434783697
2.328602314 0.07968931645 -0.4446478188
2.399739027 0.08128515631 -0.3736170232
2.375442743 0.07963211089 -0.2866932452
2.340079546 0.07803777605 -0.2011300772
2.185924053 0.07213310897 -0.1124187708
2.358396292 0.07699932158 -0.04048778862
2.360242605 0.08159691095 0.04052269459
2.263681889 0.07746760547 0.1165009812
2.2663486 0.07716287673 0.1946805418
2.329797745 0.07850900292 0.2810872495
2.30304122 0.07680261135 0.3582864404
2.318873644 0.07692434639 0.4427397251
2.298508883 0.07544671744 0.5209832191
2.298658371 0.07464843988 0.6046533585
2.410740852 0.07534020394 -0.6346763968
2.368112803 0.07276693732 -0.4522801638
2.405931473 0.07308845967 -0.3745556474
2.387611389 0.07169664651 -0.2881556749
2.368218422 0.07070174813 -0.2035704255
2.172187805 0.06408947706 -0.1116860732
2.368644714 0.06905951351 -0.04066231102
2.356515408 0.07323276997 0.04045288265
2.277912378 0.06999528408 0.1172336787
2.341962814 0.07073608786 0.2825496793
2.32501483 0.06941193342 0.3617280126
2.313240767 0.06865636259 0.4415948689
2.320185184 0.06805191189 0.5259321332
2.302767277 0.06673548371 0.6056886315
2.416782141 0.06708484888 -0.6362292767
2.421340704 0.06594268233 -0.4625838399
2.410120964 0.06479527801 -0.3751813769
2.403722286 0.06378364563 -0.2901056111
2.404301405 0.06337910891 -0.2067080289
2.200350285 0.05723426864 -0.1131514683
2.364752531 0.06522759795 0.0405925028
2.153307438 0.05826700851 0.1847447902
2.342195511 0.06256005913 0.2825496793
2.335116625 0.06155534834 0.3632923663
2.323279381 0.06083756685 0.4435029626
2.324304819 0.06005258486 0.5268319249
2.306848764 0.05879585445 0.6067239046
2.445108175 0.05804989487 -0.4671632349
2.422181845 0.05665852129 -0.3770585954
2.403930426 0.05539320409 -0.2901056111
2.402516365 0.05493996292 -0.20653373
2.382241488 0.0536455214 -0.1226766258
2.199136972 0.04875422269 -0.03769540042
2.376960516 0.05726212263 0.04080192745
2.173416138 0.05122006685 0.1864879131
2.342399359 0.0543843843 0.2825496793
2.345191479 0.0536290817 0.36485672
2.327403069 0.05281700939 0.4442661703
2.342034578 0.05233005062 0.5308811069
2.328285217 0.05121086538 0.6124179363
2.425909042 0.0495448634 -0.5502268672
2.435481787 0.04931515083 -0.4652551413
2.444089651 0.04863600433 -0.3805001676
2.410063505 0.04711735249 -0.2908368111
2.418629646 0.04686256126 -0.2079282254
2.406376839 0.045784913 -0.1239326894
2.175301313 0.04062880948 -0.03727654368
2.393140078 0.04929458722 0.04108116776
2.197485447 0.04411238432 0.1885796487
2.346544027 0.04628521949 0.2830371559
2.349314451 0.04551953077 0.3654824495
2.347202063 0.04506881535 0.4480823576
2.32661581 0.04386114702 0.5272818804
2.326518059 0.04304696247 0.61190027
2.457242727 0.0416049175 -0.5574253201
2.43956542 0.04087973014 -0.4660184085
2.4521451 0.04023438692 -0.3817516267
2.426091433 0.03895986825 -0.2927867174
2.414793968 0.03835690394 -0.2075795829
2.426492214 0.03769555315 -0.1249794066
2.369304657 0.040529605 0.04066231102
2.283287287 0.03786238655 0.1960750371
2.384403229 0.03870664909 0.2876681983
2.347483873 0.03728773817 0.3651695848
2.36108613 0.0370905064 0.450753659
2.354033709 0.03615786135 0.533580482
2.336312294 0.03507110849 0.6144884825
2.472961187 0.03323731571 -0.561024487
2.459323883 0.03262357041 -0.4698345959
2.454245806 0.03170058876 -0.3820645213
2.428197861 0.0305152908 -0.2930304408
2.418897867 0.02997735515 -0.2079282254
2.442585945 0.02941705659 -0.1258167773
2.455470324 0.02871503681 -0.0421632193
2.18547678 0.02975388616 0.0374510698
2.360667706 0.03131486848 0.121525228
2.313288689 0.03028258309 0.1986896992
2.367352247 0.02933854982 0.3682982624
2.361201286 0.0288490504 0.450753659
2.354145527 0.02794214524 0.533580482
2.348011017 0.02704853937 0.6175943017
2.328724861 0.02398112603 -0.6124179363
2.476959705 0.02464298345 -0.5619243383
2.467275381 0.0241159983 -0.4713610411
2.458292007 0.02317005955 -0.3826902509
2.44416976 0.02218375355 -0.294980377
2.434926033 0.02167487517 -0.2093227059
2.432687759 0.02080576681 -0.1252934188
2.451556444 0.02011021227 -0.04209340736
2.165571213 0.02192299813 0.03710202128
2.352774143 0.02299682423 0.1211065501
2.333303213 0.02239925787 0.2004328221
2.381267071 0.02119722217 0.3704883456
2.36717701 0.02065750957 0.4518985152
2.383458853 0.01996873692 0.5403289795
2.355818033 0.01891482249 0.6196648479
2.477543116 0.0168652758 -0.6522760391
2.480927944 0.01602113992 -0.5628241301
2.486976624 0.01562733576 -0.4751772285
2.470209837 0.01465855446 -0.3845674396
2.452172279 0.01369557157 -0.2959553003
2.446941137 0.01323929522 -0.2103685737
2.446726084 0.0123840915 -0.1260261238
2.449611902 0.01154482085 -0.04205850139
2.169634104 0.01438955683 0.03717182949
2.351298332 0.01436328702 0.2020016313
2.397129297 0.0129697863 0.3729912937
2.380977392 0.01246798504 0.4545698464
2.37182188 0.01159101818 0.5376296043
2.377120018 0.01078717038 0.6253588796
2.50463295 0.008305963129 -0.6595230103
2.490712404 0.007390420418 -0.565073669
2.490942717 0.006956374273 -0.4759404361
2.482098103 0.006065305788 -0.386444658
2.4581604 0.005147626158 -0.2966865301
2.470880985 0.0047442168 -0.2124603093
2.458738089 0.003861517413 -0.1266541481
2.459635735 0.003005574923 -0.04223302752
2.24765873 0.007062576711 0.03853311762
2.363288641 0.006186302751 0.2030474991
2.352950096 0.005339072086 0.2837683856
2.393209219 0.004595083185 0.3723655641
2.394749165 0.004180101212 0.4572412074
2.395232677 0.003344899509 0.5430284142
2.392598152 0.002504954115 0.6295000315
2.496919155 -0.0004357945872 -0.6574524045
2.512159348 -0.001315363566 -0.570022583
2.494878292 -0.001741753775 -0.4767037332
2.497907162 -0.002615803154 -0.3889476359
2.479999542 -0.003462734632 -0.2993676662
2.466897726 -0.00387499691 -0.2121116966
2.470720291 -0.004743447993 -0.1272821873
2.467630148 -0.005598885007 -0.04237264767
2.469635725 -0.0008620655281 0.04240754992
2.369272709 -0.002067580819 0.2035704255
2.42044735 -0.002957135905 0.2920555174
2.40111208 -0.003771661082 0.3736170232
2.40849185 -0.004203615244 0.4599125087
2.387434959 -0.005000238772 0.5412288308
2.384864569 -0.005827335641 0.6274294257
2.508493423 -0.009194149636 -0.6605582833
2.521883011 -0.01012354065 -0.5722721219
2.502709866 -0.01048338786 -0.4782301784
2.501833677 -0.01135303825 -0.3895733654
2.493867636 -0.01218743343 -0.3010738194
2.46886158 -0.01249613799 -0.2122860104
2.490660906 -0.01347590424 -0.1283289045
2.47159481 -0.01423552074 -0.04244245589
2.469617605 -0.009482697584 0.04240754992
2.241020441 -0.009387218393 0.1152449176
2.371243477 -0.01034656726 0.2037447393
2.42240715 -0.01141540986 0.2922992408
2.412936449 -0.01221307367 0.3754942715
2.41238904 -0.01263135485 0.4606757462
2.420530796 -0.013518936 0.5488771796
2.392557383 -0.01419788692 0.6295000315
2.425378561 -0.0173559431 -0.6382998228
2.530142784 -0.01943048276 -0.4835728407
2.495852709 -0.02003841847 -0.3886347413
2.507705212 -0.02100899257 -0.3027800024
2.488726139 -0.02128438465 -0.2140291184
2.492595673 -0.02218762599 -0.1284335703
2.485527277 -0.02299238928 -0.04268679023
2.46557045 -0.01807389967 0.0423377417
2.161085844 -0.01659627259 0.111058034
2.385139465 -0.0187332239 0.2049649209
2.438232899 -0.02000138722 0.2942491472
2.428681612 -0.02077086642 0.3779972196
2.416256428 -0.02108635008 0.4614389539
2.408776999 -0.02186196484 0.5461777449
2.400220156 -0.0226222109 0.631570518
2.489430904 -0.0317193158 -0.04275659844
2.48348856 -0.02687498182 0.04265188798
2.200957298 -0.02458595112 0.1131514683
2.404981852 -0.02728482336 0.2067080289
2.442118168 -0.02855871059 0.2947366238
2.444396257 -0.02943873033 0.3805001676
2.424020767 -0.02961647511 0.4629654586
2.434017658 -0.03058837727 0.5520264506
2.419443369 -0.03124990128 0.6367468834
2.328615665 -0.03292221949 -0.6124179363
2.144940853 -0.03144872934 0.1102206558
2.416825294 -0.03585695103 0.2077539116
2.461852312 -0.03738453239 0.2971740067
2.442303419 -0.03794040158 0.3801873028
2.443532705 -0.03838607669 0.466781646
2.420256615 -0.0388654694 0.5488771796
2.428977489 -0.0398536101 0.6393350959
2.266676426 -0.03996071965 -0.5958535075
2.240922451 -0.04028915986 -0.5074861646
2.207879782 -0.04008056223 -0.4209874868
2.193325043 -0.04058221355 -0.3407658041
2.197728157 -0.04143110663 -0.2647567391
2.207490683 -0.0420005694 -0.1894512028
2.230634928 -0.04321983829 -0.114721559
2.239235401 -0.04416842014 -0.03839349747
2.476752996 -0.0475560911 0.4732691348
2.433744907 -0.0475801453 0.5520264506
2.434617996 -0.04844738916 0.6408880353
2.28231287 -0.0494017154 -0.4354889691
2.212918997 -0.04867247492 -0.3438944817
2.213447094 -0.04945710674 -0.2667066753
2.193387508 -0.04939191043 -0.1882310212
2.216493368 -0.05068632215 -0.1139888465
2.197085619 -0.05100984126 -0.03766049817
2.223169565 -0.04734514281 0.03811426088
2.180611372 -0.04720034078 0.1121047512
2.289033175 -0.04994688556 0.1965979636
2.270878553 -0.05906843394 -0.1950291842
2.242258072 -0.05910721049 -0.1153495833
2.238872528 -0.0598000288 -0.03839349747
2.189006329 -0.0542627275 0.03752087802
2.186423063 -0.054962378 0.1124187708
2.175315142 -0.05506305024 0.186662212
2.201364517 -0.05649134517 0.2652442455
2.189009428 -0.05693891644 0.3401400745
2.195711374 -0.05749673024 0.4186977446
2.24049592 -0.05945207551 0.5074861646
2.170246363 -0.0621367991 0.1115813926
2.183076143 -0.06288546324 0.1873594671
2.177342415 -0.06348097324 0.2623193562
2.163128614 -0.06382228434 0.3360727727
2.16606164 -0.06428720057 0.4129734933
2.168204069 -0.06510830671 0.490839839
2.182952166 -0.06631387025 0.573595047
2.248557806 -0.07262799889 0.1931117475
2.207029581 -0.07321471721 0.4209874868
2.208863974 -0.07404746115 0.5002877116
2.194292068 -0.07432578504 0.5767009258
2.313900471 -0.08120753616 -0.6087944508
2.354781628 -0.08346526325 -0.5340303779
2.524689436 -0.08992885798 -0.4828095734
2.583154678 -0.09291422367 -0.402713865
2.583508492 -0.09382993728 -0.3122858107
2.5767591 -0.09403514117 -0.2218731344
2.602775097 -0.09589431435 -0.1342951953
2.585830212 -0.09617387503 -0.0444669351
2.586009979 -0.09120927006 0.0444669351
2.510065317 -0.09160123765 0.3911376894
2.497127056 -0.09156548977 0.4774669409
2.543545961 -0.09415666014 0.5776709318
2.64267087 -0.1029069424 -0.6006159186
2.500819445 -0.09782031924 -0.4782301784
2.600579262 -0.1026316285 -0.4055296779
2.579198122 -0.1026895493 -0.3117983341
2.58836031 -0.103506811 -0.2229190022
2.616394043 -0.1055426151 -0.1350279152
2.59347105 -0.1055247113 -0.04460655525
2.561697721 -0.09930603206 0.04404807836
2.239327431 -0.08759198338 0.1152449176
2.323648214 -0.09129639715 0.1997355819
2.515651464 -0.1005992368 0.3920763135
2.532102346 -0.1016997397 0.4843360782
2.513994694 -0.1018514261 0.5709223747
2.496767282 -0.10202647 0.6579700708
2.589287758 -0.108976014 -0.6828166842
2.628666639 -0.1115525886 -0.597466588
2.635804415 -0.1123163626 -0.5045617819
2.598231792 -0.1116239354 -0.4052168131
2.610555887 -0.1130663529 -0.3156981766
2.623812199 -0.1140993088 -0.2260566205
2.604037523 -0.114150092 -0.134399876
2.595084667 -0.1146652475 -0.0446414575
2.567329168 -0.1085007191 0.04415279254
2.175153732 -0.09268721193 0.1118954122
2.398957014 -0.1026433259 0.2063594162
2.548834801 -0.1108388379 0.3973950744
2.535654783 -0.1107090786 0.4850992858
2.542826653 -0.1119115278 0.5776709318
2.511835575 -0.1114261001 0.6621111631
2.660295963 -0.1212685928 -0.7019693255
2.651085615 -0.1222397685 -0.5076147318
2.649130583 -0.1230763271 -0.4133513868
2.637905836 -0.1234776378 -0.3191104829
2.637307644 -0.1243722811 -0.2272767872
2.61758852 -0.1239002198 -0.135132581
2.624629736 -0.1251517385 -0.04516502842
2.148880005 -0.09908340871 0.1105346754
2.468243122 -0.1142407358 0.2124603093
2.520934343 -0.1175613776 0.3047299087
2.546459436 -0.1196425557 0.3970822096
2.539174795 -0.1197444499 0.4858625233
2.536580801 -0.1205095351 0.5763211846
2.528798103 -0.1210245118 0.6667699218
2.681058168 -0.1320637316 -0.7076632977
2.650619745 -0.1319556683 -0.5076147318
2.656553268 -0.1331806779 -0.4146028757
2.635476589 -0.1325851828 -0.3188667595
2.630887747 -0.133275032 -0.2267538458
2.623100758 -0.1337985396 -0.1354465932
2.151076078 -0.1059578359 0.03689258918
2.338027716 -0.1159848347 0.1204785109
2.445919037 -0.1221930161 0.2105429024
2.562143087 -0.1284476221 0.3098484278
2.549971819 -0.1287298054 0.3977079391
2.558326006 -0.1300468594 0.4896787107
2.547799349 -0.1304034293 0.5790206194
2.541865587 -0.1305445135 0.6703934073
2.685709953 -0.1426322907 -0.6109636426
2.659945488 -0.1417295635 -0.5095227957
2.669880152 -0.1431935281 -0.416792959
2.646865845 -0.1428858191 -0.3203291893
2.656269789 -0.1438584179 -0.2290199101
2.640566587 -0.143932417 -0.1363886446
2.152670383 -0.1139469296 0.03692749515
2.437308311 -0.1298668087 0.1257120967
2.445477724 -0.1307301223 0.2105429024
2.581477404 -0.1389040798 0.3122858107
2.561317921 -0.1387160122 0.3995851874
2.567658663 -0.1395088732 0.4915867746
2.560949326 -0.1400409341 0.58216995
2.541369915 -0.1398600489 0.6703934073
2.689086914 -0.1522265822 -0.6118634343
2.673308134 -0.1527376175 -0.4174186885
2.666169405 -0.1532634795 -0.3227665722
2.655751467 -0.1531296521 -0.2290199101
2.14204073 -0.1250097454 -0.03675297275
2.236113071 -0.1261926591 0.03839349747
2.446810722 -0.1389399767 0.1262354702
2.458930492 -0.140058741 0.211763069
2.590886116 -0.1484821737 0.3135044873
2.570678473 -0.1482243836 0.4011495113
2.582835674 -0.1493776739 0.4946397245
2.576008558 -0.1498850286 0.5857691169
2.544723272 -0.1489560008 0.6714286804
2.700740814 -0.1613996476 -0.7133573294
2.692429543 -0.1618461758 -0.612763226
2.686561108 -0.1629052311 -0.4196088016
2.681469202 -0.1635359377 -0.3247164786
2.667132854 -0.1631288379 -0.2300657779
2.147602081 -0.1324816942 -0.03685768694
2.646858454 -0.1586431861 0.04558388889
2.454310894 -0.147532478 0.1266541481
2.460415602 -0.1487614214 0.2119373977
2.606203318 -0.1584890932 0.3154544234
2.591861725 -0.1580709964 0.4045910537
2.578379393 -0.1581521481 0.493876487
2.587140083 -0.1595959961 0.5884685516
2.561568975 -0.1584673375 0.6760873795
2.727153063 -0.1725336462 -0.7206043005
2.709256649 -0.1728257239 -0.5194448829
2.695863008 -0.1724437773 -0.4211731255
2.682893515 -0.1725545079 -0.3249602318
2.132703781 -0.138289541 -0.1098019779
2.685900688 -0.1751016527 -0.04628198594
2.658291817 -0.1681771427 0.04579331726
2.439828396 -0.1552111208 0.125921458
2.455904484 -0.157094568 0.2115887552
2.60170126 -0.1668765694 0.3149669468
2.61297822 -0.1685157716 0.4080326259
2.59155488 -0.1675883234 0.496547848
2.600208998 -0.1690594405 0.5916178823
2.576421976 -0.1684160233 0.6802285314
2.738131046 -0.1823464781 -0.7237101197
2.741819859 -0.1835534722 -0.6244606972
2.714545012 -0.182203427 -0.5205897689
2.698119164 -0.1829931438 -0.3269101381
2.13220787 -0.1457332224 -0.1098019779
2.701233149 -0.1855725795 -0.04656122625
2.671655655 -0.1783878654 0.04603765532
2.431300402 -0.1631917208 0.1255027652
2.449406385 -0.1648364663 0.2110658288
2.624869823 -0.1775649339 0.3178918064
2.604490995 -0.1770996898 0.4067811668
2.610541344 -0.1779688448 0.500363946
2.60543561 -0.1785344779 0.5929675698
2.598946095 -0.1790012866 0.6864402294
2.737478018 -0.1919032186 -0.7237101197
2.73144269 -0.1924383044 -0.6222112179
2.725642681 -0.1925077736 -0.5228794217
2.12476182 -0.1519320607 -0.1826530397
2.694585323 -0.1945684701 -0.04645651206
2.680990458 -0.1884135753 0.04621217772
2.454623699 -0.1733661294 0.1267588288
2.456765652 -0.1739483178 0.211763069
2.636114597 -0.1875717342 0.3193542361
2.615679026 -0.1870353073 0.4086583555
2.627528191 -0.1883435547 0.5037985444
2.614515066 -0.1883281171 0.5952171087
2.600231886 -0.1882116646 0.6869577765
2.744498253 -0.2020249516 -0.7257806659
2.767679691 -0.20470272 -0.6307593584
2.727397919 -0.2031593025 -0.4264918864
2.112298012 -0.1584537327 -0.1816071868
2.7246387 -0.2053448409 -0.1409942061
2.69987154 -0.20442608 -0.04656122625
2.696270704 -0.1989480257 0.04649141803
2.471929789 -0.1832622886 0.1277008802
2.472038746 -0.1837042123 0.2131575644
2.651280642 -0.1979547888 0.3213041425
2.63273859 -0.1974945217 0.4114741981
2.63664341 -0.1982502043 0.5057066679
2.633273602 -0.1989212334 0.5997161269
2.607264519 -0.1978717893 0.6890283823
2.753407001 -0.2123465389 -0.7283688784
2.749461889 -0.2130077481 -0.6267102361
2.726189613 -0.211683467 -0.5232610703
2.744396448 -0.2140609622 -0.4293076992
2.124115944 -0.1664255261 -0.256469667
2.135567188 -0.1676977426 -0.1836989224
2.715940952 -0.2142261416 -0.1405755281
2.711102247 -0.2147967517 -0.04677065089
2.691572189 -0.2080503106 0.04642160237
2.489196301 -0.1932813674 0.1286429167
2.487273693 -0.1935688108 0.2145520598
2.664426804 -0.2082912475 0.3230103254
2.643849134 -0.2076111436 0.4133513868
2.632020712 -0.2071445435 0.5049434304
2.642276764 -0.208879739 0.6019656062
2.618112564 -0.2078891248 0.6921342015
2.76805377 -0.2231985927 -0.7325099707
2.750644207 -0.222761184 -0.6271601319
2.778268337 -0.2254864126 -0.5335647464
2.111651182 -0.1728672534 -0.2550072074
2.74855566 -0.2254894674 -0.2375611663
2.745034218 -0.226165235 -0.1421456039
2.738236666 -0.2265675217 -0.04725931957
2.708768606 -0.2188940048 0.04673574865
2.512394905 -0.2039079219 0.1298989803
2.516370296 -0.2046726495 0.2171667367
2.657747984 -0.2171057165 0.3222790956
2.664764643 -0.2186153233 0.416792959
2.650848389 -0.2179394215 0.5087596178
2.64929986 -0.2187431306 0.6037651896
2.644324541 -0.2192617059 0.6993811727
2.778807878 -0.2338314354 -0.7356157899
2.771209955 -0.2341662794 -0.6321091056
2.771595716 -0.2346860766 -0.5324198604
2.134638548 -0.1815019548 -0.3326312304
2.767603159 -0.2367807031 -0.2393042892
2.748207808 -0.2360876799 -0.1423549354
2.745398045 -0.2368117571 -0.04739893973
2.727914095 -0.2300282866 0.04708479717
2.627096176 -0.2224505097 0.1359699517
2.680416584 -0.2274366468 0.2316345721
2.684664965 -0.2287410051 0.3256914616
2.673826218 -0.2287576646 0.4183573127
2.667675972 -0.2287005037 0.5121941566
2.664052725 -0.2293266654 0.6073644161
2.662789822 -0.2301543653 0.704557538
2.764503479 -0.2423489094 -0.7319923043
2.805317879 -0.2469136566 -0.6402073503
2.11825037 -0.1875583082 -0.3301282823
2.774764061 -0.246664837 -0.3369034231
2.784620762 -0.248030901 -0.2408730984
2.765271187 -0.2472803295 -0.1432970017
2.752521515 -0.2471087575 -0.04753855988
2.743030787 -0.2409489453 0.04736403748
2.642219782 -0.2330231369 0.1368073374
2.691514254 -0.2378439307 0.2326804549
2.695713997 -0.2391634136 0.3271538615
2.686784506 -0.2393164486 0.4205473661
2.686416388 -0.2397562563 0.516010344
2.676822662 -0.2398419082 0.6105137467
2.661970139 -0.2394478321 0.704557538
2.757869005 -0.2514710724 -0.7304394245
2.816082478 -0.2577703595 -0.6429067254
2.113648653 -0.1945890337 -0.3295024931
2.779815912 -0.2568970323 -0.3376346231
2.771834373 -0.2566473782 -0.2398272157
2.788255215 -0.259149462 -0.1445530504
2.763588428 -0.2578298748 -0.04774798453
2.746155739 -0.2508862913 0.0474338457
2.655312538 -0.243521601 0.1375400275
2.690667629 -0.2472376376 0.2326804549
2.71462965 -0.2503950298 0.3295912445
2.697734833 -0.2497863919 0.4224245846
2.693382502 -0.24985753 0.517536819
2.695372581 -0.2509911358 0.6150127649
2.668812037 -0.2494575381 0.7066280246
2.768468142 -0.2626723349 -0.7335452437
2.088815928 -0.199290514 -0.3996168673
2.818375587 -0.2708822489 -0.3425094187
2.806573153 -0.270242244 -0.242964834
2.787286758 -0.2693671882 -0.1445530504
2.782575607 -0.2694020867 -0.04809703678
2.757162094 -0.2620851994 0.04764327407
2.676317453 -0.254871726 0.1386914253
2.713543653 -0.2593726516 0.2347721756
2.713693619 -0.2603429854 0.3295912445
2.714543104 -0.2609026134 0.4252404273
2.696357012 -0.2601046264 0.5183000565
2.709951878 -0.2623708546 0.6186119914
2.681384563 -0.2600774467 0.7102515101
2.771379709 -0.2727128863 -0.7345805168
2.103737354 -0.2081269175 -0.4026698172
2.831701756 -0.2806449533 -0.4440125525
2.819437027 -0.2804232836 -0.3427531421
2.807595015 -0.2802352607 -0.2431391329
2.794327497 -0.2794035375 -0.1449717432
2.797535658 -0.2807106674 -0.04837627336
2.776178837 -0.2731851339 0.04799232259
2.679386616 -0.2646048069 0.1389007717
2.732448339 -0.2708081305 0.2365152985
2.724667788 -0.2705172598 0.331053704
2.735237837 -0.2725309134 0.4286819696
2.715015173 -0.270994544 0.5221162438
2.711006165 -0.2715501487 0.6190618873
2.699682236 -0.2713677287 0.7154279351
2.77045989 -0.281901598 -0.7345805168
2.08041501 -0.212421447 -0.4728437066
2.149909019 -0.2198962867 -0.4118286371
2.850355625 -0.2925445437 -0.4471412599
2.824365139 -0.2908733487 -0.3434843719
2.842324018 -0.2932242453 -0.2462767363
2.813201427 -0.2912123501 -0.1460184604
2.808472872 -0.2917137146 -0.04858570173
2.787144423 -0.2840907574 0.04820175096
2.686394215 -0.274768889 0.1393194646
2.749373674 -0.2816954255 0.2380841076
2.735554934 -0.281244576 0.3325161338
2.728375196 -0.2814688683 0.4277433455
2.731628418 -0.282286346 0.5255507827
2.719733477 -0.2820166349 0.6213114262
2.719854593 -0.2829888761 0.7211219072
2.097102642 -0.2215245813 -0.4768928289
2.855880976 -0.3021811545 -0.5499743223
2.876817942 -0.3054119647 -0.4515214264
2.850967646 -0.3036740422 -0.3468967378
2.843264341 -0.3033553958 -0.24645105
2.828055143 -0.3027311265 -0.1468558311
2.81936717 -0.3027965724 -0.04879513383
2.813977003 -0.2967540622 0.04869041964
2.705280542 -0.2862460911 0.1403661817
2.762242556 -0.2927607298 0.2393042892
2.758244276 -0.2933106124 0.3354409933
2.743089676 -0.2926675081 0.4302463233
2.75014782 -0.293906033 0.5293669701
2.728420496 -0.2925473452 0.6235609055
2.722692013 -0.2928944528 0.7221571803
2.080818653 -0.227151677 -0.4732936025
2.880179882 -0.314922303 -0.5549353361
2.877697468 -0.3156674206 -0.4518342614
2.861729145 -0.3149267733 -0.3483591378
2.854070663 -0.3145881295 -0.2474969327
2.854773521 -0.3156742454 -0.1483212411
2.84214282 -0.315281868 -0.04921399057
2.812924147 -0.3065748513 0.04869041964
2.710220814 -0.2963387668 0.140680179
2.773087263 -0.3037024438 0.240350157
2.771015882 -0.3044545054 0.3371471465
2.765613317 -0.3048379719 0.4340007603
2.762764931 -0.3050120771 0.5320382714
2.754499435 -0.3050728142 0.6298595667
2.725492954 -0.3028233051 0.723192513
2.074317217 -0.2330385596 -0.5477131605
2.902473688 -0.3276165724 -0.5595148206
2.888355255 -0.3270440698 -0.4537115097
2.888226271 -0.3280505836 -0.3517715037
2.866812468 -0.326125145 -0.2487170994
2.855638504 -0.3258637786 -0.1484259069
2.618512154 -0.2997306883 -0.0453046523
2.825746775 -0.3179571033 0.04893475026
2.750847816 -0.3105017841 0.142878294
2.787848473 -0.3151710033 0.2417446524
2.781771183 -0.315467447 0.338609606
2.776308775 -0.3158295751 0.435877949
2.75583148 -0.3139873147 0.530893445
2.763098478 -0.3157923818 0.6321091056
2.751289129 -0.3154156506 0.7304394245
2.083086491 -0.2413897514 -0.550301373
2.89411521 -0.336396277 -0.6627023816
2.913012743 -0.3391081393 -0.5618044734
2.90289259 -0.3389571011 -0.4562144578
2.89297843 -0.3388231099 -0.3525027037
2.879508257 -0.3377549946 -0.2499372661
2.866385221 -0.3372300863 -0.1490539461
2.891506433 -0.3412089348 -0.05012151599
2.84249711 -0.3298936784 0.04924889654
2.745779514 -0.319640249 0.1426689625
2.808499813 -0.3274384737 0.2436620593
2.780653 -0.3251757026 0.338609606
2.802656412 -0.328740567 0.4402581453
2.774217129 -0.3258956075 0.5347096324
2.769720554 -0.3263475895 0.633908689
2.765519619 -0.3268314004 0.7345805168
2.170469046 -0.2591969669 -0.5741126537
2.912272215 -0.3488140702 -0.6672013998
2.923506975 -0.3506772816 -0.5640941858
2.917381287 -0.3509755731 -0.4587174058
2.897690296 -0.3496327996 -0.3532339036
2.909959793 -0.3516285121 -0.2527262568
2.890966177 -0.3503573239 -0.1504146755
2.88434267 -0.3505762517 -0.0500168018
2.765877247 -0.3307901323 0.04792251065
2.748613119 -0.3296985924 0.142878294
2.83503437 -0.3405668139 0.2461024374
2.803150892 -0.3377294242 0.3415344656
2.789725065 -0.3370997906 0.4383809268
2.794501781 -0.3381718695 0.5389074087
2.776302576 -0.3369528949 0.6357082725
2.781621218 -0.3385837078 0.7392392755
2.714095831 -0.3337299228 -0.7211219072
2.945850611 -0.3632707298 -0.6752996445
2.926162004 -0.3613613248 -0.5648574233
2.945544481 -0.3647988737 -0.4634104371
2.920091867 -0.3626815975 -0.356158793
2.908714771 -0.3617840111 -0.2527262568
2.901617289 -0.3619298339 -0.1510427147
2.889053822 -0.361386925 -0.05012151599
2.881803513 -0.3548621237 0.04998189583
2.779160738 -0.3432076573 0.1445530504
2.841737509 -0.3514389992 0.2467996776
2.82559514 -0.3504441082 0.3444592953
2.815975189 -0.3502491415 0.4427610934
2.816682816 -0.3508363962 0.5434868336
2.794446707 -0.3490573764 0.6402073503
2.790006876 -0.3494918942 0.7418274879
2.745496273 -0.3473236859 -0.7299218178
2.952297449 -0.3745325208 -0.6770992279
2.948254347 -0.3745424151 -0.5694368482
2.946212769 -0.3753281534 -0.4637233019
2.938498974 -0.3753878474 -0.3585961759
2.921267986 -0.3737048805 -0.2539464533
2.924108505 -0.3751056492 -0.1522987783
2.911575079 -0.3745310009 -0.05054037273
2.890466452 -0.3661759496 0.05015641823
2.785871029 -0.3539134562 0.1449717432
2.848399401 -0.3623621464 0.2474969327
2.844045877 -0.362817198 0.3468967378
2.830410719 -0.3620818853 0.4452640414
2.829072237 -0.3624125123 0.5461581349
2.808674097 -0.3607960045 0.6438065171
2.798349857 -0.3604627252 0.7444156408
2.763424635 -0.3593966365 -0.7350981832
2.970295906 -0.3873556852 -0.6815982461
2.962502718 -0.3868652284 -0.5724897981
2.962512493 -0.3879182637 -0.4665391445
2.956852674 -0.3882270753 -0.3610335588
2.941607714 -0.3872700334 -0.2558638752
2.934662104 -0.3868766427 -0.1529268175
2.930074453 -0.3873125017 -0.05088942125
2.897102594 -0.3772963285 0.05029603839
2.80838418 -0.3667393029 0.1462278068
2.866872787 -0.3748860657 0.2492400408
2.846698523 -0.3732586801 0.3473841846
2.848715067 -0.3745346367 0.4483927488
2.831683397 -0.3727982044 0.546921432
2.846037388 -0.3756986558 0.6528045535
2.810480595 -0.3720030785 0.7480391264
2.762088776 -0.369522661 -0.7350981832
2.980514765 -0.3992740512 -0.6842976809
2.990251541 -0.4016409516 -0.5782140493
2.966944218 -0.3995647728 -0.4674777389
2.967283249 -0.4001377523 -0.3624959588
2.959981918 -0.4002052844 -0.2576069832
2.93322444 -0.3976301253 -0.1529268175
2.952483177 -0.4007656872 -0.05130828172
2.915588379 -0.390058428 0.05064508691
2.813025475 -0.3773367107 0.146541819
2.883250713 -0.3877812922 0.250808835
2.868986368 -0.3863725662 0.3503090441
2.866966248 -0.3871195316 0.4515214264
2.843916416 -0.3850180209 0.5495927334
2.844641209 -0.3861273825 0.6528045535
2.834050179 -0.3851934671 0.7547684312
2.772265196 -0.3807390034 -0.7382039428
3.000267029 -0.4131195247 -0.6892466545
2.996610641 -0.413149029 -0.5797405243
3.006623268 -0.4155990183 -0.4740479589
2.973661661 -0.4121006429 -0.3634709418
2.986196041 -0.4143689275 -0.2600473762
2.959513187 -0.4117193818 -0.1543922126
2.951066256 -0.4110693336 -0.05130828172
2.935930729 -0.4037387073 0.05102904141
2.821584225 -0.3885158896 0.1470651776
2.893721819 -0.3994781971 0.2518547177
2.875416279 -0.3979739547 0.3512839973
2.87146759 -0.3979382217 0.4524600506
2.869778872 -0.3987252712 0.5549353361
2.854856491 -0.3976677954 0.6555039883
2.846081495 -0.3969518244 0.7583918571
2.767093182 -0.3898745775 -0.7371687293
3.014317751 -0.4252443016 -0.692845881
3.010701418 -0.4258060753 -0.5827934742
3.009140491 -0.4261209965 -0.4746737182
2.991932869 -0.4247496426 -0.3659083247
2.998538971 -0.4267552495 -0.2612675428
2.983836651 -0.4251941442 -0.155752942
2.96149087 -0.4230647087 -0.05151770636
2.952396631 -0.4159832597 0.05134318396
2.83998704 -0.4011561871 0.1481119096
2.91006422 -0.4120908976 0.253423512
2.901596785 -0.4114084542 0.3546963632
2.881795168 -0.4096270502 0.4543372393
2.885934114 -0.4107291996 0.5583699346
2.865097523 -0.4087841213 0.6582033634
2.858065128 -0.4087988138 0.7620153427
2.761961222 -0.3984967768 -0.7361334562
3.037887573 -0.4393900931 -0.6986945868
3.028702736 -0.4386012852 -0.5866096616
3.035002947 -0.4405953586 -0.4790538847
3.014004707 -0.4386213124 -0.3688331842
3.004916906 -0.4383699298 -0.2619647682
3.00209713 -0.4384936988 -0.1567996591
2.979781866 -0.4362966716 -0.05186675489
2.96675992 -0.4285737872 0.05162242055
2.868219137 -0.415360868 0.1496819854
2.912625313 -0.4223105609 0.2537721395
2.915858746 -0.4238186479 0.3566462696
2.895985603 -0.42196244 0.4568401873
2.898081541 -0.4227843285 0.5610412359
2.886791706 -0.4221664965 0.6636021733
2.862355232 -0.4196134806 0.7635682225
2.768126011 -0.4097487032 -0.7382039428
3.036335468 -0.4499915838 -0.6986945868
3.050378323 -0.4531610608 -0.5911890864
3.039229155 -0.4525891244 -0.4799924791
3.034052372 -0.4523594677 -0.3715143204
3.017161846 -0.45091784 -0.2631849349
3.010345697 -0.4509734511 -0.1573230326
2.998016357 -0.4496614933 -0.05221580341
2.975136757 -0.4403912127 0.05179694667
2.880581141 -0.4274222851 0.1504146755
2.926823139 -0.4353279173 0.25516662
2.918288469 -0.434579134 0.3571337461
2.921847343 -0.4361516535 0.4612203836
2.892629385 -0.4328224957 0.5602779984
2.906424046 -0.4359238744 0.668551147
2.878067017 -0.4321843386 0.7682270408
2.780049324 -0.4214356244 -0.7418274879
3.059711933 -0.464923054 -0.7045433521
3.070127964 -0.4670540094 -0.5953868628
3.055206299 -0.4658752084 -0.4828083217
3.04022336 -0.4646764696 -0.3724892735
3.039203167 -0.4650634229 -0.2652767003
3.014675856 -0.462387234 -0.1576370448
3.025995255 -0.4652045965 -0.05273937434
2.991296053 -0.4539932013 0.05211109295
2.880969763 -0.4382776618 0.1505193561
2.950891495 -0.4494417608 0.2574326694
2.928450108 -0.4470697045 0.3585961759
2.93780303 -0.4495469928 0.4640361667
2.918269157 -0.4470792115 0.5656206608
2.912589312 -0.447249651 0.6703507304
2.895557404 -0.4456689358 0.7734034061
2.78237915 -0.4317296445 -0.742862761
3.06769824 -0.4770980477 -0.7067928314
3.080118418 -0.4795801938 -0.5976766348
3.071126938 -0.4792782664 -0.4856241345
3.048388958 -0.4768198729 -0.3737079501
3.053308725 -0.4781353772 -0.2666711807
3.036720514 -0.4766238332 -0.1588931084
3.0283041 -0.4763859808 -0.05280918628
3.009453058 -0.4675016105 0.05246013775
2.897183418 -0.4510968626 0.1514613926
2.970959663 -0.4631150663 0.2593500912
2.950407267 -0.4609663785 0.3615210354
2.942070723 -0.4607159495 0.4649747908
2.939965725 -0.460912019 0.5702000856
2.922561169 -0.4592287242 0.6730501652
2.916883945 -0.4593800902 0.7796150446
2.777039289 -0.4408335984 -0.7418274879
3.085259676 -0.4908652902 -0.7112918496
3.086180687 -0.4915641546 -0.5992030501
3.090892792 -0.4934210181 -0.4890657067
3.074148417 -0.4918485284 -0.377120316
3.055555582 -0.4894206524 -0.2670198083
3.05475831 -0.4903867543 -0.1599398255
3.04645133 -0.4895986319 -0.0531582348
3.029526711 -0.4814561009 0.05284408852
2.91736865 -0.4641538262 0.1526127905
2.981130362 -0.4753653109 0.2603959739
2.976223469 -0.4756482542 0.3649334013
2.961983204 -0.4739026129 0.468416363
2.96160078 -0.4749017656 0.5747795105
2.938256741 -0.4722105563 0.6770992279
2.930603027 -0.4715051949 0.7837561369
2.773576736 -0.4502150714 -0.7413098216
3.118238211 -0.5067200065 -0.7193900943
3.103823185 -0.505489707 -0.6030192375
3.104836702 -0.5062110424 -0.4915686548
3.084255219 -0.5039607286 -0.3785827458
3.067591906 -0.5023374557 -0.268239975
3.078737736 -0.5047143698 -0.1613005549
3.060509682 -0.5028232932 -0.05343747512
3.03580904 -0.4927813709 0.0529837124
2.935444355 -0.4775415361 0.1536595076
2.981419086 -0.4860891104 0.2605702877
2.994221449 -0.4887128472 0.3673707843
2.979805231 -0.4874278307 0.4715450406
2.969696999 -0.4863065183 0.5766875744
2.961673737 -0.4860542715 0.6829479933
2.946095705 -0.4845538437 0.7884148359
2.775880098 -0.4600417018 -0.7423450947
