# .PCD v0.7 - Point Cloud Data file format
VERSION 0.7
FIELDS x y z
SIZE 4 4 4
TYPE F F F
COUNT 1 1 1
WIDTH 1161
HEIGHT 1
VIEWPOINT 0 0 0 1 0 0 0
POINTS 1161
DATA ascii
0.9086216688 -0.3981007338 0.2542123497
0.8886128664 -0.3908138573 -0.2485183477
0.9151835442 -0.4028810263 -0.220898509
0.9195349216 -0.4049882293 -0.1870556176
0.9191695452 -0.4052104354 -0.1524187028
0.9304321408 -0.4105634689 -0.1197322309
0.9098100066 -0.4016534388 -0.08329550922
0.9317981601 -0.4117492437 -0.05118569732
0.9236236811 -0.4083297849 -0.01692703739
0.9316563606 -0.4099386334 0.01706665568
0.9159203768 -0.4032053947 0.05024364963
0.9155598879 -0.4034282863 0.08381844312
0.9014433026 -0.3975838423 0.1158324108
0.8792685866 -0.3879869878 0.1455355883
0.9209061861 -0.4067441821 0.1874372363
0.9092025161 -0.4019542336 0.2195487916
0.8948592544 -0.3957998157 0.2505888641
0.896071434 -0.3978328705 -0.2511065304
0.8995948434 -0.399585098 -0.2172992826
0.9199095964 -0.408993125 -0.1874372363
0.899772048 -0.4002280235 -0.1492900103
0.9290655255 -0.4136466384 -0.1197322309
0.9047626853 -0.4032047391 -0.08294688165
0.9194825888 -0.4099569917 -0.0505576618
0.907583952 -0.4050318003 -0.01664779894
0.910187602 -0.4041000605 0.01668270491
0.9236330986 -0.4104555249 0.05076700822
0.9177869558 -0.4082412422 0.08416706324
0.8856109977 -0.3941142559 0.1138825119
0.8815177679 -0.3926613927 0.1461613178
0.8998266459 -0.4010049999 0.1832394451
0.9007457495 -0.4017915428 0.2177491784
0.8952362537 -0.3997086883 0.2511065304
0.896510303 -0.401591897 -0.251624167
0.8875254393 -0.3979391754 -0.2145998776
0.9095918536 -0.4080237448 -0.1855291426
0.8983694911 -0.4033663869 -0.1492900103
0.9203733802 -0.4136321843 -0.1187572777
0.8997157216 -0.4047258198 -0.08259826154
0.8998327851 -0.404967308 -0.04951094463
0.911634326 -0.41066131 -0.01675251313
0.9105962515 -0.4080925286 0.01671760902
0.905793786 -0.4063200057 0.0498249568
0.9091570973 -0.4080193937 0.08346981555
0.8733651638 -0.3923226595 0.1124200746
0.8729352355 -0.3924957514 0.1449098438
0.9002118707 -0.4049489796 0.1836210638
0.899337709 -0.4049333036 0.2177491784
0.8903130293 -0.4012437165 0.2500712276
0.8950324059 -0.4048751295 -0.251624167
0.8843556046 -0.4002313018 -0.2141499668
0.8955718279 -0.4056841135 -0.1828578115
0.8932868838 -0.4050249159 -0.1486642659
0.9008460045 -0.4086419046 -0.1163198948
0.9055540562 -0.4111587405 -0.08329550922
0.9074339271 -0.4123943448 -0.05003430322
0.8956324458 -0.4072196484 -0.01647327468
0.9237418771 -0.4178620875 0.01699684747
0.8934533 -0.4045365453 0.04919692874
0.9185439944 -0.4162834883 0.0845156908
0.8683745265 -0.3937294185 0.1119325981
0.8661634922 -0.3930914402 0.1439712346
0.8987215161 -0.4082457423 0.1836210638
0.88010782 -0.4001610279 0.2132501751
0.8906654119 -0.4051488936 0.2505888641
0.8795548081 -0.4015779793 -0.2474830449
0.8775654435 -0.4010399878 -0.2128002644
0.8798664212 -0.4022771716 -0.1798048764
0.891867578 -0.4081405997 -0.1486642659
0.902951777 -0.4135942161 -0.1168073639
0.8896232247 -0.4076769948 -0.08190101385
0.8987272978 -0.4122286737 -0.04961561784
0.8833007216 -0.4053394198 -0.01626384631
0.9131094813 -0.4170906544 0.0168223232
0.8902192116 -0.4068226516 0.04909225553
0.8953431249 -0.4095421135 0.08242394775
0.874145329 -0.4002149999 0.1129075512
0.8540104032 -0.3911767602 0.142094031
0.8937217593 -0.4097439051 0.1828578115
0.8787055612 -0.4032307565 0.2132501751
0.8769562244 -0.4026132822 0.2469654083
0.8641114235 -0.3981779516 -0.2433419526
0.8833096623 -0.4072113335 -0.2145998776
0.8909352422 -0.4111039042 -0.1824761927
0.8797483444 -0.4061281681 -0.1467870474
0.9051793814 -0.418251574 -0.117294848
0.8737279177 -0.404089123 -0.08050652593
0.9046058059 -0.4185614884 -0.05003430322
0.8782513142 -0.4067395329 -0.01619403623
0.8990083337 -0.4142582715 0.01657799073
0.890607357 -0.4107640982 0.04919692874
0.8794366717 -0.4059842825 0.08102945983
0.8656046391 -0.399782151 0.1119325981
0.8633980751 -0.3991287947 0.1439712346
0.8852304816 -0.409408927 0.1813313514
0.8738266826 -0.4045051336 0.2123503685
0.8720397353 -0.4040476084 0.2459301353
0.8627862334 -0.4010412693 -0.2433419526
0.8677477837 -0.4037158787 -0.2110006511
0.8806676269 -0.4099137783 -0.1805681139
0.8675818443 -0.4041914046 -0.1449098438
0.896517396 -0.4180529714 -0.1163198948
0.8687719703 -0.4052996337 -0.08015790582
0.8814230561 -0.4115762711 -0.04877823964
0.882332921 -0.4121887684 -0.01629875042
0.8812378049 -0.40980497 0.01626384631
0.8801859617 -0.4095026851 0.04867357016
0.8853101134 -0.4122626483 0.08172670007
0.8606053591 -0.4011240005 0.111445114
0.8549085259 -0.3986504376 0.1427197605
0.869563818 -0.4058538377 0.1782784164
0.8724094033 -0.4075528979 0.2123503685
0.8671947718 -0.4053012729 0.2448948622
0.8561341166 -0.4015892744 -0.2417890429
0.8522911668 -0.3999681771 -0.2074014395
0.8721234202 -0.4096466899 -0.179041639
0.8662366867 -0.4070661664 -0.1449098438
0.8807557225 -0.4142643809 -0.114369981
0.8655493259 -0.4074811041 -0.07998359203
0.876439631 -0.412794888 -0.04856889695
0.8826975226 -0.4161188602 -0.01633365639
0.8780635595 -0.4118757844 0.0162289422
0.8660957813 -0.4066309631 0.04794086516
0.8802592754 -0.4136557281 0.0813780874
0.8448988199 -0.3972190022 0.1094952077
0.8660234213 -0.4075196683 0.1449098438
0.8664368391 -0.4078989327 0.1778967828
0.8640017509 -0.4071210325 0.2105507553
0.86228019 -0.4066777527 0.2438595891
0.8635290265 -0.408557117 -0.2443772256
0.8544123173 -0.4046088457 -0.2083012462
0.8565664887 -0.4058120847 -0.1759886891
0.861240685 -0.4083946645 -0.1442840993
0.8721309304 -0.4139316678 -0.1133950278
0.867720902 -0.412209779 -0.08033221215
0.8713855147 -0.4141370952 -0.04835955054
0.8667932749 -0.4123255014 -0.01605441794
0.8766204715 -0.4149383307 0.0162289422
0.8628661036 -0.4087966084 0.04783619195
0.87528193 -0.4148658216 0.08102945983
0.847094059 -0.4018675387 0.1099826917
0.8342603445 -0.396135956 0.139591068
0.8685543537 -0.4126057029 0.1786600202
0.8449760675 -0.4017664492 0.2060517371
0.8643441796 -0.4113455117 0.2448948622
0.8463366628 -0.4042259753 -0.2397184968
0.8565114141 -0.4092691839 -0.2092010528
0.8444466591 -0.4038664103 -0.1736989766
0.8561745882 -0.4098426998 -0.1436583698
0.8635191917 -0.4135437608 -0.1124200746
0.8483102918 -0.4066242278 -0.07858909667
0.8662603498 -0.4156002402 -0.04815021157
0.8509264588 -0.4084262848 -0.01577517949
0.8896023035 -0.4248904288 0.01650818065
0.8614339232 -0.411806047 0.04783619195
0.8701609969 -0.4163511992 0.08068083972
0.8385241032 -0.4013935924 0.1090077311
0.8257466555 -0.3956314921 0.138339594
0.8652660847 -0.4149374664 0.1782784164
0.8470115662 -0.4065472484 0.2069515437
0.8559370637 -0.4110151529 0.242824316
0.8309980631 -0.4004683793 -0.2355773747
0.8479846716 -0.4090192318 -0.2074014395
0.8447999358 -0.4076648951 -0.1740806103
0.8511812091 -0.4111105502 -0.1430326253
0.8691465855 -0.4201618731 -0.1133950278
0.8415047526 -0.4069804847 -0.07806616277
0.8648043275 -0.4186215401 -0.04815021157
0.8530950546 -0.4131372571 -0.01584498957
0.8646224141 -0.4168583453 0.01605441794
0.8581923246 -0.4139427841 0.04773152247
0.8615253568 -0.415921241 0.07998359203
0.8406220078 -0.4061915576 0.1094952077
0.8243606687 -0.3985114992 0.138339594
0.8567433953 -0.4145349562 0.1767519265
0.8455872536 -0.4095014036 0.2069515437
0.8371117711 -0.4055772126 0.2376479357
0.8261204362 -0.4016771913 -0.2345421165
0.843118906 -0.4101241231 -0.2065016329
0.8433718085 -0.4106112719 -0.1740806103
0.8391578197 -0.4087408483 -0.1411554217
0.8606110811 -0.419562161 -0.1124200746
0.8454508185 -0.4125366211 -0.07858909667
0.8562321067 -0.4179823101 -0.04773152247
0.8498510122 -0.4152347147 -0.0158100836
0.852445066 -0.4144767821 0.01584498957
0.8603339195 -0.4186839163 0.04794086516
0.8529034257 -0.4154361188 0.07928634435
0.8321323991 -0.405498594 0.1085202545
0.8229645491 -0.4013866186 0.138339594
0.8394842744 -0.409625262 0.1733173728
0.8477267623 -0.4140135348 0.2078513354
0.8356909156 -0.4084968269 0.2376479357
0.8317220211 -0.4078164697 -0.2366126478
0.827686727 -0.4061962962 -0.2029024214
0.8420054913 -0.4134057462 -0.1740806103
0.8359529972 -0.4107963145 -0.1408425421
0.8555787206 -0.4208114147 -0.1119325981
0.838643074 -0.4128453434 -0.07806616277
0.8476008773 -0.4174388945 -0.04731283337
0.8483964205 -0.4181987345 -0.0158100836
0.8474024534 -0.4156884849 0.01577517949
0.8409389257 -0.4128820896 0.04689414427
0.8550977111 -0.420018971 0.07963496447
0.8128974438 -0.3996427357 0.1060828716
0.8180136085 -0.4025125802 0.1377138644
0.8327652216 -0.4099518061 0.1721725166
0.8357880116 -0.4118024111 0.2051519305
0.8307946324 -0.4097025692 0.2366126478
0.8250274658 -0.4082916081 -0.2350597382
0.8175317049 -0.4047597349 -0.2006528974
0.8299298882 -0.4112588465 -0.1717908978
0.8309023976 -0.4121020436 -0.1402168125
0.8434352875 -0.4185014367 -0.1104701683
0.8336278796 -0.4139978588 -0.0777175352
0.8496422172 -0.4223206937 -0.04752217606
0.8433503509 -0.4193768501 -0.01574027352
0.8531151414 -0.4221917391 0.01591479778
0.834123373 -0.4131555259 0.04658012837
0.8464123011 -0.4196104705 0.07893772423
0.8150542974 -0.4042418897 0.1065703481
0.8059873581 -0.400095582 0.135836646
0.8347734809 -0.4147484004 0.1729357541
0.8203138113 -0.407921344 0.201552704
0.832818687 -0.4143210053 0.2376479357
0.8132266998 -0.4059916139 -0.231953904
0.8212724328 -0.4103665352 -0.2020026147
0.8214650154 -0.4106419683 -0.1702644229
0.8329920173 -0.4167677164 -0.1408425421
0.8383457661 -0.4198122621 -0.1099826917
0.8250523806 -0.4133355319 -0.07702029496
0.8410212398 -0.4217030108 -0.04710348696
0.8275821209 -0.4151450992 -0.015461036
0.8479840755 -0.4235286713 0.01584498957
0.8308894634 -0.4151719213 0.04647545889
0.8342505693 -0.4172153473 0.07789184898
0.817117393 -0.409003526 0.1070578173
0.8385860324 -0.420298785 0.1740806103
0.8188849092 -0.4107822776 0.201552704
0.8244609237 -0.4137595296 0.2355773747
0.7980012894 -0.4018764794 -0.2278128117
0.8268684149 -0.4165950119 -0.203802228
0.8200265765 -0.4135069251 -0.1702644229
0.8210234642 -0.4141893387 -0.1389653385
0.840493083 -0.424379468 -0.1104701683
0.8111569881 -0.40992257 -0.07580011338
0.8431830406 -0.426291883 -0.04731283337
0.8225593567 -0.4162256718 -0.01539122593
0.8394309282 -0.4227406085 0.01570536941
0.8294352293 -0.4180697501 0.04647545889
0.825673759 -0.4165352881 0.07719460875
0.8157565594 -0.4117109179 0.1070578173
0.8266743422 -0.4177643657 0.1717908978
0.8140402436 -0.4117364883 0.2006528974
0.8023285866 -0.4061644971 0.2293657213
0.7932192087 -0.4027712941 -0.2267775238
0.8115110993 -0.4124156535 -0.2002030015
0.8151507974 -0.4144444466 -0.1695012003
0.8037278056 -0.4089898169 -0.1361495107
0.8354687691 -0.4255089462 -0.1099826917
0.8115683198 -0.4135147333 -0.07597442716
0.8238973618 -0.4201589227 -0.0462661162
0.8247371316 -0.4207686186 -0.015461036
0.8272530437 -0.4202342331 0.01549594011
0.8280442357 -0.4208179414 0.04647545889
0.8207361698 -0.4174644649 0.07684598118
0.7966240048 -0.4055500031 0.1046204343
0.7947838306 -0.4047878683 0.1345851719
0.8094689846 -0.412623018 0.1683563292
0.8160698414 -0.4163467288 0.201552704
0.8113014102 -0.4140923619 0.2324715555
0.7969667912 -0.408179611 -0.2283304334
0.7945300341 -0.4071066678 -0.1961538792
0.8136991262 -0.4172873199 -0.1695012003
0.8023671508 -0.4116528034 -0.1361495107
0.8234578371 -0.4228365421 -0.1085202545
0.8172082901 -0.4199880064 -0.07667167485
0.8189470172 -0.4210622609 -0.04605676979
0.8197071552 -0.4218149483 -0.01539122593
0.8187355995 -0.4193288684 0.01535631996
0.8141287565 -0.4173282087 0.04574275389
0.8263647556 -0.4239647388 0.07754322886
0.7986372709 -0.4102675915 0.1355237812
0.8115885854 -0.4170998335 0.1691195667
0.8077530265 -0.4154851735 0.1997531056
0.8029806018 -0.4133848548 0.2304009944
0.7990418673 -0.4125928879 -0.2293657213
0.796566546 -0.4116669893 -0.1970536858
0.8053350449 -0.4163767099 -0.1679747254
0.8009253144 -0.4144510925 -0.1361495107
0.8166887164 -0.4229695797 -0.1077890396
0.8086617589 -0.4191704094 -0.07597442716
0.8174722195 -0.4239183664 -0.04605676979
0.8129051924 -0.4219101965 -0.01528651174
0.8190435171 -0.423102051 0.01539122593
0.8037962317 -0.4155810773 0.04521939531
0.8178756237 -0.4230413139 0.07684598118
0.8101276755 -0.4199302793 0.1691195667
0.7889996767 -0.4093280733 0.1952540725
0.804961741 -0.4179657102 0.2314362824
0.7838181853 -0.4083777368 -0.2252246141
0.788212359 -0.410842061 -0.1952540725
0.7968410254 -0.4156934023 -0.1664482504
0.799400866 -0.4173838794 -0.1361495107
0.8134477139 -0.424898684 -0.1075452939
0.7965997458 -0.4164522588 -0.07492855936
0.8194523454 -0.4287635982 -0.0462661162
0.822881937 -0.4287303686 0.01549594011
0.8076536059 -0.4211547375 0.0455334112
0.8163195848 -0.4260361493 0.07684598118
0.8016243577 -0.4192572236 0.1675930917
0.7909471393 -0.4140246212 0.1961538792
0.7898067236 -0.4136033058 0.2272951603
0.7901508212 -0.4155423939 -0.1961538792
0.7919102311 -0.4166441262 -0.1656850129
0.8083726168 -0.4260262251 -0.1070578173
0.8144178391 -0.4297571778 -0.04605676979
0.7975610495 -0.4210400581 -0.0150421774
0.8053748012 -0.4233692884 0.01518179569
0.8008753657 -0.4211824834 0.04521939531
0.7971966863 -0.419603169 0.0751028657
0.7932100296 -0.4183891416 0.1660666317
0.7929437757 -0.4186025858 0.1970536858
0.7849416733 -0.4145533741 0.2262599021
0.774120152 -0.4102215469 -0.223154068
0.7767162323 -0.41177091 -0.1930045784
0.7939195633 -0.421246171 -0.1664482504
0.8104615808 -0.4305672348 -0.1075452939
0.7988817096 -0.4249517918 -0.04521939531
0.8004325628 -0.4241649806 0.01511198562
0.8064581752 -0.427718699 0.04563808069
0.7922074795 -0.4205150008 0.07475424558
0.7814174294 -0.415487051 0.1637769192
0.7846699953 -0.4175678492 0.1952540725
0.7834898233 -0.4172908068 0.2262599021
0.7693476081 -0.4109658897 -0.22211878
0.7890558839 -0.4220247567 -0.1656850129
0.8019545674 -0.4296438992 -0.1065703481
0.7981258631 -0.428489536 -0.01511198562
0.7908086181 -0.423139751 0.07475424558
0.7799624205 -0.4182121456 0.1637769192
0.7763392329 -0.4166184068 0.1934544742
0.7820284367 -0.4200231433 0.2262599021
0.7730107307 -0.4163974524 -0.2236716896
0.7875779271 -0.4247765243 -0.1656850129
0.7864777446 -0.4248921871 -0.1046204343
0.7939311266 -0.4278454185 0.0150421774
0.7998473644 -0.4315741956 0.07580011338
0.7784977555 -0.4209321737 0.1637769192
0.7805575132 -0.4227503836 0.2262599021
0.7919626832 -0.4314334989 -0.1055953875
0.7878353 -0.4286502898 0.07475424558
0.7804712057 -0.4255266786 0.1645401567
0.7655131817 -0.4180648923 0.22211878
0.7834922671 -0.4303724468 -0.1046204343
0.7928705812 -0.4360645413 -0.04521939531
0.7854583263 -0.4350283146 -0.1051079109
-0.6681832075 -0.5967954993 -0.1048641726
-0.6732325554 -0.597093761 -0.1053516492
-0.6652261615 -0.5866820812 -0.164158538
-0.6729017496 -0.5884588957 -0.1046204343
-0.6630042195 -0.5785793066 0.2241893411
-0.6809472442 -0.5913126469 -0.1055953875
-0.6835379601 -0.5929349065 -0.04521939531
-0.6893948317 -0.5999156833 0.01525160577
-0.6713976264 -0.5826091766 0.1645401567
-0.6620998383 -0.573731184 0.223154068
-0.6682346463 -0.5772120357 -0.193904385
-0.6698473096 -0.5784006119 -0.1637769192
-0.6890205741 -0.5941175222 -0.1065703481
-0.6931698918 -0.5970628262 -0.04574275389
-0.6808930635 -0.5883536339 0.01500727143
-0.6704525948 -0.5776988864 0.1637769192
-0.6676638722 -0.5748900175 0.1934544742
-0.6611695886 -0.5688966513 0.22211878
-0.682295084 -0.5850043297 -0.1664482504
-0.7001376152 -0.5994550586 -0.1080327779
-0.6937319636 -0.5933413506 -0.04563808069
-0.6855864525 -0.5859603882 -0.0150421774
-0.6869416237 -0.5889883041 0.04521939531
-0.6809886694 -0.5836780071 0.07475424558
-0.6785535812 -0.5801541805 0.1961538792
-0.67783916 -0.5791342258 0.2272951603
-0.6667838693 -0.5682807565 -0.223154068
-0.6692808867 -0.5700056553 -0.1930045784
-0.6903125048 -0.5877098441 -0.1679747254
-0.6808422208 -0.5792374611 -0.1348980367
-0.7007134557 -0.595721662 -0.1077890396
-0.6866649985 -0.5831587911 -0.04501005262
-0.698300302 -0.592621088 -0.01528651174
-0.6910725832 -0.5887731314 0.01514689159
-0.6951602101 -0.5916277766 0.07614874095
-0.6834465265 -0.5806310773 0.1660666317
-0.6776032448 -0.5752597451 0.1952540725
-0.6783835888 -0.5755146146 0.2267775238
-0.6746621728 -0.570941627 -0.2252246141
-0.6757304668 -0.5714409947 -0.1943542808
-0.689361155 -0.5827616453 -0.1672114879
-0.6843690276 -0.5781320333 -0.1352109015
-0.702788651 -0.59327209 -0.1077890396
-0.7024378777 -0.5923463702 -0.04595209658
-0.694247961 -0.5850255489 -0.01514689159
-0.7053370476 -0.5966893435 0.01542613003
-0.7002646923 -0.5917695761 0.07649736106
-0.6914716363 -0.5833053589 0.1675930917
-0.6796071529 -0.5728909373 0.1952540725
-0.6936858892 -0.5843446255 0.2314362824
-0.6855250001 -0.5760400295 -0.2283304334
-0.6836906672 -0.5740913749 -0.1961538792
-0.6898874044 -0.5790897608 -0.1668298692
-0.6969770789 -0.584626019 -0.1374009848
-0.7139832377 -0.5984663963 -0.1092514694
-0.6951015592 -0.5824330449 -0.0756257996
-0.7152206302 -0.5988662839 -0.04668480158
-0.7089468241 -0.5955098271 0.015461036
-0.690012157 -0.5791944861 0.04501005262
-0.7084311843 -0.5944443345 0.07719460875
-0.7025337815 -0.5884519815 0.1698828042
-0.6845915318 -0.5730167627 0.1961538792
-0.6883121729 -0.5757225752 0.2288480848
-0.6756650209 -0.5637423992 -0.2241893411
-0.6991610527 -0.5829328299 -0.2002030015
-0.6934127808 -0.5779348016 -0.1672114879
-0.699013412 -0.5821896791 -0.1374009848
-0.7191196084 -0.5985102057 -0.109738946
-0.6940670609 -0.5774547458 -0.07527717948
-0.7219141722 -0.6001966 -0.04699881747
-0.7090821266 -0.5891096592 -0.01539122593
-0.7140925527 -0.595593214 0.01553084422
-0.6981667876 -0.5818970799 0.045428738
-0.7013175488 -0.5843157768 0.07614874095
-0.6915550232 -0.5757731199 0.1053516492
-0.7000553608 -0.5822299123 0.1687379628
-0.6985773444 -0.5805881023 0.1997531056
-0.6873452663 -0.5708478093 0.2278128117
-0.6865546107 -0.5687750578 -0.2272951603
-0.6876817346 -0.5693044662 -0.1961538792
-0.7075259089 -0.585524261 -0.1702644229
-0.6949525476 -0.5747103691 -0.1361495107
-0.7212042212 -0.5959965587 -0.109738946
-0.7083671093 -0.5851797462 -0.07667167485
-0.7209242582 -0.5951302052 -0.04678947479
-0.7142193913 -0.58917588 -0.015461036
-0.7192473412 -0.5956479311 0.0156006543
-0.7032711506 -0.5820031762 0.04563808069
-0.7125637531 -0.5894842148 0.07719460875
-0.6935607195 -0.5733556151 0.1053516492
-0.6906844974 -0.5705721974 0.1352109015
-0.6930006146 -0.5722820759 0.1664482504
-0.7021027207 -0.5793865323 0.2002030015
-0.6952953935 -0.573361516 0.2298833728
-0.7004713416 -0.5761932731 -0.2314362824
-0.6971920729 -0.5730875731 -0.1984033883
-0.7125990987 -0.5855439901 -0.1710276604
-0.7061142921 -0.5798023939 -0.1380267292
-0.7202110887 -0.590956986 -0.1092514694
-0.7134863734 -0.5852305889 -0.07702029496
-0.7199080586 -0.5900776982 -0.04658012837
-0.7240066528 -0.5930147767 -0.01563555934
-0.7166884542 -0.5893234015 0.01549594011
-0.7052983046 -0.5795449615 0.04563808069
-0.723854661 -0.5945811272 0.07824047655
-0.6924889684 -0.5684123635 0.1048641726
-0.6987812519 -0.5731688142 0.1364623755
-0.7086573839 -0.5810630322 0.1698828042
-0.7116577029 -0.5831075907 0.2024525106
-0.7002821565 -0.5733785033 0.230918631
-0.7129518986 -0.5822988153 -0.2350597382
-0.7037174106 -0.574347198 -0.1997531056
-0.7115962505 -0.5805707574 -0.1702644229
-0.7173199654 -0.584823668 -0.1399039477
-0.7252443433 -0.5910736322 -0.109738946
-0.7247939706 -0.5902855992 -0.07806616277
-0.7359051704 -0.5989074707 -0.04752217606
-0.7197644711 -0.585562706 -0.01549594011
-0.7311333418 -0.5969353914 0.01577517949
-0.7041216493 -0.5746771097 0.045428738
-0.7382777929 -0.6021245718 0.07963496447
-0.7006239891 -0.5710080266 0.1058391258
-0.7006781101 -0.5708484054 0.1364623755
-0.7198163867 -0.5860228539 0.1721725166
-0.707541585 -0.5758240819 0.2006528974
-0.7156686783 -0.582023263 0.2355773747
-0.701376617 -0.5689777732 -0.2304009944
-0.7116733789 -0.5769190788 -0.201552704
-0.7135176063 -0.5782077909 -0.1702644229
-0.728466332 -0.5899005532 -0.1417811513
-0.7426297665 -0.6011552811 -0.1121763363
-0.7236495018 -0.5853726268 -0.0777175352
-0.7456535101 -0.6027415395 -0.04804553464
-0.7232577205 -0.5844294429 -0.01553084422
-0.7362151146 -0.5970267653 0.01584498957
-0.7153325081 -0.5798853636 0.04605676979
-0.7263368964 -0.5883860588 0.07806616277
-0.7086853981 -0.5736775398 0.106814079
-0.6979605556 -0.5647938848 0.1355237812
-0.730915308 -0.5910393 0.1744622141
-0.7155093551 -0.5783748627 0.2024525106
-0.72360605 -0.5845025182 0.2376479357
-0.7107810378 -0.5727091432 -0.232989192
-0.7226899266 -0.5818887949 -0.2042521238
-0.7261369824 -0.5844554305 -0.1729357541
-0.7242614627 -0.582529366 -0.1405296773
-0.7447236776 -0.5985593796 -0.1121763363
-0.7225815654 -0.5803479552 -0.07736892253
-0.7476480603 -0.6002656817 -0.04804553464
-0.7393309474 -0.5931638479 -0.01584498957
-0.7366334796 -0.5933277011 0.0158100836
-0.72046417 -0.5798894763 0.0462661162
-0.7313886881 -0.5884721875 0.07841478288
-0.7183192372 -0.5775435567 0.1080327779
-0.7091672421 -0.5697774887 0.1374009848
-0.7267485261 -0.5836946964 0.1729357541
-0.7296823263 -0.5856318474 0.2060517371
-0.7135857344 -0.5723035932 0.2335068285
-0.7189100981 -0.5749265552 -0.2350597382
-0.7292830348 -0.5830130577 -0.2056018263
-0.7344095707 -0.5866916776 -0.1744622141
-0.7294792533 -0.5823357105 -0.1411554217
-0.7499118447 -0.5984323025 -0.1126638055
-0.7339494228 -0.5852752924 -0.07841478288
-0.7529671192 -0.6000108123 -0.04825488105
-0.7539098263 -0.6005468965 -0.01612422802
-0.7324530482 -0.5857571363 0.01567046531
-0.7365261912 -0.5885928273 0.04720816389
-0.7382112741 -0.5895174146 0.07893772423
-0.717228055 -0.5725556612 0.1075452939
-0.7204171419 -0.5746898651 0.1392782032
-0.7288831472 -0.5810269713 0.1729357541
-0.7348722219 -0.5853819847 0.2069515437
-0.7231354117 -0.5758262277 0.2360950261
-0.7330162525 -0.5820237398 -0.2392008305
-0.7253085971 -0.5754914284 -0.203802228
-0.7426059246 -0.5890043974 -0.1759886891
-0.74079597 -0.5871479511 -0.1430326253
-0.7567685246 -0.5993773937 -0.1133950278
-0.7453602552 -0.5901304483 -0.07946065813
-0.7550569773 -0.5973787904 -0.04825488105
-0.762275517 -0.6028733253 -0.01626384631
-0.7471255064 -0.5930141211 0.01594970375
-0.7385761738 -0.5860185027 0.04720816389
-0.7574378252 -0.6005530953 0.08085514605
-0.7193217874 -0.5699230433 0.1075452939
-0.7270643115 -0.5758510232 0.1402168125
-0.7370644808 -0.5833528638 0.1744622141
-0.7369112968 -0.5828130841 0.2069515437
-0.7342334986 -0.5804873109 0.2392008305
-0.7395947576 -0.5830494761 -0.2407537699
-0.7302741408 -0.5754953027 -0.2047020197
-0.7384877801 -0.5815500617 -0.1744622141
-0.7458432317 -0.5871318579 -0.1436583698
-0.7587519288 -0.5968645215 -0.1133950278
-0.752114892 -0.5912187099 -0.07998359203
-0.7538929582 -0.5924035311 -0.04804553464
-0.7580840588 -0.5952690244 -0.01612422802
-0.7553694844 -0.5954852104 0.01608932205
-0.7406173944 -0.5834366083 0.04720816389
-0.7642260194 -0.6016028523 0.0813780874
-0.7274478078 -0.5724449158 0.1085202545
-0.732175529 -0.5757516623 0.1408425421
-0.7451688051 -0.5857585669 0.1759886891
-0.741904676 -0.5827738047 0.2078513354
-0.7484123111 -0.5874633789 0.2433419526
-0.7247923613 -0.5674930215 -0.2350597382
-0.7430221438 -0.5813484788 -0.2078513354
-0.7450515032 -0.5827264786 -0.1756070852
-0.7572267056 -0.5918233991 -0.1455355883
-0.76083076 -0.5942123532 -0.1133950278
-0.7525008917 -0.5874952674 -0.07980927825
-0.7717034221 -0.6020536423 -0.04909225553
-0.7601573467 -0.5926191807 -0.01612422802
-0.7731904387 -0.6051701307 0.01643837057
-0.7457959056 -0.5833086967 0.04741750658
-0.7630776167 -0.5966109037 0.08102945983
-0.7403914928 -0.5784571767 0.1102264225
-0.7310667634 -0.5707610846 0.1402168125
-0.7595905066 -0.5928169489 0.179041639
-0.7500811219 -0.5849742889 0.2096509486
-0.7474108934 -0.5824722648 0.2423066795
-0.7420209646 -0.5768162012 -0.2402361035
-0.7588977218 -0.5895103812 -0.2119004577
-0.7548341751 -0.5861428976 -0.177515164
-0.7592880726 -0.5891764164 -0.1455355883
-0.7707439065 -0.5976350904 -0.1146137193
-0.7529723048 -0.5836443305 -0.07963496447
-0.7801162004 -0.6042485833 -0.04951094463
-0.7717094421 -0.5973058939 -0.01633365639
-0.768982172 -0.5975593925 0.01629875042
-0.7604473829 -0.5905016661 0.04825488105
-0.7588600516 -0.5890567899 0.08033221215
-0.7486803532 -0.5807359219 0.1112013832
-0.7392997742 -0.5730464458 0.1414682865
-0.7554476857 -0.585351944 0.177515164
-0.7552002668 -0.584738493 0.2105507553
-0.7494395375 -0.5798597932 0.2423066795
-0.7409712672 -0.5718619227 -0.2392008305
-0.7486058474 -0.5773370266 -0.2083012462
-0.7615401149 -0.5871003866 -0.1786600202
-0.7613400817 -0.5865224004 -0.1455355883
-0.7901283503 -0.6082609296 -0.117294848
-0.7645815015 -0.5881696939 -0.08068083972
-0.7853873372 -0.6039565802 -0.04972028732
-0.7864745259 -0.6043562293 -0.01661289483
-0.7758132219 -0.598535955 0.0164034646
-0.7704128623 -0.5939407945 0.04877823964
-0.7703804374 -0.5937014222 0.0813780874
-0.7538483143 -0.5805414915 0.1116888598
-0.7506886125 -0.5776906013 0.143345505
-0.7559300661 -0.5815144181 0.1771335453
-0.7695968151 -0.5916000605 0.2141499668
-0.7529910207 -0.5784170032 0.242824316
-0.7522644401 -0.5761902928 -0.2423066795
-0.7506164908 -0.5747205019 -0.2083012462
-0.7746015191 -0.5926560163 -0.1813313514
-0.7666230202 -0.5861276984 -0.1461613178
-0.7827835083 -0.5982666016 -0.1158324108
-0.7761303782 -0.5927529931 -0.08172670007
-0.7828323841 -0.5974389911 -0.04940627143
-0.7774505019 -0.5931167006 -0.01636856049
-0.7810730338 -0.5982559919 0.01647327468
-0.7724813819 -0.5912479162 0.04877823964
-0.7788815498 -0.5957154632 0.08207532763
-0.7479852438 -0.5718780756 0.1104701683
-0.7542700171 -0.5762661099 0.1436583698
-0.7642983794 -0.5835050941 0.1786600202
-0.7655625939 -0.5840474367 0.2123503685
-0.7734390497 -0.5898428559 0.2490359843
-0.7650352716 -0.5817463994 -0.2459301353
-0.7620276809 -0.5790393949 -0.2110006511
-0.7782287598 -0.5911361575 -0.1817129552
-0.784398973 -0.5953910351 -0.1492900103
-0.7849708796 -0.5953937173 -0.1158324108
-0.781370163 -0.5924475193 -0.08207532763
-0.7928727865 -0.6007335186 -0.04992963001
-0.7842983603 -0.5940212607 -0.01647327468
-0.7912201881 -0.6014399529 0.01664779894
-0.7745406628 -0.5885475874 0.04877823964
-0.7857166529 -0.5966076255 0.08259826154
-0.7643088698 -0.5799319148 0.1126638055
-0.7657202482 -0.5807922482 0.1455355883
-0.7804119587 -0.5915068388 0.1820945889
-0.7707035542 -0.5837246776 0.2132501751
-0.777033329 -0.5883057117 0.2495536208
-0.7547266483 -0.5697606802 -0.2417890429
-0.7717210054 -0.5823789835 -0.2132501751
-0.7755849957 -0.5848698616 -0.1805681139
-0.7958332896 -0.5999212861 -0.1511672139
-0.7964544892 -0.5999536514 -0.117294848
-0.7818414569 -0.5885183811 -0.08190101385
-0.8012442589 -0.602904439 -0.05034831911
-0.7863669991 -0.5912801623 -0.01647327468
-0.8043820858 -0.6072466969 0.01689213328
-0.786157012 -0.5930574536 0.04940627143
-0.7925673127 -0.5974593163 0.08312119544
-0.7646424174 -0.576199472 0.1124200746
-0.7630090117 -0.5745508671 0.1445969641
-0.7917804718 -0.5959997773 0.1843842864
-0.775749743 -0.5835085511 0.2141499668
-0.7821707129 -0.5879111886 0.2505888641
-0.7597032785 -0.5695723891 -0.242824316
-0.789345324 -0.591365695 -0.2177491784
-0.7838059664 -0.5870020986 -0.1820945889
-0.7915964127 -0.5924053192 -0.1499157399
-0.8049027324 -0.6019251943 -0.1182698086
-0.7853845954 -0.5871153474 -0.08207532763
-0.8177448511 -0.6108614802 -0.0512903668
-0.7931302786 -0.5922585726 -0.01657799073
-0.793695569 -0.5948411226 0.01661289483
-0.7945130467 -0.5952372551 0.0498249568
-0.7913543582 -0.5924396515 0.08277257532
-0.7698281407 -0.5759050846 0.1129075512
-0.771237731 -0.5767496824 0.145848453
-0.7938560843 -0.5932322741 0.1843842864
-0.7871503234 -0.5877931714 0.2168493867
-0.7732793093 -0.5772249699 0.2469654083
-0.7709851265 -0.5738376975 -0.2459301353
-0.7850481272 -0.584092021 -0.215949595
-0.7984544039 -0.5936334729 -0.1851475388
-0.7856292129 -0.5838856697 -0.1483514011
-0.8116753697 -0.6028033495 -0.119001016
-0.7954289317 -0.5903069973 -0.08294688165
-0.803725481 -0.5962466002 -0.05024364963
-0.8064377308 -0.5978224277 -0.0168223232
-0.8052885532 -0.5993694663 0.0168223232
-0.8062016964 -0.5996118784 0.05045299232
-0.799813807 -0.5944277644 0.08346981555
-0.7876682878 -0.5851874352 0.1153449342
-0.7843488455 -0.5822964907 0.1480385363
-0.7958189845 -0.5905964971 0.1843842864
-0.7984870076 -0.5921443701 0.2195487916
-0.7877065539 -0.5837237239 0.2511065304
-0.7822050452 -0.5781676173 -0.2490359843
-0.7870823145 -0.5813479424 -0.215949595
-0.8068399429 -0.5955063701 -0.1866740137
-0.7940208912 -0.5858305693 -0.1496028751
-0.8153723478 -0.6011446118 -0.1192447618
-0.8103172183 -0.5969809294 -0.08434136957
-0.8155558705 -0.6004012823 -0.0508716777
-0.8149619699 -0.5997447968 -0.01696194336
-0.8105922937 -0.5989316702 0.01689213328
-0.8018627167 -0.592048645 0.05003430322
-0.8113989234 -0.5988712311 0.0845156908
-0.7753279805 -0.571829915 0.1131512895
-0.7975079417 -0.5877587199 0.1502286196
-0.8027206659 -0.5911685228 0.1855291426
-0.7942717075 -0.5847321749 0.2177491784
-0.7928515673 -0.5832600594 0.2521418035
-0.7921074629 -0.581009984 -0.251624167
-0.7954945564 -0.5830674767 -0.2177491784
-0.8121850491 -0.5948650241 -0.1874372363
-0.8136950135 -0.5957530737 -0.1530444473
-0.8143661022 -0.5958075523 -0.1187572777
-0.8124998808 -0.5940069556 -0.08434136957
-0.8177508712 -0.5974082947 -0.0508716777
-0.8203844428 -0.5991123915 -0.01703175157
-0.8192328215 -0.6006861925 0.01703175157
-0.8072496057 -0.5914666057 0.05024364963
-0.8264474869 -0.6053111553 0.08591017872
-0.7966412902 -0.5830531716 0.116076149
-0.7837120295 -0.5731707811 0.1470999271
-0.8223179579 -0.6009646058 0.1897269338
-0.8027036786 -0.5864155889 0.2195487916
-0.8074666262 -0.5894626379 0.2562828958
-0.7973554134 -0.5803765655 -0.25265944
-0.8118101954 -0.5904641747 -0.2217983007
-0.8142564893 -0.5920265317 -0.1874372363
-0.8206675053 -0.5962496996 -0.1539830416
-0.8261826634 -0.5998162627 -0.1202197075
-0.8210183382 -0.5958480835 -0.08503861725
-0.8343829513 -0.6051028371 -0.05181372538
-0.8193362355 -0.5937548876 -0.01696194336
-0.8375985026 -0.6094449759 0.0173808001
-0.8158733845 -0.5932021141 0.05066233128
-0.8286603689 -0.6022782326 0.08591017872
-0.803591311 -0.5836291909 0.1168073639
-0.7874064445 -0.571454525 0.1474127918
-0.829177916 -0.6015492678 0.190871805
-0.8064255714 -0.584613204 0.2199987173
-0.8064926863 -0.5842324495 0.2552476227
-0.7915471792 -0.5719326138 -0.2500712276
-0.8217659593 -0.5933307409 -0.2240478396
-0.8226857781 -0.5937765241 -0.1889637113
-0.8227436543 -0.5933815837 -0.1539830416
-0.8379340768 -0.6038925052 -0.1216821522
-0.8198600411 -0.5906495452 -0.08469000459
-0.8429737687 -0.6068542004 -0.05223241448
-0.8278973103 -0.5955621004 -0.01710156351
-0.8316155672 -0.6006628871 0.01720627584
-0.8341341615 -0.6020393968 0.0517090559
-0.833989501 -0.6017133594 0.08625880629
-0.8281670213 -0.5970733762 0.1202197075
-0.7926018238 -0.5710119605 0.1480385363
-0.821713984 -0.5917674303 0.1885820925
-0.8195334673 -0.5897628069 0.2231480181
-0.808527112 -0.5814136863 0.2552476227
-0.8060972691 -0.5781736374 -0.2542123497
-0.8174963593 -0.5859176517 -0.2222482264
-0.8375208974 -0.6000484824 -0.1920166612
-0.8312346935 -0.5951057076 -0.1552345157
-0.8529525995 -0.610204041 -0.1236320436
-0.8283993006 -0.5924200416 -0.08538724482
-0.8483367562 -0.6062306166 -0.05244175717
-0.8494995832 -0.6066133976 -0.01752042025
-0.8353322148 -0.5989217758 0.01724117994
-0.8508427143 -0.6095929742 0.05265110359
-0.8393241763 -0.601118803 0.0866074264
-0.8189464211 -0.5860916972 0.1185135394
-0.8138715625 -0.5820307136 0.1517929733
-0.8253719211 -0.5900370479 0.1889637113
-0.8200014234 -0.5857657194 0.2226981223
-0.8199860454 -0.5853222609 0.2583534718
-0.8175529242 -0.5820791125 -0.2573181689
-0.8195366263 -0.583060503 -0.2222482264
-0.8428100944 -0.5993968844 -0.1927798837
-0.8333069086 -0.5922005177 -0.1552345157
-0.848603487 -0.6026255488 -0.1226571053
-0.8483333588 -0.6022109985 -0.08730467409
-0.848818779 -0.6021100879 -0.05233708769
-0.8499805331 -0.6024880409 -0.01748551428
-0.8439345956 -0.6006403565 0.0173808001
-0.8399444818 -0.5973588824 0.05181372538
-0.8511605859 -0.6051120162 0.08765330166
-0.8112773299 -0.5763318539 0.1170511171
-0.8255630136 -0.5860468745 0.1536701769
-0.8434372544 -0.5985140204 0.1927798837
-0.8283999562 -0.5874084234 0.2244977355
-0.8299053311 -0.5880409479 0.2609416544
-0.8289432526 -0.5860564113 -0.2604240179
-0.8326069713 -0.5882105827 -0.2253975272
-0.838378489 -0.5920686722 -0.1912534088
-0.8449500203 -0.5962676406 -0.1571117193
-0.8505972028 -0.5998080969 -0.1226571053
-0.8552111983 -0.6028382182 -0.08782760799
-0.8638736606 -0.6084931493 -0.05317446217
-0.8469638824 -0.5963612199 -0.0173808001
-0.8557200432 -0.6047631502 0.01759023033
-0.8434482217 -0.5958695412 0.05191839859
-0.8564177752 -0.6045841575 0.08800191432
-0.8212946057 -0.5793596506 0.1182698086
-0.8177138567 -0.5766200423 0.1517929733
-0.8550467491 -0.6024986506 0.1950695962
-0.8271563649 -0.5824144483 0.223597914
-0.8364880085 -0.5887663364 0.2624945343
-0.8246588111 -0.578720212 -0.2583534718
-0.8425297141 -0.5910420418 -0.2276470363
-0.8500857353 -0.5959000587 -0.1935431212
-0.8598645926 -0.6025311351 -0.1596146822
-0.860712111 -0.6026771069 -0.1238757968
-0.8540455103 -0.5975646377 -0.08747898042
-0.8724333644 -0.6102039814 -0.05359315127
-0.858874917 -0.6002741456 -0.01759023033
-0.8708155751 -0.6111116409 0.01786946692
-0.8586050272 -0.6020957232 0.05275577307
-0.8617862463 -0.6038776636 0.08835053444
-0.8394702077 -0.5880220532 0.1207071841
-0.8229583502 -0.5760276318 0.1524187028
-0.8634744287 -0.6041619182 0.1965960711
-0.838665843 -0.586368084 0.2262973487
-0.8432889581 -0.5891622901 0.2640474737
-0.8408381939 -0.5859227777 -0.2630122006
-0.8541830778 -0.5947790742 -0.2303464562
-0.8585025668 -0.5975641012 -0.1950695962
-0.8652058244 -0.6017820239 -0.1602404267
-0.8774811029 -0.6098652482 -0.1260694414
-0.8560221195 -0.5947296619 -0.08747898042
-0.8844019175 -0.6139889359 -0.05422117934
-0.864250958 -0.5995522738 -0.01766003855
-0.8663800359 -0.6034961939 0.01772984862
-0.8639801145 -0.6013767719 0.05296511576
-0.8670551181 -0.6032924652 0.08869916201
-0.8496669531 -0.5907539129 0.1219258904
-0.8330752254 -0.5787870884 0.1539830416
-0.8688029647 -0.6033841968 0.1973593086
-0.8551162481 -0.5934366584 0.2303464562
-0.848515451 -0.5884168744 0.2650827765
-0.8397006989 -0.5807859898 -0.2619769275
-0.8562540412 -0.5917937756 -0.2303464562
-0.86704427 -0.5990275145 -0.1965960711
-0.8640499711 -0.596513629 -0.1596146822
-0.8877744675 -0.612434864 -0.1272881329
-0.8646538258 -0.5962619781 -0.08817622811
-0.8832503557 -0.6086316109 -0.05401183292
-0.8778676391 -0.6044703126 -0.01790437289
-0.8684812188 -0.6004685163 0.01772984862
-0.8792198896 -0.6074394584 0.05380249396
-0.8757131696 -0.6047912836 0.08939640969
-0.8566254377 -0.5911669135 0.1226571053
-0.8497264385 -0.5859681368 0.1567988545
-0.8741366863 -0.6025763154 0.1981225461
-0.8732311726 -0.6015025377 0.2348454744
-0.8664774299 -0.5964046121 0.2702591419
-0.8512788415 -0.5844117999 -0.2650827765
-0.8599216938 -0.5899034739 -0.230796352
-0.8788446188 -0.6026592851 -0.1988857836
-0.8759042025 -0.6001932025 -0.1614918858
-0.8899068832 -0.6093322039 -0.1272881329
-0.8716624379 -0.5966162682 -0.08869916201
-0.8837209344 -0.6044172645 -0.05390716344
-0.891528964 -0.6093004942 -0.01814870723
-0.8804648519 -0.6042222381 0.01793927886
-0.8714517355 -0.5975896716 0.05317446217
-0.8876791 -0.6084896922 0.09044227749
-0.8586835861 -0.5881733298 0.1226571053
-0.8599172831 -0.5885772109 0.1583632082
-0.8859565258 -0.6061728597 0.2004122436
-0.8721079826 -0.5962509513 0.2339456528
-0.8749346137 -0.597735405 0.2723296881
-0.8660853505 -0.5901392102 -0.269223839
-0.8603646755 -0.5858016014 -0.2303464562
-0.8809429407 -0.5995879173 -0.1988857836
-0.8845274448 -0.6015758514 -0.1627433747
-0.8985959291 -0.6106850505 -0.128263101
-0.8984606266 -0.6103639007 -0.09131383151
-0.895740509 -0.6080591679 -0.05453519896
-0.8919954896 -0.6050624847 -0.01811380126
-0.885874033 -0.6033965945 0.01800908707
-0.8801368475 -0.599039197 0.05359315127
-0.8996815681 -0.6121116877 0.09148814529
-0.8705813289 -0.5918688178 0.1241195351
-0.8636005521 -0.5866819024 0.158676073
-0.8978119493 -0.6096945405 0.2027019709
-0.8709590435 -0.5910146236 0.2330458611
-0.8866093159 -0.6011827588 0.2754355073
-0.8649395704 -0.5849479437 -0.2681885958
-0.8720920086 -0.5893415213 -0.2330458611
-0.8797769547 -0.5943111777 -0.1981225461
-0.896445632 -0.6051157117 -0.1646205932
-0.9040135145 -0.6097646952 -0.1287505627
-0.8972817063 -0.6049965024 -0.09096521884
-0.9111086726 -0.613856554 -0.05537256971
-0.8906797171 -0.5998669863 -0.01804399118
-0.899571538 -0.6081402898 0.01825342141
-0.8953570724 -0.6050635576 0.05443052202
-0.9018125534 -0.6089676619 0.09148814529
-0.882515192 -0.5954883099 0.1255819649
-0.8671789765 -0.5849195123 0.1589889526
-0.9162147045 -0.617529273 0.2065181434
-0.88109833 -0.5934140086 0.2352953702
-0.8885980844 -0.5982393026 0.2754355073
-0.8621639609 -0.5786954165 -0.2666356564
-0.8853691816 -0.5940466523 -0.2361951619
-0.8916301727 -0.5977960229 -0.2004122436
-0.8984473944 -0.6021396518 -0.1646205932
-0.9126282334 -0.6111818552 -0.1297255158
-0.8894530535 -0.5952122808 -0.08991934359
-0.9264199138 -0.6197156906 -0.05620994791
-0.9027433395 -0.6034218669 -0.01825342141
-0.9115451574 -0.6118406653 0.01846284978
-0.9007812142 -0.604159534 0.05463986844
-0.8973127604 -0.6013792157 0.09079090506
-0.8894326091 -0.5958730578 0.1263131797
-0.8757814169 -0.5862846971 0.1602404267
-0.9084677696 -0.6079366803 0.2042284459
-0.8927809596 -0.5969881415 0.2379947752
-0.8906809092 -0.5951339006 0.2754355073
-0.8753313422 -0.5833323598 -0.2702591419
-0.8793272972 -0.5855519176 -0.2339456528
-0.9099503756 -0.6057151556 -0.2042284459
-0.9005437493 -0.5989997983 -0.1646205932
-0.9279817939 -0.6167832017 -0.1316754371
-0.911441803 -0.6053310037 -0.09201107919
-0.920257628 -0.6109548807 -0.05568658933
-0.9115096927 -0.6046885848 -0.01839304157
-0.9070185423 -0.6042202711 0.01832322963
-0.9128600359 -0.6076520085 0.05526790023
-0.9125717878 -0.6072300076 0.09218539298
-0.8931600451 -0.5938640237 0.126556918
-0.8811132312 -0.5854103565 0.1608661562
-0.9073134661 -0.60258919 0.2034651935
-0.907849133 -0.6024886966 0.2415940166
-0.9024128318 -0.5984273553 0.2785413265
-0.8887440562 -0.5875778198 -0.2738825977
-0.891120553 -0.5889258385 -0.2366450876
-0.9187174439 -0.6067031622 -0.205754891
-0.91262573 -0.6022229791 -0.1664978117
-0.9235008955 -0.6091679335 -0.1307004839
-0.9251939058 -0.6098213792 -0.09323126823
-0.9241586924 -0.6086764336 -0.05579125881
-0.9319870472 -0.6135992408 -0.01877699234
-0.9191306233 -0.6076674461 0.018532658
-0.9149757028 -0.6044616103 0.05526790023
-0.9247678518 -0.6104673147 0.09323126823
-0.9018552899 -0.5951157808 0.1275318712
-0.8963445425 -0.5910303593 0.1633691192
-0.9193522334 -0.6057408452 0.205754891
-0.9100512266 -0.5991572142 0.2415940166
-0.9174061418 -0.6037700176 0.2826824486
-0.9053264856 -0.5940101743 -0.2785413265
-0.8981623054 -0.588860929 -0.2379947752
-0.9241135716 -0.6056451201 -0.2065181434
-0.9262900949 -0.6066091061 -0.16868788
-0.9323716164 -0.6101269722 -0.1316754371
-0.9339862466 -0.6109506488 -0.09392850101
-0.9396522045 -0.6141887903 -0.05662863702
-0.9341232181 -0.6103422046 -0.01877699234
-0.9397450089 -0.6163586378 0.01891661249
-0.9137396216 -0.5990738869 0.05505855754
-0.9402258992 -0.6159699559 0.09462574869
-0.9090130925 -0.5950681567 0.128263101
-0.9066667557 -0.5933061242 0.164933458
-0.9313200116 -0.6089746356 0.2080446184
-0.9088744521 -0.5938450098 0.2406942248
-0.9259777665 -0.6047895551 0.2847529948
-0.9057756066 -0.5897922516 -0.2780237198
-0.9099095464 -0.5922577381 -0.2406942248
-0.9196389318 -0.5981339216 -0.2049916685
-0.9398894906 -0.611071229 -0.1708779633
-0.9443775415 -0.6135205626 -0.1331378669
-0.937784493 -0.6087716818 -0.09410282224
-0.9450346231 -0.6132437587 -0.05683797598
-0.9379259348 -0.608165741 -0.01881189831
-0.9484868646 -0.6176035404 0.01905623265
-0.9292179346 -0.6045945883 0.05589592829
-0.9457111359 -0.6148561835 0.09497438371
-0.9226326346 -0.5996225476 0.1299692541
-0.9004488587 -0.5847583413 0.1633691192
-0.9465079904 -0.6144346595 0.2110975385
-0.9239179492 -0.599311769 0.2442934215
-0.9313254952 -0.6036550403 0.2857882679
-0.9061041474 -0.5857366323 -0.2775060833
-0.9250668287 -0.5975367427 -0.2442934215
-0.9447078705 -0.6099903584 -0.2103343159
-0.9386970997 -0.6056447029 -0.1702522188
-0.9565238953 -0.6166738272 -0.1346002966
-0.9348788261 -0.6022576094 -0.09357988834
-0.9572447538 -0.6164293289 -0.05746601149
-0.9501327276 -0.6113806367 -0.01902132668
-0.9455982447 -0.6110330224 0.0189515166
-0.9413899183 -0.6078479886 0.05652396381
-0.9410490394 -0.6073948741 0.09427713603
-0.9380657673 -0.6050059199 0.1319191754
-0.9174284935 -0.5912422538 0.1661849469
-0.948646903 -0.6111271381 0.2110975385
-0.9391130805 -0.6045213342 0.247892648
-0.9366766214 -0.6024906635 0.2868235707
-0.9245071411 -0.5928395391 -0.2826824486
-0.9238656759 -0.5922009349 -0.2433936298
-0.9535502791 -0.6107590199 -0.2118607908
-0.9375829101 -0.6000707746 -0.1696264893
-0.9720481038 -0.6218895912 -0.136550203
-0.9504050016 -0.6075755358 -0.09497438371
-0.9662300944 -0.6172176003 -0.05788469315
-0.9590027928 -0.6123649478 -0.01916094497
-0.9460421801 -0.6066488624 0.01891661249
-0.9535958767 -0.6110233068 0.0571519956
-0.9533363581 -0.6103877425 0.09532299638
-0.9418438673 -0.6027978063 0.1321629137
-0.9278073907 -0.5933578014 0.1677492857
-0.9508805871 -0.6076458693 0.2110975385
-0.954462111 -0.6094655395 0.2514918447
-0.9452875853 -0.603374958 0.2888941169
-0.934720099 -0.5947946906 -0.2852706313
-0.9293190837 -0.5909018517 -0.2442934215
-0.960646987 -0.6105864048 -0.2130056471
-0.9496769309 -0.603148222 -0.1715036929
-0.9759968519 -0.6193866134 -0.1367939413
-0.9626145363 -0.61065799 -0.09602024406
-0.9616311789 -0.6095638871 -0.05746601149
-0.9712695479 -0.6154356003 -0.0193703752
-0.9600701332 -0.6106902957 0.01916094497
-0.9557231069 -0.6076906919 0.0571519956
-0.9722778201 -0.6177407503 0.09706611186
-0.9406952262 -0.5972138047 0.1316754371
-0.9398801923 -0.5964663029 0.1696264893
-0.9596277475 -0.6085287333 0.2126240134
-0.9532915354 -0.6040440202 0.2505920529
-0.9571799636 -0.6062740088 0.2919999361
-0.9498583078 -0.5997796655 -0.2894117534
-0.9444567561 -0.5961383581 -0.247892648
-0.9561302066 -0.6030400395 -0.2114791721
-0.9683820009 -0.6105307937 -0.1746324003
-0.974686265 -0.6140304804 -0.1363064647
-0.9714847207 -0.6115399599 -0.09671749175
-0.9737899303 -0.6127538085 -0.05809404328
-0.9767974615 -0.6141704321 -0.01944018528
-0.9739257693 -0.6149768829 0.01940527931
-0.9612166286 -0.606482625 0.05736133456
-0.9845408201 -0.6207183599 0.09811198711
-0.9477086067 -0.5972661972 0.1324066371
-0.9452996254 -0.5952867866 0.1702522188
-0.9749322534 -0.613710165 0.2156769633
-0.9552893639 -0.6008793712 0.2505920529
-0.9691040516 -0.6090971828 0.2951057553
-0.9518420696 -0.5966264606 -0.2894117534
-0.9597442746 -0.6011132002 -0.2514918447
-0.9614527822 -0.6019496918 -0.2122424096
-0.9805549979 -0.6134329438 -0.1765096188
-0.9902898073 -0.6190422177 -0.138256371
-0.9802659154 -0.6125382185 -0.09741473943
-0.9860879183 -0.6156973839 -0.05872207135
-0.9755422473 -0.6086400747 -0.0193703752
-0.9913173318 -0.6211291552 0.01971942373
-0.9700992107 -0.6073630452 0.05778002366
-0.9865936041 -0.6174502969 0.09811198711
-0.9582031369 -0.5992170572 0.1336253285
-0.9406709671 -0.5877965689 0.1690007597
-0.9870592952 -0.6165437102 0.2179666758
-0.9639935493 -0.6016685963 0.2523916364
-0.9712244868 -0.6057104468 0.2951057553
-0.9539188147 -0.593300283 -0.2894117534
-0.9783881307 -0.6080456972 -0.2559908628
-0.9768894315 -0.606877923 -0.2152953595
-0.9826903343 -0.610006392 -0.1765096188
-1.00931406 -0.6260451674 -0.1406937689
-0.9790113568 -0.6070128679 -0.09706611186
-0.9916266203 -0.6143555641 -0.05893141776
-0.9929632545 -0.6147041321 -0.01968451962
-0.9849882126 -0.6123861074 0.01954489946
-0.9925718904 -0.616620481 0.05903609097
-0.9853577614 -0.6119005084 0.09776335955
-0.9687227011 -0.6011017561 0.1348440349
-0.9611845016 -0.5959596634 0.172442317
-0.9892053604 -0.6130943894 0.2179666758
-0.9826555252 -0.6085602045 0.2568906546
-0.9766184092 -0.6043499112 0.2961410582
-0.9674919248 -0.597069025 -0.2930352092
-0.9821633697 -0.6056495905 -0.2564407587
-0.9923717976 -0.6117058992 -0.2183483094
-0.9848136902 -0.6065724492 -0.1765096188
-1.016564965 -0.6256395578 -0.1414249688
-0.9947001338 -0.6119436622 -0.09846060723
-1.000570893 -0.6150740981 -0.05935010314
-1.000214577 -0.6143741012 -0.01978923194
-0.9905237556 -0.6110436916 0.01961470768
-0.9947181344 -0.6131521463 0.05903609097
-1.001057625 -0.6168184876 0.09915785491
-0.9792670012 -0.602920711 0.1360627413
-0.9699887633 -0.5967410803 0.173693791
-0.9946841598 -0.6116945744 0.2187299132
-0.9980564117 -0.613288343 0.260489881
-0.9885997176 -0.6070021987 0.2992468774
-0.9728654027 -0.5957055092 -0.2940704823
-0.9809468985 -0.6001836658 -0.255540967
-1.00789988 -0.6164325476 -0.2214012295
-1.000409245 -0.6113719344 -0.1790125668
-1.023825288 -0.6251909137 -0.1421561986
-1.003632426 -0.6126202345 -0.09915785491
-1.002711892 -0.61157763 -0.05935010314
-1.017721295 -0.6202449203 -0.02010337636
-0.9994730353 -0.6117581725 0.01975432783
-1.003667951 -0.6138443351 0.05945478007
-1.02360332 -0.6257913709 0.101249598
-0.9881417155 -0.6036378145 0.1370376796
-0.9872404933 -0.602614522 0.1765096188
-1.006868839 -0.6143541932 0.2210196257
-1.001854897 -0.6108154058 0.2609397769
-1.000611424 -0.6095780134 0.3023526967
-0.9931002855 -0.6033395529 -0.299764514
-0.9963625073 -0.6048457026 -0.2591401637
-1.016759157 -0.6169844866 -0.2229277045
-1.012672305 -0.6140210032 -0.1808897704
-1.029396772 -0.6236706972 -0.1426436603
-1.026215553 -0.6214982271 -0.101249598
-1.023636699 -0.619448483 -0.06050149724
-1.025013804 -0.619792819 -0.02020809054
-1.02382195 -0.6217596531 0.02020809054
-1.009219527 -0.6124092937 0.05966411904
-1.036002278 -0.6284145117 0.1022954583
-0.9953357577 -0.6032716632 0.1377688944
-0.9927174449 -0.601211071 0.1771353483
-1.022443056 -0.6189696193 0.2240725756
-1.003981113 -0.6073142886 0.2609397769
-1.015959501 -0.6140761375 0.306493789
-1.000163794 -0.602861464 -0.3013174236
-1.001806617 -0.6033747196 -0.2600399852
-1.015542626 -0.6114065051 -0.2221644819
-1.024965525 -0.6165919304 -0.1827669889
-1.041775823 -0.6262097955 -0.144106105
-1.021547437 -0.613807559 -0.1005523503
-1.037779331 -0.623067677 -0.06123419479
-1.030600309 -0.618268609 -0.02027789876
-1.032837152 -0.6223100424 0.0203477107
-1.021617413 -0.6150638461 0.06029215083
-1.034775376 -0.6227396131 0.1019468307
-1.004240155 -0.6038858294 0.1387438476
-0.9914236069 -0.5957073569 0.1765096188
-1.03806138 -0.6234839559 0.2271255255
-1.019462347 -0.6118284464 0.2645390034
-1.018096924 -0.6105257869 0.306493789
-1.002262115 -0.5993665457 -0.3013174236
-1.027326345 -0.6138685346 -0.2663386166
-1.031154394 -0.6159117818 -0.225217402
-1.027111411 -0.6130105853 -0.1827669889
-1.057595015 -0.6307032108 -0.1460560113
-1.023683667 -0.6102381945 -0.1005523503
-1.051959395 -0.626595974 -0.06196689978
-1.036189079 -0.6167128682 -0.0203477107
-1.035003185 -0.6187009811 0.0203477107
-1.037475586 -0.619687438 0.06112952903
-1.040364385 -0.6211662889 0.1022954583
-1.028503895 -0.6135982871 0.1419124603
-1.003677487 -0.5983120799 0.1783868223
-1.040231466 -0.6198566556 0.2271255255
-1.031638026 -0.6142480969 0.2672384083
-1.023542404 -0.6089437008 0.307529062
-1.024285555 -0.6076927781 -0.307529062
-1.027786613 -0.609284997 -0.2658887208
-1.046809912 -0.6203154325 -0.2282703668
-1.036044002 -0.6134473085 -0.1840184629
-1.066623926 -0.6310511231 -0.1470309645
-1.042957067 -0.6168032289 -0.1022954583
