# .PCD v0.7 - Point Cloud Data file format
VERSION 0.7
FIELDS x y z
SIZE 4 4 4
TYPE F F F
COUNT 1 1 1
WIDTH 1234
HEIGHT 1
VIEWPOINT 0 0 0 1 0 0 0
POINTS 1234
DATA ascii
-6.980517864 -0.03776904941 1.601648092
-6.578837395 -0.0332993269 1.751221657
-4.247148037 -0.01556739584 -1.126432538
-5.239485741 -0.01554576587 -1.010205746
-1.229390025 -0.003003977006 -0.145812273
-1.155905962 -0.002421231475 -0.09741473943
-6.39303112 -0.01004404202 -0.1108907983
-6.556973934 -0.02288785949 0.1137529835
-6.563076019 -0.02061989158 0.3417549431
-6.917868137 -0.02052559517 0.6015235782
-6.948421001 -0.01819257438 0.8480235338
-6.962242603 -0.01579695195 1.096031547
-6.988755226 -0.01341770962 1.350227356
-7.027379513 -0.01226542518 1.612445831
-6.578915596 -0.009186344221 1.751221657
-4.249108791 3.714689001e-07 -1.126950264
-5.2709198 0.002760141855 -1.016311526
-1.255198956 0.001533233561 -0.1489808857
-1.163876891 0.001625083387 -0.09811198711
-1.6498487 0.002879109234 -0.08426202834
-6.393024921 0.01338929217 -0.1108907983
-6.541016579 0.00114056631 0.1134737507
-6.559113026 0.003434710437 0.3415456116
-6.959737778 0.004857470281 0.6051841378
-6.964321613 0.007293192204 0.8499733806
-7.00176096 0.009776331484 1.102288842
-7.012318134 0.01101488061 1.354806781
-7.044916153 0.01352508459 1.616494894
-6.58083725 0.01492957678 1.751739383
-4.256810665 0.01485860813 -1.12902081
-5.270877838 0.02115795948 -1.016311526
-1.241290569 0.005849242676 -0.1472747028
-1.171833515 0.005726740696 -0.09880922735
-1.643836856 0.008607205003 -0.08394800872
-6.472925663 0.0361503996 -0.1122869924
-6.514976501 0.02387787215 0.1130199879
-6.531099796 0.02621664666 0.3400802016
-6.989563942 0.02927683108 0.6077987552
-6.990059376 0.03171879798 0.8531420231
-7.033289909 0.03437162936 1.107294798
-7.049538612 0.03567968681 1.362057567
-7.083799839 0.03832741827 1.62549293
-6.588471889 0.03794715181 1.753809929
-4.254800797 0.02970419265 -1.128503203
-5.27077198 0.03955677152 -1.016311526
-1.243249416 0.009981463663 -0.147518456
-1.179775715 0.009883685969 -0.09950647503
-1.617833495 0.01411868073 -0.08258727938
-6.49276638 0.05779343843 -0.1126360372
-6.518853188 0.04664804414 0.1130897999
-6.503015518 0.04766969383 0.3386147618
-7.027272701 0.05396735296 0.6111106873
-7.02563715 0.05640552938 0.8575293422
-7.046964645 0.0578083694 1.109484911
-7.078818798 0.06053899229 1.367781878
-7.099223614 0.06195425615 1.629092216
-6.605695724 0.05995157734 1.758468747
-4.243088245 0.04369426146 -1.125397325
-5.270611763 0.05703526735 -1.016311526
-5.247305393 0.05861482769 -0.8244612813
-1.243209481 0.01410422008 -0.147518456
-1.179736376 0.01379595324 -0.09950647503
-1.601800799 0.01929117739 -0.08174990118
-6.446549892 0.07876381278 -0.1118332297
-6.494667053 0.06801404059 0.1126709431
-6.490839005 0.0691068843 0.3379867673
-7.062916279 0.07766325027 0.6142482758
-7.06709528 0.08017624915 0.8626478314
-7.080313206 0.08156203479 1.114803672
-7.102136135 0.08429273218 1.372361183
-7.130156517 0.08587154746 1.636290669
-6.593870163 0.08171314001 1.755362868
-4.248714924 0.05784366652 -1.126950264
-5.240947723 0.0740968287 -1.010587335
-1.261016488 0.01870881207 -0.1497121006
-1.171715498 0.01758845337 -0.09880922735
-1.587748885 0.02438779362 -0.08101719618
-6.240308762 0.09694185108 -0.1082380265
-6.474411011 0.08927530795 0.1123218909
-6.468606472 0.09032440186 0.3368353546
-7.078557491 0.1013126746 0.615642786
-7.098548889 0.1040770411 0.8665476441
-7.113581181 0.1055391952 1.120122433
-7.135189056 0.1083508283 1.378848672
-7.174629211 0.1114563122 1.646638393
-6.578110218 0.1033362597 1.751221657
-4.238829613 0.07250900567 -1.124361992
-5.63520956 0.09934666753 -1.087292552
-1.270871282 0.02307059057 -0.1509307921
-1.191567421 0.02204700746 -0.1005523503
-1.593650103 0.02976477519 -0.08133120835
-5.980019093 0.1137775108 -0.1037004068
-6.450086117 0.1103345528 0.1119030342
-6.464258194 0.1128339693 0.3366260231
-7.106050014 0.1265158802 0.618083179
-7.118011951 0.1279732138 0.8689850569
-7.156620979 0.1311661452 1.127005577
-7.156383038 0.132411167 1.383046508
-7.213188171 0.1359825283 1.65563643
-6.58543539 0.1264460534 1.753292322
-4.246291161 0.08672302216 -1.126432538
-5.678031921 0.1189379096 -1.095688224
-5.67105341 0.1207720563 -0.8917280436
-1.266813755 0.0274204351 -0.1504433006
-1.207423091 0.02634602226 -0.1019468307
-1.58754611 0.03519433737 -0.08101719618
-5.813653469 0.1309146136 -0.1008033082
-6.42966938 0.1324357241 0.1115539819
-6.431875706 0.1347286999 0.3349512815
-7.13547039 0.1507110596 0.6206978559
-7.143322468 0.1533730924 0.8721536398
-7.185742855 0.1567932069 1.131698608
-7.197094917 0.1582975686 1.391060472
-7.228255272 0.1615071446 1.659235597
-6.586885452 0.1494783312 1.753809929
-4.263344288 0.1019596159 -1.131091356
-5.65795517 0.1382763535 -1.091871977
-1.260756969 0.03169295192 -0.1497121006
-1.211307287 0.03066142276 -0.1022954583
-1.597396612 0.04099229723 -0.08154055476
-5.805164337 0.1509980112 -0.1006636843
-6.40917635 0.1543972492 0.1112049371
-6.399419785 0.1563972086 0.3332765102
-7.178719521 0.1766963303 0.6245326996
-7.174495697 0.1790981293 0.8760534525
-7.198975086 0.182225287 1.133888721
-7.22593832 0.1841679811 1.396784782
-7.260764599 0.1875933409 1.666883945
-6.5940485 0.1726708263 1.755880475
-4.255238533 0.1166292578 -1.12902081
-5.150718212 0.1429721266 -1.179639935
-5.633888245 0.1573678106 -1.087292552
-1.270560145 0.03637772426 -0.1509307921
-1.209195256 0.03504289687 -0.102121152
-1.623197079 0.04732472077 -0.08290129155
-5.812597752 0.1714983732 -0.1008033082
-6.396605015 0.1764394045 0.1109955087
-6.406820774 0.1789576411 0.3336952031
-7.201958656 0.2024273425 0.6266244054
-7.211527824 0.2052137405 0.8806844354
-7.229888439 0.2082618326 1.138894558
-7.268424511 0.2106414586 1.405180335
-7.299024105 0.214079842 1.675882101
-6.591474056 0.195630163 1.755362868
-4.241265774 0.1318047196 -1.125397325
-5.228099346 0.1633856148 -1.197636008
-5.617575645 0.1775200218 -1.084239602
-1.290266037 0.04144969583 -0.153368175
-1.21304822 0.0393932201 -0.1024697721
-1.605047107 0.0526836589 -0.08195924014
-5.821956158 0.1921169907 -0.1009778306
-6.42992878 0.1998212337 0.1115888953
-6.446082115 0.2025769353 0.3357886374
-7.213117123 0.2292005569 0.6276702881
-7.256400585 0.2318453491 0.886290431
-7.270577908 0.2348369658 1.145464778
-7.291150093 0.2380507886 1.40975976
-7.339091301 0.2421804667 1.685330033
-6.579166412 0.218253389 1.752256989
-4.231126308 0.1462750733 -1.122809052
-5.589452744 0.1961640567 -1.07889688
-1.296056867 0.0463918373 -0.1540994048
-1.210912228 0.04355572164 -0.1022954583
-1.590881824 0.05777899548 -0.08122654259
-5.83520174 0.2139658779 -0.1012221575
-6.449138641 0.2240812778 0.1119379401
-6.501185417 0.2281616777 0.3387194574
-7.264042377 0.2562037408 0.6322023869
-7.271373272 0.25900352 0.888240397
-7.313098907 0.2630473971 1.152347922
-7.309895039 0.2642078102 1.413575888
-7.373255253 0.2690766454 1.693428159
-6.582183838 0.2425081581 1.753292322
-4.290433884 0.1633217484 -1.138855934
-5.068858624 0.1956114322 -0.9777681231
-1.291919827 0.0507598035 -0.1536119133
-1.220707059 0.0481749177 -0.1031670198
-1.596657395 0.06357026845 -0.08154055476
-5.84640789 0.2348162979 -0.1014315933
-6.484284401 0.2479672283 0.1125662252
-6.492366314 0.2505457699 0.3383007646
-7.290976524 0.2826408744 0.6346427798
-7.30216217 0.2856253982 0.8921402097
-7.333848 0.2894285917 1.155789495
-7.344239712 0.2911224067 1.420445085
-7.387848854 0.2954338491 1.697027445
-6.589017868 0.2657944262 1.755362868
-5.037202358 0.2111210525 -1.153995633
-5.05637598 0.2128074467 -0.9754784107
-1.293727756 0.05512824282 -0.1538556516
-1.21057868 0.05200813338 -0.1022954583
-1.78798306 0.07743947208 -0.09158905596
-5.84559679 0.2542012334 -0.1014315933
-6.515347004 0.2719345391 0.1131247059
-6.5214324 0.2733286619 0.3398708403
-7.270039082 0.3072465956 0.632899642
-7.303103924 0.3111994267 0.8923839331
-7.299297333 0.3123117089 1.150470734
-7.26472044 0.3133743703 1.405180335
-7.303111076 0.3163056374 1.677681684
-6.593890667 0.2878960073 1.756915808
-4.277643681 0.1920013279 -1.135750055
-5.046207905 0.2282643169 -1.156244993
-5.037991047 0.2287725061 -0.9720438123
-1.291554809 0.05932644382 -0.1536119133
-1.232292414 0.05703560635 -0.1042128876
-1.897446513 0.08848543465 -0.09734601527
-5.844721794 0.2735847235 -0.1014315933
-6.546372414 0.2949791849 0.113683179
-6.544433117 0.2960362732 0.3411269188
-7.093832016 0.3233694434 0.6175602078
-7.151323795 0.32848984 0.8738598228
-7.189691544 0.3315113187 1.133262873
-7.253835678 0.3370063305 1.403272271
-7.307862282 0.3407945037 1.679031372
-6.581321239 0.3092167974 1.753809929
-4.230672836 0.2039530575 -1.123326778
-5.031797886 0.2443355024 -1.153095722
-1.28142643 0.06334474683 -0.1523932219
-1.230106592 0.06102306023 -0.1040385738
-1.968954444 0.09836474061 -0.101114206
-5.919624329 0.2978031039 -0.1027579755
-6.553347111 0.3170713782 0.1138227955
-6.579267025 0.3206273019 0.3430109918
-7.106650352 0.3475732207 0.6187803745
-7.183900356 0.3538649082 0.8780033588
-7.206246853 0.3574870825 1.136078715
-7.262482643 0.3615474105 1.405180335
-7.32414484 0.36717996 1.683080435
-6.5744133 0.3318944275 1.752256989
-2.611078024 0.13638331 -0.4999823868
-1.433176041 0.07536042482 -0.2206241339
-1.231639743 0.06519417465 -0.1462997645
-1.235854745 0.06563358009 -0.1045615152
-1.916744351 0.1024650782 -0.09839273244
-5.952494144 0.3202913702 -0.1033513546
-6.588147163 0.3418116271 0.114451088
-6.645923138 0.3471336365 0.3465698659
-7.105393887 0.3723781407 0.6187803745
-7.188569069 0.3792515099 0.8787345886
-7.208900452 0.3828491569 1.136704564
-7.249413967 0.3862695098 1.402890682
-7.301412582 0.3915959299 1.67813158
-6.584789276 0.3554663658 1.755362868
-1.289480329 0.07118995488 -0.3344462812
-2.582229376 0.143464461 -0.5871188641
-2.614506483 0.1457160413 -0.5007455945
-1.200175643 0.06731013209 -0.1837055981
-1.247260094 0.07038781792 -0.148249656
-1.243574977 0.07039728016 -0.1052587479
-5.971303463 0.3422117531 -0.1037004068
-6.62684679 0.3670167029 0.1151491851
-6.668600559 0.3716655672 0.3478259146
-7.086147785 0.3961775601 0.6172116399
-7.139634132 0.4016678333 0.8728848696
-7.187798023 0.4068925977 1.133575797
-7.210779667 0.409457773 1.395639896
-7.259144783 0.4147444069 1.668683648
-6.597009182 0.3792256713 1.758986354
-1.188940287 0.06980328262 -0.307529062
-2.599220991 0.1535113454 -0.5911679268
-1.181353927 0.06997855753 -0.2217828631
-1.176270604 0.0700891912 -0.1799511611
-1.304471493 0.07818509638 -0.1553180963
-1.247299194 0.0749771744 -0.1056073755
-5.976061344 0.3634177744 -0.1038051173
-6.657464981 0.3920274675 0.1157076657
-6.671249866 0.3951774538 0.3480352461
-7.104610443 0.4220905304 0.6189547181
-7.134225368 0.426350683 0.8723973632
-7.202107906 0.4329303503 1.136078715
-7.295532703 0.4398241043 1.412431121
-7.345184803 0.4453906417 1.6889292
-6.593717098 0.4021322429 1.758468747
-1.194473743 0.07431265712 -0.3090820014
-2.586999893 0.161853984 -0.5884685516
-1.196777701 0.07508502901 -0.2248357981
-1.195733428 0.07543881983 -0.1830798537
-1.320039272 0.08374354988 -0.1572679877
-1.26094842 0.0802160725 -0.1068275571
-1.65246582 0.1057014465 -0.08457604051
-5.988724709 0.3851730525 -0.1040494516
-6.709942818 0.41862607 0.1166500896
-6.691756725 0.4198363125 0.3491866291
-7.36954689 0.4636516571 0.6423124671
-7.350618362 0.4650366902 0.8992086649
-7.381921291 0.4696058333 1.164862752
-7.427183628 0.4737849236 1.438381076
-7.43304348 0.476765573 1.709624648
-6.590344906 0.4250235856 1.757951021
-2.564796925 0.1685550958 -0.6771227121
-2.590307951 0.1711397171 -0.5893683434
-2.591288567 0.1716587096 -0.496547848
-1.333603621 0.08927937597 -0.1589741707
-1.260660768 0.08461684734 -0.1068275571
-6.007295132 0.4074285924 -0.1043985039
-6.704449654 0.4417812228 0.1165802777
-6.716157913 0.4449087679 0.3505473733
-7.357944012 0.4887151122 0.641440928
-7.378660679 0.4926763177 0.9028646946
-7.384179115 0.4956336915 1.165488482
-7.398061275 0.4978624284 1.433038473
-7.43911171 0.5032333732 1.711424351
-6.581111431 0.44750157 1.755880475
-2.589246988 0.1792407036 -0.6838519573
-2.576086521 0.1792338043 -0.5862190723
-2.612217188 0.1822057068 -0.5007455945
-1.341204643 0.09449175 -0.1599491239
-1.262345195 0.08915727586 -0.1070018709
-6.033761024 0.4303888977 -0.1048871651
-6.838519573 0.4745976031 0.1189538091
-6.738472939 0.4700177014 0.3518034518
-7.350230694 0.5139776468 0.6409179568
-7.368975163 0.517873168 0.9018897414
-7.40407896 0.5229373574 1.168930054
-7.411944389 0.5247946978 1.436091423
-7.445084572 0.529751122 1.713223934
-6.58914423 0.4711587429 1.758468747
-2.60209322 0.1892588437 -0.6874754429
-2.614316225 0.1910658628 -0.5952171087
-2.652683258 0.1943353266 -0.5087596178
-1.340866685 0.09917288274 -0.1599491239
-1.279908895 0.094888933 -0.10857068
-6.050168991 0.4527899325 -0.1052013114
-7.281572819 0.5308921933 0.1267375797
-6.782605648 0.4968930483 0.3542109132
-7.372236252 0.5413829088 0.6430097222
-7.382959843 0.5447613001 0.9038396478
-7.421908379 0.5502399206 1.172058702
-7.406151772 0.5503714681 1.435328126
-7.412096977 0.553414762 1.706025481
-6.587459564 0.4941564202 1.758468747
-2.705434561 0.2062720805 -0.7154279351
-2.69896841 0.2072004527 -0.5179184079
-1.334574699 0.1033928171 -0.159217909
-1.279569864 0.09935609996 -0.10857068
-7.2307477 0.5665318966 -0.1258998662
-7.263724327 0.555087626 0.1264583468
-6.794769287 0.5216360688 0.3549436033
-7.362354755 0.5665022135 0.6423124671
-7.371117592 0.5697646737 0.9026209712
-7.378583908 0.5729326606 1.165488482
-6.141704082 0.4779697061 1.189184546
-7.396520615 0.5782214999 1.70287621
-6.606879234 0.5188117623 1.76416266
-2.704698086 0.2157146484 -0.7154279351
-2.686487198 0.2156777978 -0.5156286955
-2.696571112 0.2174346745 -0.4217988551
-1.350034595 0.1093323454 -0.1611678153
-1.281201005 0.1039832383 -0.1087449864
-6.030916691 0.4937117994 -0.1049220785
-7.261742592 0.580437839 0.1264583468
-6.037675858 0.4857784808 0.5262210369
-6.136389256 0.4958780706 0.7507717013
-6.120378971 0.4967345595 0.9658780098
-6.139997959 0.4994055033 1.189184546
-7.514877796 0.6138737798 1.730770111
-6.593475342 0.5409248471 1.7610569
-2.688527107 0.2238714546 -0.7112868428
-2.699560404 0.225739643 -0.6154626608
-2.695499897 0.2258731872 -0.517536819
-2.697764397 0.2270118445 -0.4221117496
-1.355578899 0.1145459786 -0.1618990451
-1.280830264 0.1084548607 -0.1087449864
-6.0232687 0.5131992698 -0.1048173606
-6.040097237 0.5040153861 0.1050965935
-6.03673315 0.5047969818 0.3152729571
-6.041899204 0.5073527098 0.5267439485
-6.124730587 0.5164597631 0.7495530844
-6.091141224 0.5146993995 0.9614978433
-6.118655205 0.5191738605 1.185368419
-7.57676506 0.6455615163 1.745616913
-6.593570709 0.5629481673 1.761574626
-1.548355818 0.1343742162 -0.4048450291
-1.516476274 0.1318745613 -0.3414722681
-2.69273901 0.2351101488 -0.5171551704
-2.712739468 0.2373341322 -0.4246146679
-1.374966383 0.1207773536 -0.164336428
-1.296321392 0.1143251359 -0.1101394817
-6.017456532 0.5338665843 -0.1047475487
-6.012494087 0.5217949152 0.1046428308
-6.030954361 0.5255180001 0.3150635958
-6.032152176 0.5277453661 0.5260466933
-6.095299721 0.5343405008 0.7461407185
-6.085371971 0.5356121063 0.9608721733
-6.089520454 0.5370468497 1.180025697
-7.564877033 0.6698243618 1.743367314
-6.5973382 0.5864754915 1.763127327
-2.688864946 0.242339924 -0.7118044496
-1.593639255 0.1441910565 -0.3594683707
-2.711497068 0.245810926 -0.5209713578
-1.590563774 0.144752413 -0.2462793738
-1.366629004 0.1248541027 -0.16336146
-1.325696468 0.1213475242 -0.1127541512
-5.999626637 0.5533989668 -0.1044683158
-5.994702816 0.5413406491 0.1043635979
-6.001236439 0.5440424681 0.3135981858
-6.014495373 0.5463041663 0.5246521831
-6.069674492 0.5534508824 0.7432158589
-6.079530239 0.5564892888 0.9602463841
-6.077833652 0.5574036241 1.178117633
-7.554730892 0.695510447 1.741567731
-6.608716488 0.6107455492 1.766750932
-2.707237005 0.2535256445 -0.7169808149
-1.605781674 0.1517908722 -0.2487823516
-1.370137215 0.1299984753 -0.1638489366
-1.323281407 0.1257858127 -0.1125798449
-5.965809345 0.571289897 -0.1039098352
-5.98879528 0.5618893504 0.104293786
-5.97146225 0.5623658299 0.3121328056
-6.002634525 0.5663583875 0.5237807035
-6.063752651 0.5742604733 0.7427283525
-6.065752029 0.5765860677 0.9583691359
-6.060215473 0.5771284699 1.175064683
-7.532858372 0.7200230956 1.737068772
-6.618082047 0.6349176168 1.769856691
-2.742868662 0.2665241361 -0.7268159389
-1.521712422 0.1486688405 -0.2889476418
-1.381528616 0.1359468102 -0.1653113812
-1.334730864 0.1315769702 -0.1136257052
-5.943879128 0.5901354551 -0.1035607904
-5.974854946 0.5816283822 0.1040843576
-5.969462872 0.583206892 0.3121328056
-5.976825714 0.5849792361 0.5216889381
-6.049857616 0.5942592025 0.741265893
-6.036180973 0.5950430632 0.9539890289
-6.050349236 0.5975059867 1.173538208
-7.522542477 0.7455447316 1.735269189
-6.608136177 0.6572489738 1.767786145
-2.988228798 0.3035330474 -0.4690420926
-1.388944864 0.1415736079 -0.1662863195
-1.340209723 0.1368427575 -0.1141486466
-5.929847717 0.6096515059 -0.1033513546
-5.95289278 0.6004742384 0.1037353054
-5.933119774 0.6016178727 0.5180283785
-6.035897732 0.6141680479 0.7398035526
-6.014414787 0.6141046882 0.9508603215
-6.02869606 0.6166245937 1.16972208
-7.504384995 0.770209074 1.731669903
-6.605801582 0.6803118587 1.767786145
-1.762756228 0.184651047 -0.336268276
-3.061804295 0.321808517 -0.4809311032
-1.400287271 0.1476699263 -0.1677487642
-1.351612091 0.1427756399 -0.1151945144
-5.923706532 0.6299240589 -0.1032815427
-5.930871487 0.6191723943 0.1033862606
-5.997027397 0.6281965375 0.3138075173
-5.938910007 0.623155117 0.5187256336
-6.010026455 0.6327395439 0.7368786335
-6.024021626 0.6363390088 0.9527375698
-6.010887623 0.6360123754 1.166669011
-7.524905205 0.7988666892 1.737068772
-6.614912987 0.7045957446 1.770892024
-1.78161943 0.1929161996 -0.3400844634
-1.403710008 0.1529874504 -0.1682362407
-1.347144127 0.1470603645 -0.1148458794
-2.410375595 0.2639789283 -0.1248747408
-5.909544945 0.649287641 -0.1030721143
-5.912769318 0.6381548047 0.1031070277
-5.921329498 0.6411696672 0.3099346757
-5.996121883 0.650328517 0.5239549875
-5.999887466 0.6528544426 0.7359036803
-5.994271755 0.6543619037 0.9483573437
-5.996921539 0.6557088494 1.164379358
-7.491076946 0.8217290044 1.729870319
-6.620093822 0.7285256982 1.77296257
-1.397276878 0.1569763273 -0.167505011
-1.36840117 0.1542159915 -0.1167633161
-2.381654739 0.2692500651 -0.1234093308
-5.89345026 0.6673061252 -0.1028277799
-5.910505295 0.6587918997 0.1031070277
-5.893366337 0.6579214931 0.3085739315
-5.997572422 0.6737941504 0.7359036803
-5.976365089 0.6724692583 0.9458544254
-5.988743305 0.6759790182 1.163234591
-7.474755764 0.8450337052 1.726720929
-6.61380291 0.7500395775 1.771927357
-2.979707241 0.3426555693 -0.6824980974
-1.412524223 0.1634343565 -0.1694549322
-1.359965801 0.1578345448 -0.1160660684
-5.865384102 0.6838356256 -0.1023740172
-5.89239502 0.676563561 0.1028277799
-5.885200024 0.6767767072 0.3082599342
-5.951971054 0.6865616441 0.5204687715
-5.971641541 0.6909413934 0.7329788208
-5.954479694 0.6900102496 0.942725718
-5.970868111 0.6940200925 1.160181522
-7.475783825 0.8702672124 1.72762084
-6.590171814 0.7695017457 1.766233206
-3.021129608 0.3575739264 -0.6923959255
-1.417858362 0.1690694988 -0.1701861471
-1.371276259 0.1640000343 -0.1171119362
-5.860975742 0.7040657401 -0.1023391187
-5.870260239 0.6937516928 0.1024787351
-5.864951134 0.695200026 0.3073178828
-5.876456738 0.6976038814 0.5140191913
-5.969317436 0.710740447 0.7329788208
-5.932420254 0.7084488869 0.9395970702
-5.948915482 0.7125248909 1.156365395
-7.439807892 0.8924119473 1.719972372
-6.572101593 0.7906568646 1.762092233
-1.434961557 0.1764451563 -0.1723797917
-1.388462663 0.1712198853 -0.1186807379
-5.847827911 0.7128430009 0.1021296829
-5.862363815 0.7166916132 0.3073178828
-5.86199522 0.7176849246 0.5129733682
-5.939088345 0.7292289734 0.7295665145
-5.929783821 0.7301861644 0.9395970702
-5.930676937 0.7323977351 1.153312445
-7.43455267 0.9194351435 1.719522476
-6.561491013 0.8137869239 1.760021687
-1.434305072 0.1817037314 -0.1723797917
-1.409598708 0.1788234264 -0.1205981672
-2.705729485 0.3446917236 -0.04691027477
-5.841208458 0.7337718606 0.1020598784
-5.845954418 0.7354058623 0.3065851629
-5.851418018 0.7381693125 0.5122760534
-5.908804417 0.7475026846 0.7261541486
-5.907601833 0.7483994961 0.9364683628
-5.912503242 0.7511159778 1.150259495
-7.423400879 0.9456912875 1.717722893
-6.56244278 0.837174952 1.7610569
-1.445505977 0.1879945248 -0.1738422215
-1.412917137 0.1842580885 -0.1209467873
-2.625199318 0.3437493443 -0.04551408067
-5.826843262 0.7516031861 0.10185045
-5.825525284 0.7535019517 0.3056431413
-5.844854355 0.7580764294 0.5119274855
-5.902355194 0.7665816545 0.7256666422
-5.885365009 0.7664640546 0.9333396554
-5.906086445 0.7702109218 1.149496317
-7.406698227 0.9685344696 1.714573622
-6.582466125 0.8630926609 1.767268538
-1.468452096 0.1961941272 -0.1767670959
-1.414273143 0.1892067194 -0.1211211011
-1.987561822 0.2666095793 -0.1028936282
-2.582424879 0.3468627334 -0.04478108138
-5.816254616 0.7708886862 0.1017108336
-5.813094616 0.771502316 0.3051197529
-5.804783821 0.7724611163 0.5086155534
-5.88390255 0.7850799561 0.7237167954
-5.871043205 0.7844070196 0.9314624667
-5.891686916 0.7892584205 1.147206545
-7.393614769 0.9930858016 1.712324023
-6.560422421 0.8823398352 1.762092233
-1.425447226 0.1957688779 -0.1221669763
-2.010410309 0.2764643431 -0.1041496918
-5.793850899 0.7874774933 0.1013617739
-5.790577412 0.7890911102 0.3040730357
-5.877066135 0.8029680848 0.5152394176
-5.879300117 0.8043185472 0.7234730124
-5.856526852 0.8032855392 0.9295852184
-5.873476982 0.8066548705 1.144153595
-7.378697395 1.016003847 1.709624648
-6.564956665 0.9062915444 1.76416266
-1.444519758 0.2032711059 -0.1239100844
-1.991633892 0.2809693515 -0.1032076478
-2.568123579 0.362754643 -0.04457164928
-5.767301083 0.8043838143 0.1009429246
-5.783971786 0.8077380657 0.3038637042
-5.880290508 0.8232817054 0.5157623291
-5.850901127 0.8212479353 0.7203043699
-5.842093945 0.8210528493 0.9277079701
-5.851184845 0.8244118094 1.140337467
-7.377036095 1.042026997 1.710074663
-6.565741062 0.9285980463 1.765197992
-1.463521004 0.2111570388 -0.1256531924
-1.976853848 0.2855734527 -0.1024749354
-2.560904741 0.3708565235 -0.0444669351
-5.762622833 0.8232206106 0.1009080261
-5.761346817 0.8250904083 0.302816987
-5.867519855 0.8423871398 0.51489079
-5.832426071 0.8383862972 0.7183545232
-5.843102455 0.8420041203 0.9283337593
-5.828987122 0.8410071731 1.13652122
-7.327251434 1.059789658 1.699276924
-6.554811954 0.9504024386 1.763127327
-1.484493971 0.2192107439 -0.1275706291
-1.977820873 0.2927647531 -0.1025796086
-5.743884563 0.8410147429 0.1006287783
-5.738670349 0.8422959447 0.3017702699
-5.860751152 0.8612607718 0.5145421028
-5.821608543 0.8575831056 0.71737957
-5.808861256 0.8577769995 0.9233278632
-5.820189476 0.8604877591 1.135376334
-7.342784882 1.08821547 1.703775883
-6.574385166 0.9766839743 1.769339085
-1.46796 0.2220078558 -0.1261761338
-1.988635182 0.3014625609 -0.1032076478
-2.546391487 0.3869241774 -0.04425750673
-5.742891312 0.8613548875 0.1006636843
-5.719894886 0.8599485755 0.3009328842
-5.834067345 0.8781535029 0.512450397
-5.806802273 0.876123786 0.7159171104
-5.798018932 0.8768671155 0.9220764041
-5.807445049 0.8793308735 1.13346839
-7.321601391 1.11120832 1.69972682
-6.559476376 0.9978821278 1.766233206
-1.711284399 0.2646148205 -0.2074781656
-1.473042846 0.228302151 -0.1266990602
-2.509458542 0.3902783692 -0.04362922162
-5.71415472 0.8774505854 0.1002099216
-5.70896244 0.8786930442 0.3005142212
-5.799459934 0.893658042 0.5096614361
-5.80370903 0.8963867426 0.7159171104
-5.779305458 0.8946844339 0.9195733666
-5.792699814 0.8977918029 1.131178617
-7.306123734 1.134965897 1.697027445
-6.544500351 1.018989921 1.763127327
-1.417213798 0.2234504372 -0.2706299722
-1.486011744 0.2356268466 -0.1279192567
-2.510055304 0.3993498683 -0.04366412386
-5.703155518 0.8961498737 0.1000702977
-5.709806442 0.8992371559 0.3007235527
-5.798113346 0.9152188897 0.5098357201
-5.773094177 0.9123022556 0.7125048041
-5.772245407 0.9142333269 0.9189476967
-5.768042088 0.9156314731 1.126980901
-7.292292595 1.160203934 1.694777846
-6.674449444 1.063101053 1.799362183
-1.387393475 0.2234663814 -0.314478159
-1.42805469 0.2302709967 -0.2729196846
-1.479176998 0.2390445024 -0.230635941
-1.491080165 0.2417692691 -0.1284421831
-2.502653599 0.4075827599 -0.04355940968
-5.684038162 0.9145059586 0.09979106486
-5.68281126 0.9163420796 0.299467504
-5.690636635 0.9186243415 0.5005972385
-5.757953644 0.9315533638 0.7110423446
-5.764955997 0.9347512722 0.9183219075
-5.755120754 0.9341874123 1.125072718
-7.280504227 1.18440032 1.692978263
-6.9526968 1.133563399 1.875972629
-3.073790312 0.5066582561 -0.5972949862
-1.509882927 0.2502298355 -0.1301852912
-1.653169394 0.27456972 -0.08562276512
-5.670945644 0.9327187538 0.09961653501
-5.659870625 0.9329264164 0.2984207869
-5.691327095 0.9391316772 0.5009458661
-5.74291563 0.9497036934 0.709579885
-5.732426167 0.9500232935 0.9136289358
-5.747951508 0.9536284208 1.12430954
-7.226344109 1.20149684 1.681280851
-6.927735806 1.154333353 1.870278478
-3.019272566 0.5079621077 -0.6968949437
-3.072003126 0.5173847675 -0.5972949862
-3.133126259 0.5288038254 -0.4965745509
-3.198830128 0.5410407782 -0.3932070732
-1.514893651 0.2564970255 -0.1307082325
-1.601004004 0.2716514766 -0.08290129155
-2.46827817 0.4192505777 -0.04300093651
-5.66568327 0.952175796 0.09958163649
-5.64886713 0.9503648281 0.2980020642
-5.666402817 0.9553475976 0.4990283549
-5.73173666 0.9684217572 0.7086049914
-5.717557907 0.9670510888 0.9117516875
-5.729102135 0.9710621238 1.12125659
-7.199051857 1.222798467 1.675882101
-6.891492844 1.171795368 1.861478686
-3.097265959 0.53276366 -0.602637589
-3.131355762 0.5391901135 -0.4965745509
-3.197018385 0.5516456962 -0.3932070732
-1.521842003 0.2631413341 -0.1314054728
-1.623710394 0.2810468376 -0.08415735513
-2.462858915 0.427180469 -0.04293112084
-5.644756317 0.9679172635 0.09926749021
-5.653389454 0.9714303613 0.2984207869
-5.647325993 0.9724166393 0.4976339042
-5.724580765 0.9867492914 0.708117485
-5.692734718 0.9833061695 0.9083101153
-5.710373878 0.9873794317 1.11820364
-7.073988914 1.225704789 1.647538185
-6.889264584 1.196172953 1.861996412
-3.129454136 0.5501181483 -0.4965745509
-3.218533039 0.5669344664 -0.3961319029
-1.520960927 0.2681865394 -0.1314054728
-1.622719407 0.2867129445 -0.08415735513
-5.617706299 0.9834774137 0.09884864092
-5.638333321 0.9881040454 0.2977927327
-5.640145302 0.9904494882 0.4972852767
-5.711327076 1.005004525 0.7068988085
-5.685552597 1.001492143 0.9076843858
-5.687559605 1.00389266 1.114387512
-7.073505402 1.251069188 1.648437977
-6.890966892 1.220022798 1.863549352
-3.163139105 0.5662888885 -0.6163758636
-3.224833012 0.5779147148 -0.5122180581
-3.216635466 0.5776045322 -0.3961319029
-1.547468424 0.2784332335 -0.1338458359
-1.613897204 0.2906764746 -0.08373866975
-2.444151163 0.4410930276 -0.04265188798
-5.608508587 1.001047134 0.09874392301
-5.615189075 1.004261971 0.2967460155
-5.624886513 1.008022547 0.4962393939
-5.672791958 1.017629504 0.7025114894
-5.672300339 1.019586444 0.9061200023
-5.676469803 1.021357179 1.112860918
-7.067399979 1.274173379 1.647988081
-6.913281441 1.248877406 1.870796204
-3.222796202 0.5891680717 -0.5122180581
-3.191168308 0.5845372081 -0.3932070732
-1.546536565 0.2835633755 -0.1338458359
-1.601086497 0.2941429913 -0.08311063796
-2.359997034 0.4344175458 -0.04118588194
-5.606947422 1.020976782 0.09877882153
-5.597895622 1.021347284 0.2960133255
-5.62935257 1.028101921 0.4969366491
-5.653584003 1.034566641 0.700561583
-5.651220798 1.036172867 0.9033042789
-5.667077065 1.040102601 1.111716151
-7.026493549 1.292137384 1.63943994
-6.886080742 1.268802762 1.864584446
-1.557287931 0.2911570668 -0.1348917037
-1.678574204 0.3144400716 -0.08729750663
-2.157997608 0.4050275683 -0.0376255922
-5.589586735 1.037985563 0.09853449464
-5.598223209 1.041612267 0.296222657
-5.621812344 1.047016263 0.4965880215
-5.653841019 1.055023432 0.7010490298
-5.639801502 1.054440856 0.9020527601
-5.661481857 1.059516907 1.111334443
-7.023856163 1.317015886 1.639889836
-6.919582844 1.299965978 1.874937296
-3.118562937 0.5915129185 -0.6087434888
-1.548433423 0.295099318 -0.1341944486
-1.618612051 0.3090594113 -0.08415735513
-2.099612236 0.4016622007 -0.0366133526
-5.615400791 1.06307137 0.09905806184
-5.623987675 1.066729069 0.2977927327
-5.629868031 1.06886375 0.4976339042
-5.642323494 1.073267579 0.7000740767
-5.62056303 1.07116282 0.8995497823
-5.642321587 1.076331377 1.108281612
-7.019215584 1.341525912 1.639889836
-6.983308315 1.337189794 1.893572211
-3.174306154 0.6135736108 -0.6201920509
-1.576731801 0.3061995804 -0.1368091404
-1.625365376 0.3162333369 -0.08457604051
-2.086421013 0.4066928625 -0.03640392423
-5.595948219 1.079635978 0.09877882153
-5.618268967 1.085976362 0.297688067
-5.616321564 1.086616874 0.4967623055
-5.611258984 1.087669492 0.6966617703
-5.616790295 1.090774417 0.8995497823
-5.621184826 1.092647433 1.104846954
-7.004926682 1.364155293 1.637640357
-7.012728691 1.368217111 1.902889729
-3.249195576 0.6398230195 -0.6354568005
-1.575653195 0.3117019534 -0.1368091404
-1.622292519 0.3215163946 -0.08447137475
-2.086950064 0.414362818 -0.03643882647
-5.59214592 1.099161744 0.09877882153
-5.590928078 1.100950718 0.2964319885
-5.608585358 1.10544312 0.4964137375
-5.595742702 1.10494256 0.6951993108
-5.605196953 1.108842254 0.8982983232
-5.598078728 1.108449221 1.101030827
-6.963803291 1.381396294 1.629092216
-7.017383099 1.394570708 1.905477881
-1.58041501 0.3183805645 -0.1373320669
-1.625075817 0.3279675245 -0.08468071371
-2.069810629 0.4184748828 -0.03615958989
-5.621608257 1.125348091 0.09937220812
-5.575301647 1.118102551 0.2958039641
-5.600785255 1.124230027 0.4960650802
-5.584067822 1.122902036 0.6942243576
-5.578054428 1.12372005 0.8945438862
-5.590325832 1.127207398 1.100267529
-6.966579914 1.407239556 1.6308918
-7.038981438 1.424422026 1.912724853
-1.579294086 0.3238953352 -0.1373320669
-1.639572263 0.33685413 -0.08551809192
-2.060502768 0.424084425 -0.03601996973
-2.999871254 0.6114209294 0.05273937434
-5.561580181 1.135559559 0.2952806056
-5.581210613 1.140583634 0.4946706295
-5.584003448 1.143183589 0.6947118044
-5.564422607 1.141200185 0.8929796219
-5.584434032 1.146318555 1.099885941
-6.942536831 1.427623987 1.626392722
-6.99990797 1.441968203 1.903407335
-3.211465836 0.6668161154 -0.7472839952
-5.517591 1.150675297 -0.6869122386
-1.597657442 0.3334767818 -0.1390751898
-2.060967207 0.4316848814 -0.0360548757
-2.97422266 0.6170144081 0.0523205176
-5.549760342 1.153340697 0.2948619127
-5.561590195 1.156813025 0.4932760894
-5.568318844 1.1602391 0.693249464
-5.556538105 1.159808278 0.8923538327
-5.565024853 1.162594676 1.096832991
-6.939418793 1.452246904 1.626842618
-6.958907127 1.458862662 1.893572211
-3.205089092 0.6789240241 -0.5122180581
-5.513541222 1.169927239 -0.6869122386
-1.606228352 0.3411211669 -0.1399467438
-2.067270756 0.4405435622 -0.03619449586
-2.929006338 0.61830616 0.05155261233
-5.539838314 1.1714679 0.2945478857
-5.54582262 1.173743129 0.4922302365
-5.552583218 1.177200317 0.6917870045
-5.54859066 1.178376436 0.8917280436
-5.541728973 1.177931428 1.093016863
-6.930495262 1.475649714 1.625942945
-6.963220119 1.485158443 1.896160483
-5.534648895 1.194610834 -0.6900808215
-1.622555017 0.350512594 -0.141515553
-2.075491905 0.4498745501 -0.03636901826
-2.92291975 0.6276869178 0.05148280412
-5.50447464 1.184076905 0.292873174
-5.528057575 1.190159321 0.49101004
-5.530975819 1.192807794 0.6895933151
-5.563751698 1.201910019 0.894856751
-5.587475777 1.208054304 1.10293889
-6.892924309 1.492822409 1.618294597
-6.954217434 1.508636594 1.895125151
-3.13151741 0.6850715876 -0.6148493886
-5.486059666 1.203177214 -0.6844748259
-1.634943485 0.3591663539 -0.1427357197
-1.970211148 0.433539331 -0.1035216525
-2.062271357 0.4541742206 -0.03615958989
-2.908989191 0.635325253 0.05127337575
-5.494663715 1.201044559 0.2925591469
-5.533601284 1.211578131 0.4918816388
-5.559741974 1.219336748 0.6937369108
-5.577100754 1.224164009 0.8976725936
-5.625408173 1.236825705 1.111334443
-6.884129524 1.514832973 1.617394805
-6.943516731 1.530441999 1.893572211
-3.148393154 0.69971174 -0.618665576
-5.45297575 1.214887857 -0.6808187366
-1.639577031 0.3658879399 -0.143258661
-1.988254547 0.4444274008 -0.1045683846
-2.066608191 0.4623202384 -0.03626430407
-2.668695927 0.5921237469 0.04701498896
-5.545244217 1.23138082 0.2954899371
-5.558725834 1.236411929 0.4944962859
-5.598294735 1.247264028 0.6990991235
-5.600002766 1.248670459 0.9020527601
-5.65959692 1.264032364 1.118966818
-6.869558811 1.535527825 1.615145206
-6.906355381 1.54628408 1.88477242
-5.472151279 1.238221407 -0.6837435961
-1.638354778 0.3713226318 -0.143258661
-2.144533396 0.4868324101 -0.11304681
-2.084563494 0.4736011624 -0.0366133526
-2.797418833 0.6304250956 0.049353607
-5.587889671 1.2603091 0.2980020642
-5.589576721 1.262741446 0.4976339042
-5.636723042 1.275460243 0.7044613957
-5.643996239 1.278141499 0.9098744988
-5.689837456 1.29061079 1.125836015
-6.885333538 1.563045621 1.62009418
-6.914376259 1.572176576 1.888395905
-5.520251274 1.268363237 -0.6903245449
-1.656530857 0.3812220097 -0.1450017691
-2.164315939 0.4988760352 -0.1141982004
-2.100518703 0.4845563173 -0.03692749515
-2.881082535 0.6593263745 0.05088942125
-5.599255085 1.282399774 0.2988394499
-5.620313168 1.289288878 0.5007715225
-5.678894997 1.3048141 0.7103111148
-5.70710659 1.312344909 0.920824945
-5.719963074 1.317403436 1.132705092
-6.832638264 1.574927092 1.608846545
-6.897830009 1.592489481 1.885290027
-3.225149393 0.7517021894 -0.6354568005
-5.536602974 1.29452014 -0.693005681
-1.678402305 0.3927387595 -0.1470935196
-2.141082525 0.5017921925 -0.11304681
-2.110409498 0.4949921668 -0.03713692725
-2.47937727 0.5769688487 0.04373393208
-5.62953043 1.31106925 0.3007235527
-5.654356003 1.318930387 0.5042577386
-5.701136589 1.33194077 0.7137234807
-5.740728378 1.342247009 0.9270823002
-5.747592449 1.345967889 1.139192581
-6.633020878 1.555761218 1.562956572
-6.591030598 1.547124386 1.802467942
-3.222505808 0.762955606 -0.6354568005
-5.54966259 1.316998482 -0.6951993108
-1.682836175 0.3999768496 -0.147616446
-2.098602772 0.4991832972 -0.110848695
-2.102833271 0.5009651184 -0.03703221306
-2.469665766 0.5833489299 0.04359431565
-5.652130604 1.33714807 0.3021889627
-5.694308281 1.349226594 0.5082669258
-5.73145628 1.359083652 0.7181107998
-5.755227089 1.36684382 0.9302110076
-5.798488617 1.378185987 1.150259495
-6.536828995 1.556087136 1.541361332
-6.572434902 1.566985726 1.798844457
-5.602926254 1.350316763 -0.7025114894
-1.683366537 0.4063161314 -0.1477907598
-2.125968456 0.5135406852 -0.1124187708
-2.093297005 0.5064215064 -0.03689258918
-2.450113773 0.587767303 0.04328017309
-5.711513996 1.372267127 0.3056431413
-5.730483532 1.377882719 0.5119274855
-5.769135475 1.389306784 0.7234730124
-5.77346468 1.392481446 0.933965385
-5.839446068 1.409473777 1.159418344
-6.527569294 1.577978253 1.54046154
-6.531250954 1.581283092 1.789009333
-3.533073187 0.8645372391 -0.4414673448
-1.697419047 0.4159836769 -0.1491852403
-2.147348404 0.5270417333 -0.1136748269
-2.138123751 0.5251737833 -0.03773030639
-2.374217272 0.5783327222 0.04195378721
-5.749376774 1.402609944 0.3079459071
-5.760233402 1.407388806 0.515065074
-5.825955868 1.424524188 0.7312726378
-5.833804131 1.428601384 0.9446029663
-5.864748001 1.438349128 1.165524244
-6.50092411 1.596780896 1.535512567
-6.503179073 1.598536611 1.782797694
-3.551071644 0.8827486038 -0.4441484511
-1.699823618 0.4228682518 -0.1495338827
-2.062161207 0.5137720108 -0.1091739386
-2.248814821 0.5606922507 -0.0397547856
-2.368199348 0.5860700607 0.04188397899
-3.290066242 0.8148176074 0.1754312664
-5.786225796 1.435161591 0.5178540349
-5.836107731 1.449696302 0.7332225442
-5.870956421 1.459440589 0.9514860511
-5.895888329 1.467823744 1.172774911
-6.483965874 1.616633654 1.532813191
-6.505057335 1.623098135 1.78486824
-1.721518397 0.4346520305 -0.1516256034
-2.031399965 0.5132686496 -0.1076038629
-2.305001736 0.5832549334 -0.04080192745
-2.692084551 0.6757054925 0.04774798453
-3.312382936 0.8326277733 0.1767919958
-5.827551842 1.467022538 0.5220375061
-5.867842197 1.478255749 0.7378535867
-5.911795139 1.491521835 0.958994925
-5.93476963 1.498421311 1.181552172
-6.446451187 1.630005479 1.525164843
-6.495606422 1.644846916 1.783833027
-1.731648326 0.4433233142 -0.1526714712
-2.058616161 0.5277963281 -0.1091739386
-2.299078226 0.590302825 -0.04073211923
-2.670331478 0.6801621318 0.04739893973
-3.336550474 0.8510964513 0.1782574207
-5.884430408 1.502108932 0.5276154876
-5.918420315 1.512987614 0.7449220419
-5.937171459 1.519989014 0.9640008211
-5.986557484 1.533745885 1.193000674
-6.455822945 1.656372309 1.528764009
-6.493567467 1.66847086 1.78486824
-3.084325314 0.7982345819 -0.6110332012
-3.520658016 0.9137827754 -0.4414673448
-1.730090261 0.4493652582 -0.1526714712
-2.041297674 0.5309574008 -0.1083365604
-2.281522751 0.5942915678 -0.04045288265
-2.451099157 0.6334405541 0.04348960146
-3.294888258 0.8527290225 0.1761639714
-5.910011768 1.530632854 0.5304045081
-5.972670078 1.549085736 0.7524778843
-5.975803852 1.552126288 0.9711968303
-6.022970676 1.565497756 1.201396346
-6.444344521 1.677424788 1.527414322
-6.476487637 1.688205481 1.781762362
-3.104306936 0.8149784207 -0.6156126261
-3.63262701 0.9563911557 -0.4560916424
-1.740071177 0.4584469199 -0.1537173539
-2.056812525 0.5426653624 -0.1092786193
-2.275567532 0.6012309194 -0.04038307071
-2.464347363 0.6460500956 0.04376883805
-5.947026253 1.562392592 0.5342393517
-5.997942924 1.578006148 0.756377697
-6.025744915 1.587569714 0.9802699685
-6.059233665 1.597523808 1.209792018
-6.430913925 1.697918415 1.525614738
-6.509776115 1.721172452 1.792632818
-3.705982685 0.9895490408 -0.4658411741
-1.757708788 0.4696614146 -0.155460462
-2.049117804 0.5482924581 -0.1089645997
-2.354580402 0.6309080124 -0.04184907675
-2.452414751 0.6520785689 0.04359431565
-5.98389101 1.594426394 0.5380741954
-6.015413761 1.605076194 0.7593026161
-6.062151909 1.619812608 0.9871531129
-6.087758541 1.627794623 1.216661096
-6.632014275 1.775800943 1.575103879
-6.621283054 1.775404572 1.825244069
-2.140541553 0.5787647367 -0.344520241
-1.76759696 0.4789203703 -0.1565063298
-2.043336153 0.5543960333 -0.1087552533
-2.466335297 0.6696264744 -0.04390846193
-2.442400694 0.6585528851 0.04345469922
-6.016757965 1.625698686 0.5415604711
-6.053846836 1.637987494 0.7649086118
-6.081534386 1.646618009 0.9912204146
-6.146465302 1.666501284 1.229636073
-6.670910358 1.811196685 1.585901618
-6.624680042 1.799886227 1.827832222
-3.159788132 0.8656055927 -0.5122180581
-1.781284213 0.4893095493 -0.1579008251
-2.051115513 0.5638157725 -0.1092786193
-2.442774773 0.672393918 -0.04352450743
-2.445990324 0.6682295799 0.04355940968
-6.096243382 1.671174288 0.7710021138
-6.123372555 1.680909514 0.9990421534
-6.182553768 1.698315501 1.238031626
-6.683657646 1.838475347 1.590400696
-6.599731922 1.817867994 1.822655797
-2.079513073 0.5782636404 -0.2598819733
-1.783490658 0.4962825477 -0.1582494378
-2.04913497 0.5709721446 -0.1092786193
-2.426930189 0.677154243 -0.04328017309
-2.445569992 0.6772974133 0.04359431565
-2.542533636 0.705106914 0.1360746324
-3.356181145 0.9313821197 0.3010105491
-6.180265903 1.717424393 0.7824577689
-6.176462173 1.718691707 1.008741021
-6.44137001 1.793615699 1.291458249
-6.658427715 1.856562257 1.585901618
-6.597067356 1.841933489 1.82369113
-1.59665525 0.4487996101 -0.314134419
-6.011523724 1.694290757 -0.7617399693
-1.800923467 0.5079128742 -0.1599925607
-2.064428329 0.5830063224 -0.1102206558
-2.441869974 0.6905189753 -0.04359431565
-2.441265583 0.6852888465 0.04355940968
-3.455283403 0.9712364078 0.185898453
-3.358663559 0.9447094202 0.3015334904
-6.197162151 1.745445371 0.785382688
-6.212252617 1.752036214 1.015624166
-6.593783379 1.860881329 1.323514104
-6.651906967 1.879791737 1.585901618
-6.588738441 1.864426255 1.823173523
-3.966368437 1.127604127 -1.0933038
-3.205238104 0.9124315381 -0.7594313622
-1.562980652 0.4452264309 -0.3076469302
-1.57197237 0.4483814538 -0.2522238791
-1.818296432 0.5196712613 -0.1617356837
-2.052779436 0.5874619484 -0.1096972972
-2.404842615 0.6891232133 -0.04296602681
-2.419625044 0.6883347631 0.04321036115
-3.340016842 0.9520583153 0.3001389802
-6.223482609 1.77632761 0.7895262241
-6.498595715 1.85730648 1.063806057
-6.566484928 1.877947092 1.319316268
-6.626570225 1.897635102 1.581402659
-6.559906483 1.881022453 1.816961765
-3.947556973 1.137164354 -1.089162588
-3.175820112 0.9160524607 -0.7531327009
-1.561416864 0.4506795406 -0.3076469302
-1.587477088 0.4588017464 -0.2550396919
-6.077729225 1.758844018 -0.7717332244
-1.835609078 0.5315566063 -0.1634787917
-2.044961929 0.5929554105 -0.1093832925
-2.381298065 0.6913802624 -0.04258207232
-2.384542704 0.6873614788 0.04261698201
-3.490635395 1.007519484 0.1882012486
-3.32518816 0.9603952169 0.2990931273
-6.600540161 1.908891201 0.8385176659
-6.499662399 1.882175684 1.065057516
-6.565546513 1.902496457 1.320461154
-6.616162777 1.919668555 1.580502748
-6.566286564 1.907682419 1.820585251
-3.928728104 1.14660728 -1.085021496
-1.548528194 0.4528214931 -0.3053572178
-1.593449116 0.4665606618 -0.2562911808
-6.157274246 1.80518043 -0.7827014923
-1.852860451 0.5435695648 -0.1652218997
-2.04671216 0.6012158394 -0.1095926315
-2.382707119 0.7008169889 -0.04265188798
-2.393646002 0.69904387 0.04282641038
-6.58621645 1.929688931 0.8375427723
-6.468411922 1.897623658 1.060990214
-6.55509758 1.924298644 1.319697857
-6.590724945 1.937254667 1.57600379
-6.552175045 1.928409815 1.818514705
-1.533761263 0.4543206096 -0.3026858866
-1.593704462 0.472681731 -0.2566040456
-3.776051998 1.121384978 -0.4785155952
-1.854771376 0.5511695147 -0.1655705273
-2.059915781 0.6129128933 -0.1104300097
-2.41474247 0.7194071412 -0.04328017309
-2.385438681 0.7056932449 0.0427216962
-3.202009678 0.9484781027 0.1728144735
-3.303120613 0.9790556431 0.2976986468
-6.606083393 1.960574746 0.8409550786
-6.446599483 1.915691137 1.058487177
-6.544577122 1.946049452 1.318934679
-6.583922386 1.960250616 1.57600379
-6.530593395 1.946852803 1.814373612
-3.920627356 1.174007058 -1.085021496
-1.532166004 0.459671706 -0.3026858866
-1.569342494 0.4714227021 -0.2528496385
-3.749303341 1.127698064 -0.4755907655
-1.852836132 0.5576405525 -0.1655705273
-2.094097614 0.6310486794 -0.1124187708
-2.358612299 0.7116573453 -0.04230283946
-2.382960796 0.7140157223 0.0427216962
-2.596078157 0.7788605094 0.1398428231
-3.299683094 0.9905797839 0.2976986468
-6.561178207 1.972192287 0.8360803127
-6.436089993 1.937043905 1.057861567
-6.522705555 1.964352131 1.315881729
-6.519200802 1.965780616 1.56205678
-6.507112503 1.964613318 1.809714913
-3.751969814 1.137789965 -1.038951755
-1.613171339 0.489811331 -0.3792640567
-1.528673649 0.464446485 -0.3023042679
-1.560127974 0.4745979011 -0.2515981495
-3.781423807 1.15176928 -0.4802217782
-1.869936705 0.5699129701 -0.1673136503
-2.061316967 0.6290280819 -0.1107440144
-2.348463774 0.7175489068 -0.0421632193
-2.351750851 0.7136192918 0.04219812527
-2.543657303 0.7728220224 0.1371213496
-3.305736542 1.00498867 0.2985701859
-6.558051586 1.996239185 0.8365677595
-6.421731472 1.957193494 1.056610107
-6.504541874 1.9836725 1.313591957
-6.463840961 1.973726511 1.550359368
-6.489130497 1.983926773 1.806609035
-2.593758106 0.7964571118 -0.7154279351
-1.585374117 0.4874218404 -0.3729654253
-1.523290277 0.4686248899 -0.3015410304
-1.558461785 0.4800409079 -0.2515981495
-3.648389339 1.125179529 -0.4636475444
-1.890781522 0.583486855 -0.169405371
-2.338429689 0.7229702473 -0.04202359915
-2.377918005 0.7306345105 0.0427216962
-2.552535057 0.7847746015 0.1377493739
-3.330771208 1.025315166 0.3011848629
-6.524485588 2.010931969 0.8331553936
-6.422756195 1.980806708 1.057861567
-6.499454021 2.006945372 1.313973665
-6.434570789 1.989370584 1.544960499
-6.486206532 2.006576777 1.807644367
-2.474742174 0.769374609 -0.6828166842
-1.574445128 0.4897822142 -0.3707159162
-1.517896175 0.472772032 -0.3007777929
-1.55497539 0.4846186638 -0.2512852848
-3.868245602 1.207046509 -0.4924087226
-1.900143862 0.5936483741 -0.1704512537
-2.354975939 0.7371017933 -0.04237264767
-2.375482082 0.7385154963 0.0427216962
-3.167651176 0.9860062003 0.1716630906
-6.423874855 2.002044201 0.5849639773
-6.517780781 2.03255868 0.8331553936
-6.400717735 1.9985044 1.055358529
-6.483392715 2.025559902 1.312065482
-6.405619621 2.00371623 1.539561629
-6.481006622 2.02978158 1.808161974
-2.479548931 0.7798955441 -0.68488729
-1.567149758 0.4935187399 -0.3693662286
-1.501340389 0.4730823934 -0.2977248728
-1.549506545 0.4888549149 -0.2506595254
-3.864008665 1.220541954 -0.4924087226
-1.905763507 0.6023480296 -0.1711484939
-2.054730654 0.6502203345 -0.1107440144
-2.36395669 0.748529017 -0.04258207232
-2.386241674 0.7510058284 0.04296602681
-3.183414221 1.002504468 0.1727098078
-6.415300369 2.022736549 0.5847896934
-6.537148476 2.063662291 0.8365677595
-6.384637356 2.016744375 1.053794265
-6.463180065 2.044035196 1.30939424
-6.409733295 2.029593468 1.542261124
-6.463190079 2.04776144 1.805056095
-2.48601532 0.7914764285 -0.6874754429
-1.550650001 0.4939812422 -0.3657670021
-1.501550078 0.4789170921 -0.2981064916
-1.53470397 0.4897865653 -0.2484694868
-3.873176098 1.237578154 -0.4941148758
-1.901752114 0.6083891988 -0.170974195
-2.197129011 0.7033065557 -0.1186990887
-2.31562686 0.7421286106 -0.04174436256
-2.391360283 0.7613409162 0.04310565069
-3.288362026 1.048184991 0.1786760986
-6.39491415 2.040877819 0.5835695267
-6.488667011 2.072044373 0.8312055469
-6.356861591 2.032401562 1.050352693
-6.447017193 2.062464237 1.307486176
-6.3788414 2.043110847 1.536412358
-6.448644638 2.067950249 1.802985549
-2.508979559 0.8084448576 -0.6947223544
-1.532137632 0.4942761958 -0.3617178798
-1.503605843 0.4853618145 -0.2988696992
-1.521620512 0.4917630553 -0.2465922385
-1.924258471 0.6230025291 -0.1732402444
-2.211635828 0.7168968916 -0.1196411327
-2.301609039 0.7465059757 -0.04153493047
-2.333360195 0.7523055673 0.04209340736
-3.271377802 1.055364728 0.1779433936
-6.380167961 2.060737133 0.5828722715
-6.49613905 2.100700617 0.8331553936
-6.37416172 2.062483072 1.054419994
-6.422604084 2.080636024 1.304051638
-6.373525143 2.065963984 1.536862254
-6.439549446 2.089851618 1.802467942
-2.519142389 0.8209506869 -0.6983458996
-1.521227002 0.4963319898 -0.3594683707
-1.501988053 0.4903453588 -0.2988696992
-1.52185905 0.497420013 -0.2469051331
-1.948690534 0.6380594373 -0.1756805927
-2.264285326 0.7422696948 -0.1226766258
-2.306721687 0.756626904 -0.04167455062
-2.292829037 0.7476405501 0.04139531404
-3.252669573 1.061251283 0.1771060228
-6.371405125 2.081264734 0.582697928
-6.462722301 2.113592625 0.8297430873
-6.367287159 2.083609581 1.054419994
-6.424997807 2.104979277 1.305959582
-6.348120689 2.081017733 1.532363176
-6.412392616 2.104567766 1.796773911
-1.512170196 0.4989314675 -0.3576687574
-1.491032481 0.4922454059 -0.2969616055
-1.520201206 0.5024639964 -0.2469051331
-1.969260693 0.6520330906 -0.1777723283
-2.267498732 0.7516596913 -0.122990638
-2.311657667 0.7671943307 -0.04181417078
-2.375797033 0.7834202647 0.04296602681
-3.218600273 1.062579989 0.1754312664
-6.364468098 2.102381706 0.582697928
-6.440600395 2.130025864 0.8277931809
-6.335596561 2.097751141 1.050352693
-6.419845581 2.126891375 1.30634129
-6.346367359 2.105005026 1.533712864
-6.399507523 2.125110626 1.795220971
-1.512267947 0.5048239827 -0.3581186533
-1.481856465 0.4949595928 -0.2954351306
-1.52218473 0.5090203881 -0.2475308627
-1.972640276 0.6608017683 -0.1782952696
-2.202372313 0.7386132479 -0.1195364669
-2.331714153 0.7828963995 -0.04223302752
-2.409089327 0.8037329316 0.04362922162
-3.241392612 1.082667828 0.1768966764
