# .PCD v0.7 - Point Cloud Data file format
VERSION 0.7
FIELDS x y z
SIZE 4 4 4
TYPE F F F
COUNT 1 1 1
WIDTH 1256
HEIGHT 1
VIEWPOINT 0 0 0 1 0 0 0
POINTS 1256
DATA ascii
-1.162421465 0.9157212377 0.02512966841
-1.156220436 0.9111632705 0.07494622469
-4.574681282 3.60768199 0.5060008764
-4.857655525 3.83359313 0.7546715736
-4.884705544 3.856322289 0.9790185094
-4.864581108 3.843194008 1.196816921
-4.919516087 3.889384031 1.437883854
-4.881331444 3.860579729 1.655976415
-1.42199111 1.127864599 -0.4747261703
-3.578488827 2.839327097 -1.04466939
-1.2512182 0.9934821725 -0.3023042679
-1.293936729 1.027769446 -0.2550396919
-4.263055801 3.388558149 -0.6635132432
-4.528343678 3.602008104 -0.5025146604
-4.521427631 3.597793579 -0.3006188869
-4.370736122 3.480379105 -0.09682415426
-4.521548748 3.58630538 0.1000353992
-4.344351768 3.448232651 0.288476944
-4.558940411 3.621150494 0.5056522489
-4.830927849 3.838566303 0.7524778843
-4.889768124 3.888103008 0.9827729464
-4.83951807 3.849527359 1.193763971
-4.900492668 3.900820494 1.436084151
-4.869337559 3.878798008 1.656494021
-1.421262264 1.134984851 -0.4757614732
-3.532019854 2.822602034 -1.033871651
-1.254050732 1.002529621 -0.3038307428
-1.299596667 1.039683819 -0.2569169402
-4.28064537 3.426990271 -0.6681442857
-4.524149895 3.623232126 -0.5033861995
-4.50572443 3.611056566 -0.3004095256
-4.377281666 3.51062727 -0.09724301845
-4.52306366 3.613299847 0.1003495455
-4.327609062 3.459633827 0.2881629169
-4.554687023 3.642470598 0.506523788
-4.826799393 3.862847328 0.7539403439
-4.888500214 3.91502738 0.9852758646
-4.838309765 3.876216173 1.196816921
-4.885325432 3.916685104 1.435634255
-4.851247787 3.892144442 1.654941082
-1.430839896 1.150835991 -0.480420202
-3.528217554 2.839802504 -1.035671353
-1.241368413 0.9995135069 -0.3015410304
-1.299035668 1.046692967 -0.2575426698
-4.311925411 3.476800442 -0.6749690175
-4.508374214 3.636499643 -0.5030375719
-4.38988924 3.545989752 -0.09780148417
-4.515098095 3.63282609 0.1004542559
-4.307727814 3.468456268 0.2876395583
-4.543497086 3.659596205 0.5066981316
-4.7947402 3.864723682 0.7510154843
-4.867117882 3.925866127 0.9837116003
-4.821693897 3.89061594 1.196053743
-4.841301441 3.909228086 1.426636219
-4.742967129 3.832562923 1.62232995
-1.438823104 1.165551424 -0.4845612943
-3.512227535 2.847192287 -1.033871651
-1.237872124 1.003840327 -0.3015410304
-1.298441648 1.05371058 -0.2581683993
-4.35986042 3.540635824 -0.6844748259
-4.17245388 3.389652014 -0.466606468
-4.358870506 3.546148777 -0.09738263488
-4.507050037 3.652341127 0.1005589664
-4.283185005 3.473407269 0.2868021727
-4.527600288 3.672923326 0.506349504
-4.793549538 3.891446114 0.7529653907
-4.82885313 3.922902822 0.9787056446
-4.762376785 3.87027812 1.184605122
-4.66283083 3.79208231 1.377596974
-4.666629791 3.797878981 1.600589037
-2.913648129 2.377159595 -0.9959877729
-3.481134653 2.842180729 -1.027572989
-1.248045444 1.01933229 -0.3049755991
-1.287108183 1.051986217 -0.2566040456
-4.396645069 3.596050024 -0.6922744513
-4.168306351 3.410504103 -0.4674780071
-4.390396118 3.594776869 -0.2951759398
-4.35265255 3.566411972 -0.09752225131
-4.489624977 3.664259911 0.1004542559
-4.275675297 3.492127657 0.2871161997
-4.508579254 3.683663845 0.5056522489
-4.759958744 3.891819 0.7497968078
-4.801370144 3.928476572 0.975889802
-4.64704895 3.803563118 1.159036756
-4.652580261 3.810805082 1.378496647
-4.648861885 3.810471773 1.599036217
-2.920258522 2.399580479 -1.001164079
-3.486244917 2.866691113 -1.032072067
-1.25054431 1.028671741 -0.306502074
-1.283428311 1.056472301 -0.2566040456
-4.428499222 3.647977591 -0.6993428469
-4.154839039 3.423765659 -0.4673036933
-4.33159399 3.571960211 -0.2920357883
-4.357142925 3.595584393 -0.09790620208
-4.472172737 3.676100016 0.1003495455
-4.285052776 3.524795294 0.2885816097
-4.495693684 3.699379444 0.5056522489
-4.755538464 3.915983438 0.7512592077
-4.711405277 3.882400274 0.9602463841
-4.624652863 3.812269926 1.156746984
-4.645263672 3.831982374 1.38029635
-4.631062508 3.822986364 1.597483277
-2.911864042 2.409760237 -1.001164079
-3.455204725 2.861441612 -1.025773406
-1.257528663 1.041797996 -0.3091734052
-4.441340446 3.682035685 -0.9070586562
-4.412683964 3.660877943 -0.6988554597
-4.147461414 3.442066431 -0.4678266346
-4.283760548 3.557708502 -0.2896283269
-4.346103668 3.612050295 -0.0979411155
-4.465475559 3.696787834 0.1004891619
-4.274260998 3.541005611 0.2886862755
-4.493492126 3.723948479 0.5068724155
-4.682248116 3.88313818 0.7417533994
-4.615739822 3.830700636 0.9433515072
-4.605275154 3.823373556 1.155220509
-4.61686945 3.83572197 1.375797391
-4.614719868 3.836658001 1.596448064
-2.900467157 2.417435408 -1.000128865
-3.433222532 2.863500834 -1.022174239
-4.068309784 3.39440155 -1.021654248
-4.431492329 3.700049877 -0.9076843858
-4.415111542 3.688987017 -0.7012928128
-4.136949539 3.457800388 -0.4680009484
-4.295827866 3.593142509 -0.2913030684
-4.315067768 3.611795902 -0.09752225131
-4.457151413 3.71619463 0.1005938798
-4.260341167 3.554623604 0.2885816097
-4.483524799 3.742164373 0.5072211027
-4.595534801 3.838375807 0.7300539017
-4.599308491 3.844255447 0.942725718
-4.593408108 3.840684175 1.155602217
-4.592989922 3.843060732 1.372647882
-4.604260445 3.855224133 1.597483277
-2.886092424 2.422577381 -0.9980583191
-3.423206806 2.875466585 -1.022174239
-4.05343008 3.406055927 -1.020890951
-4.42459774 3.720580578 -0.9089358449
-4.406763077 3.708211422 -0.702023983
-4.12333107 3.47093606 -0.4678266346
-4.296318531 3.621680975 -0.09738263488
-4.442621231 3.730444431 0.1005589664
-4.257081985 3.577183008 0.2892096341
-4.464334011 3.752664089 0.506523788
-4.565397739 3.840337515 0.7273728251
-4.561682701 3.839931488 0.9377198219
-4.594991207 3.869340658 1.159418344
-4.591469288 3.869114876 1.376247168
-4.58339119 3.865045786 1.594895124
-2.880568981 2.435131311 -0.9990936518
-3.425050735 2.897467136 -1.025773406
-4.044513226 3.422721148 -1.021654248
-4.402539253 3.72834301 -0.9070586562
-4.399850845 3.728704214 -0.7029989958
-4.111189842 3.485308409 -0.4678266346
-4.301941872 3.652186871 -0.09780148417
-4.42651844 3.743347168 0.1004891619
-4.241519928 3.589440584 0.2890002728
-4.445124626 3.763075352 0.5058265924
-4.554994583 3.858816862 0.7278603315
-4.579421043 3.88637948 1.376697063
-4.566927433 3.878519535 1.593859792
-2.87793541 2.450180054 -1.001164079
-3.403048754 2.89929533 -1.022174239
-4.038517475 3.441911936 -1.023180723
-4.386491776 3.741124392 -0.9064329267
-4.395867825 3.751771927 -0.7044613957
-4.091422558 3.493169308 -0.4669550657
-4.302001953 3.675554752 -0.2943385541
-4.270929337 3.651586771 -0.09738263488
-4.408857346 3.75488615 0.100384444
-4.225924969 3.601633787 0.288790971
-4.425897121 3.773398161 0.5051293373
-4.577678204 3.912470102 1.38029635
-4.570978642 3.909505606 1.60007143
-2.85763216 2.450152397 -0.9970231056
-3.404739857 2.921307325 -1.025773406
-4.024988651 3.454709768 -1.022799134
-4.380899429 3.7628479 -0.9079972506
-4.375217438 3.76062417 -0.7032427192
-4.08675766 3.513924837 -0.4678266346
-4.240698814 3.648863792 -0.2909890711
-4.271795273 3.678215981 -0.09769678116
-4.398759365 3.772857189 0.1004542559
-4.211811066 3.615062237 0.2886862755
-4.561039448 3.925883055 1.379396558
-4.558767319 3.926697969 1.600589037
-2.857834816 2.467687845 -1.000128865
-3.373878002 2.915337324 -1.019474864
-4.012905121 3.468738794 -1.022799134
-4.364748955 3.775533676 -0.9073715806
-4.356060982 3.770676136 -0.702267766
-4.077478886 3.530777216 -0.4681752324
-4.306426048 3.731656551 -0.2964319885
-3.505615711 3.030240059 0.240641892
-3.498206139 3.024900436 0.4008910358
-3.608644485 3.124803305 0.7493727207
-3.58931756 3.109164238 0.9148011804
-4.537000179 3.932845116 1.376247168
-4.574217796 3.96790576 1.610941887
-2.843373299 2.472577333 -0.9980583191
-3.372501135 2.934772491 -1.022174239
-3.996330738 3.478857279 -1.021654248
-4.356011391 3.794639111 -0.9083101153
-4.345029354 3.786404133 -0.7025114894
-4.045608521 3.527965784 -0.4659092426
-3.426589489 2.990257978 -0.2361409962
-3.455779314 3.016793251 -0.07937175035
-3.451987505 3.002882004 0.07916232198
-3.575789213 3.116062641 0.5772297978
-3.628042698 3.162714005 0.7556300759
-3.646497488 3.181040764 0.9323556423
-4.677445412 4.084707737 1.65235281
-2.832251072 2.479447842 -0.9970231056
-3.368613482 2.951076508 -1.023973823
-3.984772444 3.492090702 -1.021654248
-4.341918945 3.807761192 -0.9079972506
-3.446957111 3.026094675 -0.3975791037
-3.440662861 3.022694826 -0.2378157526
-3.691983938 3.242344379 0.9468570352
-4.664539337 4.097896099 1.423486948
-4.652266502 4.089992046 1.648211837
-2.826912165 2.49138093 -0.9980583191
-3.33250165 2.939028502 -1.015875578
-3.469699144 3.065413713 -0.5633366704
-3.556291342 3.145233393 -0.2466081828
-3.551994324 3.13150382 0.08195470273
-6.289246559 5.564256191 1.928727031
-4.652425766 4.119012833 1.653388143
-2.806639194 2.490974665 -0.9939172268
-3.304737806 2.935114622 -1.010476828
-3.47985816 3.097172499 -0.4038543105
-3.545289993 3.157629013 -0.2466081828
-4.667827129 4.158880711 1.433384776
-4.649553776 4.145514011 1.657529235
-2.80945015 2.511055946 -0.9980583191
-3.30028224 2.951828957 -1.012276411
-3.468039274 3.105143785 -0.7306005955
-3.477782965 3.116055727 -0.5682114363
-3.617391348 3.242281675 -0.4212854803
-4.632974625 4.156929016 1.427086115
-4.644408226 4.168651104 1.660635114
-2.789180994 2.510507584 -0.9939172268
-3.293371201 2.965364933 -1.013176084
-3.434513807 3.094619989 -0.8903775811
-3.510545731 3.164239168 -0.7418638468
-3.532289505 3.186071873 -0.5789359808
-3.606051683 3.254889011 -0.4212854803
-4.639410496 4.19055748 1.433384776
-4.626961231 4.182248592 1.6595999
-2.777977467 2.517148733 -0.9928820133
-3.285887718 2.979461193 -1.014075994
-3.490570307 3.167276859 -0.9079320431
-3.540433407 3.213648558 -0.7506241798
-3.574044466 3.246433258 -0.5877105594
-4.630520344 4.21197176 1.43518436
-4.609477997 4.195772171 1.658564568
-2.768732309 2.527314186 -0.9928820133
-3.26919055 2.986226559 -1.012276411
-3.50212431 3.201241732 -0.9140379429
-3.581111908 3.274591923 -0.7618874311
-4.562826157 4.179592609 1.194527268
-4.632292747 4.244713783 1.44058311
-4.588373184 4.207416534 1.656494021
-2.750919104 2.529598713 -0.9897761345
-3.263959408 3.003466845 -1.014075994
-3.557373047 3.274610519 -0.9315923452
-4.535220623 4.183515549 1.19109261
-4.610287189 4.25425005 1.43833375
-4.585012436 4.233891487 1.660635114
-2.753856659 2.549206018 -0.9939172268
-3.245403767 3.006328344 -1.0113765
-3.53209424 3.273045063 -0.9277761579
-3.756895781 3.482579708 0.4444688857
-3.713038445 3.444333553 0.6167154312
-4.576165199 4.250946999 1.432035089
-4.590757847 4.267486572 1.667882085
-2.736907959 2.550421953 -0.990811348
-3.232566118 3.014415979 -1.010476828
-3.544190645 3.306167126 -0.9338820577
-3.735803366 3.482473612 0.08844700456
-4.226027489 3.943592072 0.5019916892
-3.756729126 3.508111954 0.6259775758
-4.578375816 4.282870293 1.437433839
-4.558907986 4.267643929 1.661670446
-2.733623743 2.565248013 -0.9928820133
-3.216341734 3.020345449 -1.008677125
-3.857446432 3.623649597 -1.020509362
-3.679550886 3.458954811 -0.793174386
-3.712219238 3.495773315 -0.2650304437
-3.86826086 3.645262957 -0.09207710624
-3.816933155 3.58308506 0.09068090469
-4.265286922 4.006771564 0.3044917285
-3.68637085 3.469003439 0.7950515747
-4.560562611 4.296152115 1.436534166
-4.541171551 4.280880451 1.660635114
-2.716228485 2.566812992 -0.9897761345
-3.205779076 3.031554222 -1.008677125
-3.861889124 3.65328145 -1.025088787
-3.683972359 3.489853621 -0.6179341674
-3.699576616 3.505860806 -0.4422028363
-3.801441431 3.604911089 -0.2723574638
-3.858412981 3.661497593 -0.09214691073
-4.222915173 3.992016077 0.1007334962
-3.657161713 3.46082449 0.4367991984
-3.662959814 3.468737364 0.6142780781
-3.298573971 3.125855446 0.7130799294
-3.286714077 3.115706921 0.8720598817
-4.573814392 4.338869095 1.445532203
-4.520597935 4.291385174 1.658564568
-2.710050344 2.578942537 -0.990811348
-3.178243637 3.02659893 -1.003278375
-3.849112272 3.666740894 -1.025088787
-3.655314207 3.484557867 -0.793174386
-3.644477129 3.476657629 -0.6133031249
-3.870373249 3.693442345 -0.4643404186
-3.352971315 3.191875458 0.08010474592
-3.638517141 3.466123819 0.2611575425
-3.642174244 3.470820427 0.4364505708
-3.248584509 3.097912073 0.5460312366
-3.287179708 3.138005257 0.8751128912
-4.547366142 4.344040871 1.441932917
-4.508382797 4.309809208 1.6595999
-2.703821182 2.591060162 -0.9918466806
-3.176098585 3.045767546 -1.00597775
-3.642193079 3.493958235 -0.9728071094
-3.636539459 3.497075558 -0.2622042596
-3.641120434 3.503927708 -0.08750457317
-3.295616388 3.159277201 0.07898779213
-3.292014122 3.158031464 0.2368737012
-3.253399134 3.12207818 0.3907809556
-3.277840853 3.147732019 0.5528559089
-3.245336056 3.118695498 0.706196785
-3.270544529 3.144018173 0.8735864162
-4.526558399 4.354482651 1.440133333
-4.518362999 4.349636555 1.668917298
-2.683639765 2.589750051 -0.9877055883
-3.140213966 3.032469511 -0.9978795052
-3.484537601 3.366154432 -0.9335004091
-3.647225857 3.528239489 -0.6179341674
-3.611117601 3.494531155 -0.4359276295
-3.295747757 3.191571474 -0.2382344306
-3.218161583 3.118614912 -0.07752179354
-3.244284868 3.131874323 0.07801046222
-3.233567476 3.123710632 0.2334195226
-3.235318422 3.126492739 0.3899094164
-3.241147518 3.134315729 0.5484686494
-3.214556456 3.110773325 0.7018166184
-3.273655653 3.169070959 0.8774026036
-4.519729137 4.37839222 1.442832708
-4.480958939 4.343867302 1.660635114
-2.671358824 2.596876144 -0.9866702557
-3.145841122 3.060264111 -1.003278375
-3.476397514 3.383011103 -0.9346452355
-3.586874247 3.492956877 -0.7862912416
-3.589385033 3.496623993 -0.610134542
-3.197392941 3.116936445 -0.3869461119
-3.222552299 3.143659115 -0.2337335348
-3.207256556 3.12982893 -0.07752179354
-3.224181414 3.135379791 0.07780103385
-3.228370905 3.140548706 0.2338382006
-3.206705332 3.121653318 0.387817651
-3.243856907 3.160025597 0.5509060025
-3.229143143 3.146790504 0.7074482441
-3.259207249 3.17830658 0.8766393661
-4.48488903 4.375091553 1.436534166
-4.474063396 4.367579937 1.663740873
-2.665494442 2.608422279 -0.9877055883
-3.124536753 3.059771538 -0.9996790886
-3.406257629 3.336817741 -0.9186173677
-3.56398654 3.493769646 -0.7837882638
-3.210683107 3.148527384 -0.5470061898
-3.192727089 3.133104563 -0.3876433671
-3.195009232 3.137535334 -0.2324774712
-3.205419064 3.148855209 -0.07773122936
-3.213766336 3.146054506 0.07780103385
-3.217938423 3.151237249 0.2338382006
-3.210565805 3.146214724 0.3895607591
-3.222021341 3.159646034 0.5489560962
-3.210229397 3.149181604 0.7055709958
-3.240243196 3.180845022 0.8743495941
-4.473136425 4.392670631 1.437433839
-4.459555149 4.382392406 1.663740873
-2.654077291 2.61453557 -0.9866702557
-3.112985373 3.068748474 -0.9992291927
-3.20506072 3.160618544 -0.866717279
-3.198060036 3.155917168 -0.7049453259
-3.186960697 3.147162199 -0.5448125005
-3.19224143 3.153476 -0.3888635337
-3.187428236 3.150921822 -0.2326868176
-3.202936649 3.168463945 -0.07794065028
-3.197618961 3.15108037 0.07766140997
-3.206918955 3.16245079 0.2338382006
-3.200114727 3.156844139 0.3895607591
-3.203050613 3.16194582 0.5474936962
-3.207649469 3.16869688 0.7074482441
-3.243642569 3.205371618 0.8781657815
-4.448077202 4.398665428 1.434284568
-4.457962036 4.411520958 1.668917298
-2.653164387 2.631946802 -0.9897761345
-3.098105192 3.075477123 -0.9978795052
-3.181470871 3.159336329 -0.8632826805
-3.187024355 3.167061567 -0.7049453259
-3.178771496 3.161066294 -0.5453000069
-3.181214094 3.164599895 -0.3888635337
-3.182072639 3.167664289 -0.2331055105
-3.180523396 3.168334723 -0.07766140997
-3.192277908 3.167856216 0.07780103385
-3.193025827 3.170810938 0.2336288542
-3.200384378 3.179228306 0.3909552991
-3.200439692 3.181504488 0.5489560962
-3.182564735 3.165943384 0.7043195367
-3.229650021 3.21390605 0.8774026036
-4.4230299 4.404540062 1.431135297
-4.43706274 4.421599865 1.666846752
-2.641227007 2.638462067 -0.9887408614
-3.098376513 3.097295046 -1.001478791
-3.169034958 3.169034481 -0.8629010916
-3.181534767 3.183756113 -0.706196785
-3.167717695 3.172143221 -0.5453000069
-3.168740511 3.174275398 -0.3886892498
-3.176637888 3.184408426 -0.2335241884
-3.166621447 3.176584005 -0.07759159803
-3.18261528 3.180393934 0.07783593237
-3.179113626 3.17911315 0.2334195226
-3.192084551 3.193198681 0.3913038969
-3.187912464 3.191251993 0.5487123728
-3.179867506 3.185421467 0.706196785
-3.229506493 3.236276388 0.8804554939
-4.415883541 4.428233147 1.433834672
-4.427056313 4.442534924 1.668917298
-2.610209227 2.625744581 -0.9804586172
-3.082052231 3.102561235 -0.9996790886
-3.169020891 3.191222191 -0.8659541011
-3.162053585 3.186429739 -0.7043195367
-3.162216425 3.188819408 -0.54627496
-3.149224997 3.176827192 -0.3876433671
-3.165503025 3.195477724 -0.2335241884
-3.163954735 3.196145296 -0.07780103385
-3.168675184 3.18864727 0.07776612788
-3.173626423 3.195859909 0.2338382006
-3.169689417 3.193009615 0.3899094164
-3.196325541 3.222090721 0.5521246791
-3.154821873 3.182472944 0.7030680776
-3.215426683 3.244741678 0.8796923161
-4.394915104 4.438080788 1.432035089
-4.408804417 4.455215454 1.667882085
-2.605098963 2.638964415 -0.9820115566
-3.065729141 3.107751608 -0.9978795052
-3.157862186 3.202264786 -0.8659541011
-3.153684378 3.200261831 -0.7049453259
-3.153851986 3.202667236 -0.5467624664
-3.154329777 3.2053895 -0.3897351027
-3.152928591 3.205084324 -0.2334195226
-3.152778625 3.207170248 -0.07780103385
-3.157526016 3.199687719 0.07776612788
-3.170865536 3.215451241 0.2344662398
-3.16411972 3.209729433 0.3906066418
-3.173914433 3.221915245 0.5501747727
-3.163094521 3.213174343 0.7074482441
-3.195818186 3.247549295 0.8774026036
-4.367099285 4.440889359 1.427985907
-4.39322567 4.470577717 1.667882085
-2.604874372 2.658153534 -0.9856349826
-3.049407721 3.112865925 -0.9960799217
-3.148850679 3.216623068 -0.866717279
-3.1391716 3.208974361 -0.7043195367
-3.13710165 3.207979679 -0.5457874537
-3.143122196 3.216380119 -0.3897351027
-3.132787704 3.208045244 -0.2327914834
-3.147150993 3.223880529 -0.07794065028
-3.160333157 3.224973679 0.07811518013
-3.15123868 3.217937469 0.2338382006
-3.155120611 3.224153519 0.3909552991
-3.152931929 3.223040819 0.5484686494
-3.157382488 3.229846239 0.7086997032
-3.17291832 3.248005629 0.8743495941
-4.346708298 4.452683449 1.426636219
-4.391085625 4.49971199 1.67305851
-2.590190649 2.661691904 -0.983564496
-3.048847437 3.135197401 -0.9996790886
-3.12665534 3.216333389 -0.8636643291
-3.144467354 3.236916065 -0.7080740333
-3.128088713 3.222304106 -0.54627496
-3.142975092 3.2387712 -0.3911295831
-3.125742435 3.223261833 -0.2331055105
-3.131703615 3.230538368 -0.07783593237
-3.14291501 3.230800629 0.07797555625
-3.14137888 3.230349541 0.2339428663
-3.143847704 3.235146761 0.3909552991
-3.153543711 3.247393131 0.5506622791
-3.146090031 3.240847349 0.7086997032
-3.158827305 3.256243467 0.8735864162
-4.32978344 4.466429234 1.426186323
-4.375351906 4.515012264 1.67305851
-2.570144415 2.659603357 -0.9794233441
-3.023540735 3.129873514 -0.9947302341
-3.120863914 3.232877254 -0.865190804
-3.130973101 3.244481802 -0.7074482441
-3.120142221 3.23551774 -0.5467624664
-3.11782527 3.23537612 -0.3893864751
-3.123350143 3.242239952 -0.2337335348
-3.11763382 3.238569498 -0.07776612788
-3.141911268 3.251271486 0.07821989059
-3.134245157 3.245606184 0.2342568934
-3.140836954 3.254703522 0.392001152
-3.140000582 3.25497508 0.5501747727
-3.112822533 3.229055166 0.7036938667
-3.183432102 3.303456306 0.8835085034
-4.323059082 4.489185333 1.428885818
-4.347510338 4.517728806 1.668399692
-2.55060792 2.656962395 -0.9752822518
-3.011246681 3.139003038 -0.9942803383
-3.101972818 3.23470664 -0.8629010916
-3.108693838 3.243982553 -0.7049453259
-3.119812489 3.257858992 -0.5487123728
-3.101568222 3.239940882 -0.3886892498
-3.11339426 3.254566193 -0.2338382006
-3.106310844 3.24943161 -0.07776612788
-3.130542994 3.262219191 0.07821989059
-3.127044201 3.260850906 0.2345709056
-3.110723734 3.244965076 0.3895607591
-3.139605999 3.277383089 0.5521246791
-3.109726906 3.248463631 0.7055709958
-3.147449255 3.289016247 0.8766393661
-4.304668427 4.501430988 1.427985907
-4.338386536 4.539860249 1.670987844
-2.535985947 2.660256624 -0.9732117057
-3.000272036 3.14949441 -0.9942803383
-3.102847815 3.258310556 -0.86633569
-3.091905355 3.249089718 -0.7036938667
-3.10842061 3.268730164 -0.5487123728
-3.114949465 3.276739359 -0.3918268085
-3.097887039 3.261070967 -0.2335241884
-3.10596323 3.271857023 -0.07804536074
-3.116377115 3.270231247 0.07815007865
-3.121151924 3.277531624 0.2349895835
-3.119983912 3.277450085 0.3921754658
-3.11720109 3.276816368 0.5501747727
-3.133755922 3.296522379 0.7137055993
-3.14947319 3.31421423 0.8804554939
-4.295638561 4.523495674 1.430235386
-4.322511673 4.554977417 1.670987844
-2.5505898 2.694345713 -0.982529223
-2.989259958 3.159948111 -0.9942803383
-3.111689091 3.290518284 -0.8720598817
-3.094112635 3.274220228 -0.7068225741
-3.094266653 3.276673555 -0.548224926
-3.10075736 3.284695387 -0.3914782107
-3.086484671 3.271864414 -0.2335241884
-3.10881567 3.296687603 -0.07839441299
-3.106317282 3.28254199 0.07818498462
-3.108893633 3.286413193 0.2348849177
-3.112630367 3.292664766 0.3926984072
-3.103017569 3.284791708 0.5496872663
-3.111956835 3.29540658 0.7112026811
-3.119021177 3.305197716 0.8751128912
-4.275812626 4.534208775 1.428885818
-4.31400919 4.576314926 1.673576117
-2.538523436 2.700416565 -0.9814938903
-2.981433392 3.172683716 -0.9951800108
-3.078681946 3.278461456 -0.8659541011
-3.091349363 3.293103933 -0.7086997032
-3.07930851 3.282574177 -0.5474936962
-3.085184574 3.291137934 -0.3909552991
-3.081080675 3.287911415 -0.2339428663
-3.086354256 3.295842409 -0.07811518013
-3.107742548 3.305937529 0.07849912345
-3.093300581 3.292878151 0.2345709056
-3.098390579 3.300604582 0.3923497498
-3.108408213 3.312434196 0.5526121855
-3.116649389 3.323540449 0.7149570584
-3.110729218 3.318387747 0.8758761287
-4.260753155 4.548362732 1.428885818
-4.172586918 4.457364559 1.624400496
-2.509776831 2.687640667 -0.9737293124
-2.965022326 3.177372694 -0.9933804274
-3.079845428 3.3015728 -0.8693885803
-3.089264154 3.313989162 -0.7108898759
-3.078656435 3.304922342 -0.549443543
-3.072895765 3.299892426 -0.3907809556
-3.065297604 3.296345949 -0.07787084579
-3.087995768 3.307995558 0.07828969508
-3.079063177 3.300734282 0.2343615443
-3.084710598 3.307947159 0.392001152
-3.083294153 3.308740854 0.5501747727
-3.086182356 3.314160585 0.7105769515
-3.112504721 3.343595505 0.8796923161
-4.250159264 4.568915367 1.430685401
-4.275379658 4.599245548 1.670987844
-2.504320621 2.700634718 -0.9752822518
-2.940668344 3.173408747 -0.9888814688
-3.053625584 3.296461582 -0.865190804
-3.065600872 3.311705351 -0.7080740333
-3.067101479 3.315648794 -0.549443543
-3.069475174 3.319375277 -0.3918268085
-2.519924879 2.726993799 -0.1923881173
-3.083809376 3.329045534 0.2356176227
-3.078559875 3.324541807 0.3926984072
-3.091948509 3.341339111 0.5538309216
-3.074595451 3.32491231 0.7105769515
-3.095482349 3.348673582 0.8781657815
-4.232862473 4.58229208 1.430235386
-4.268471718 4.624078274 1.67461133
-2.494877577 2.709360838 -0.9752822518
-2.948046684 3.203730345 -0.9951800108
-3.058049679 3.324439526 -0.8697702289
-3.046001196 3.313660383 -0.706196785
-3.060881376 3.332181692 -0.5504184961
-3.063259125 3.335940599 -0.3925240636
-2.534696817 2.762262106 -0.1942722201
-2.559729099 2.791496754 -0.06540982425
-3.074874163 3.342729568 0.2358269691
-3.068285227 3.33673358 0.3928726912
-3.074893236 3.346264839 0.5528559089
-3.062969923 3.33562541 0.7105769515
-3.089085102 3.36524415 0.8796923161
-4.220793247 4.601347446 1.431585073
-4.256220341 4.643221855 1.67616415
-2.476279974 2.708072662 -0.9716587663
-2.918441296 3.193861961 -0.9888814688
-3.047751188 3.336542606 -0.8701518178
-3.054391146 3.346158028 -0.7108898759
-3.041203976 3.334046125 -0.5489560962
-3.052938461 3.348085403 -0.3926984072
-2.475266933 2.716469288 -0.1903993487
-2.477267027 2.720572233 -0.06352496147
-3.059146881 3.349018097 0.235512957
-3.070053577 3.362136602 0.3946157992
-3.063193798 3.35697794 0.5528559089
-3.069941282 3.366732121 0.7149570584
-3.072028875 3.370202303 0.8781657815
-4.19683218 4.607409477 1.428885818
-4.245188236 4.66376543 1.678234816
-2.474603891 2.725281477 -0.9747645855
-2.912513494 3.209801674 -0.9906810522
-3.036085844 3.347161055 -0.8701518178
-3.045345306 3.359726429 -0.7115155458
-3.034877539 3.350527525 -0.5499310493
-2.479169607 2.739903688 -0.1914460808
-3.039386511 3.350800037 0.2348849177
-3.055622101 3.369880676 0.3942671716
-3.056789875 3.373533964 0.5538309216
-3.026349068 3.342284679 0.7074482441
-3.054976702 3.375082493 0.8766393661
-4.178108692 4.619140625 1.427985907
-4.234064579 4.684288025 1.680305362
-2.457313776 2.72529459 -0.9716587663
-2.893464565 3.211262465 -0.9879816175
-3.015186071 3.347527266 -0.8674805164
-3.029635191 3.365931034 -0.7105769515
-3.041038513 3.376229286 0.2359316349
-3.04117322 3.377565861 0.3939185739
-3.052961826 3.393037319 0.555293262
-3.059571028 3.402771235 0.7180858254
-3.087798119 3.435370207 0.8896143436
-4.174982548 4.648193836 1.432484984
-4.216396809 4.697601795 1.679787755
-2.450363636 2.736733437 -0.9726940393
-2.890033722 3.230056763 -0.9906810522
-3.020496607 3.37705636 -0.8724415898
-3.019183874 3.377959013 -0.7108898759
-2.208744764 2.472950697 -0.4019816518
-2.176421642 2.437617064 -0.2821849287
-2.195375681 2.46057415 -0.1706163585
-3.024498701 3.380341768 0.235512957
-3.029365778 3.388160467 0.3939185739
-3.046388865 3.409595966 0.5562682748
-3.043006182 3.407004833 0.7168343067
-3.036568165 3.402187824 0.8781657815
-4.161325932 4.665647984 1.433384776
-4.196938992 4.707232475 1.678234816
-2.436944246 2.740939379 -0.9711410999
-2.850826025 3.207578182 -0.9807832837
-3.012601852 3.391982079 -0.8735864162
-3.001407862 3.380566597 -0.7093254924
-2.129390478 2.400076389 -0.3888197541
-2.10048914 2.369167805 -0.2732950151
-2.381027699 2.678047657 0.06184953451
-3.015334368 3.393863916 0.2357222885
-3.017520189 3.398714304 0.3939185739
-3.029796124 3.413738966 0.555293262
-3.046823978 3.435340881 0.7205887437
-3.056527615 3.447495461 0.8873246908
-4.148415565 4.682338715 1.434284568
-4.184324741 4.726191998 1.679787755
-2.426563263 2.747557402 -0.9706235528
-2.682294607 3.039255142 -0.9258950949
-2.992245436 3.391648531 -0.8709151149
-2.993508339 3.395468235 -0.7102640867
-2.082944393 2.364299536 -0.3817513585
-2.109740019 2.395557404 -0.2755610943
-2.390193462 2.707329988 0.06233820319
-3.006706476 3.406839848 0.2359316349
-3.004915237 3.407207966 0.3937442899
-3.009985447 3.415359497 0.5538309216
-3.03019166 3.439496994 0.7193372846
-3.01853013 3.428672075 0.8796923161
-4.132045746 4.696790695 1.434284568
-4.169904709 4.741492748 1.680305362
-2.422051907 2.761821032 -0.9726940393
-2.561722517 2.922112226 -0.8872035742
-2.973919153 3.394688845 -0.8690069914
-2.936681747 3.353363514 -0.6993136406
-2.110389471 2.411527634 -0.3883322775
-2.151205301 2.459899187 -0.2821849287
-2.099709034 2.403551817 -0.05500818789
-3.007485867 3.429380417 0.07891798764
-2.996112108 3.418816328 0.2360363007
-3.007441998 3.434163809 0.3956616819
-3.01695013 3.446232557 0.557243228
-2.994755507 3.423291683 0.7137055993
-3.022651911 3.456397057 0.8842716813
-4.113883495 4.70753336 1.433384776
-4.168577194 4.773480415 1.686517
-2.409859419 2.76734519 -0.9716587663
-2.507499695 2.881500006 -0.8719069362
-2.736559153 3.145832777 -0.8022238612
-2.731272936 3.141970158 -0.6526961923
-2.722502708 3.134088278 -0.5045956373
-2.987019062 3.431329966 0.07870855927
-2.985470533 3.430761337 0.2361409962
-2.992822409 3.441633224 0.3953130543
-3.025130749 3.481241941 0.5611430407
-3.000925064 3.454602003 0.7180858254
-3.027980804 3.488208294 0.8896143436
-4.101709366 4.728467464 1.43518436
-4.149357319 4.785083771 1.685481787
-2.382494926 2.755281448 -0.9644118547
-2.47754097 2.866209984 -0.8647084832
-2.711444855 3.13902235 -0.7980260253
-2.720838547 3.151010275 -0.6526961923
-2.719874859 3.152117968 -0.5060580969
-2.969084024 3.433653593 0.07853403687
-2.970864773 3.438139677 0.2359316349
-2.978185415 3.449044228 0.3949644566
-2.99281621 3.467211485 0.557243228
-3.001749039 3.480015039 0.7212145329
-3.029217243 3.513099194 0.8934305906
-4.089822769 4.746472836 1.436534166
-4.137671471 4.80539465 1.687552214
-2.37712121 2.767563581 -0.9659647346
-2.492905378 2.904415846 -0.8737065196
-2.701020718 3.147996664 -0.7980260253
-2.707252026 3.157488346 -0.6520704031
-1.998146534 2.335397959 -0.05294880643
-2.962290764 3.450065374 0.0786736533
-2.962049723 3.451002836 0.2361409962
-2.964137793 3.455875874 0.3946157992
-2.980696201 3.477636576 0.557243228
-2.98505187 3.483948946 0.7199630141
-3.019490242 3.526633739 0.8941937685
-4.084632397 4.774044991 1.44058311
-4.116691589 4.813215733 1.685481787
-2.249607325 2.637676477 -0.9173067808
-2.478203535 2.906734228 -0.8719069362
-2.748583794 3.226148844 -0.8155804276
-2.941399336 3.45369029 -0.7118284106
-1.979623914 2.330167294 -0.05266956612
-2.956025124 3.465955019 0.07881326973
-2.947393417 3.458281994 0.2359316349
-2.967557907 3.484404802 0.3967075646
-2.976867437 3.496571541 0.5587056875
-2.990791798 3.515412092 0.7243432403
-2.972164869 3.494753122 0.8835085034
-4.063729286 4.781625748 1.438783526
-4.102365017 4.83050251 1.686517
-2.128461599 2.512461185 -0.8707193136
-2.447895288 2.89157033 -0.8647084832
-2.905277967 3.433067322 -0.8659541011
-2.936980247 3.472986221 -0.7137055993
-2.034375191 2.409915447 -0.1630799919
-1.962452888 2.326363564 -0.05242523178
-2.951661587 3.48540926 0.07902270555
-2.940464973 3.474646807 0.2363503277
-2.950840473 3.488141298 0.3960103393
-2.954392195 3.494812727 0.5567557216
-2.978503466 3.525829792 0.7243432403
-2.972615242 3.520105839 0.8873246908
-4.039473534 4.78684473 1.436084151
-4.090460777 4.850699425 1.688587546
-2.069936037 2.460740328 -0.8500138521
-2.189509869 2.604734898 -0.7756278515
-2.898329258 3.449198961 -0.8674805164
-2.919758797 3.477165222 -0.7124541402
-2.085371494 2.485249519 -0.3932070732
-1.947686076 2.32363224 -0.1566950083
-1.959457159 2.33933115 -0.05256485194
-2.945911169 3.503344536 0.0791972205
-2.937313557 3.495592833 0.2370830178
-2.942489862 3.502997875 0.396533221
-2.952385902 3.517267227 0.5587056875
-2.950943232 3.518044949 0.7205887437
-2.967878819 3.53948617 0.8896143436
-4.030248165 4.809879303 1.438783526
-4.085905075 4.879761219 1.693763971
-2.048949003 2.453124762 -0.8448374271
-2.155429125 2.582440376 -0.7666297555
-2.911425591 3.48944521 -0.8751128912
-2.912662745 3.493405819 -0.7137055993
-2.076683998 2.49251318 -0.3932070732
-1.947229624 2.339627028 -0.1573230326
-1.957672119 2.353844166 -0.05273937434
-2.919567108 3.496720791 0.07881326973
-2.94044733 3.524228573 0.2383390963
-2.920035839 3.501006365 0.3951387405
-2.940089464 3.527552605 0.5587056875
-2.953815937 3.546537876 0.7243432403
-2.942943096 3.534737587 0.8857981563
-4.013435364 4.823917389 1.438783526
-4.058966637 4.882108688 1.68962276
-2.045306683 2.466209173 -0.8469079733
-2.146402121 2.589947939 -0.7666297555
-2.906743288 3.508657217 -0.8774026036
-2.882815838 3.482248545 -0.7093254924
-1.940352082 2.346315145 -0.2626620233
-1.946685314 2.355647087 -0.157951057
-1.946896553 2.357580185 -0.05266956612
-2.908620358 3.508429527 0.0788481757
-2.929402113 3.536008358 0.2384437621
-2.906527281 3.509642839 0.3949644566
-2.927757025 3.53779459 0.5587056875
-2.941418886 3.556826353 0.7243432403
-3.005639791 3.635778666 0.9086952806
-4.012705326 4.857429981 1.444632292
-4.041901588 4.896246433 1.68962276
-2.03668499 2.473334312 -0.8469079733
-2.13734889 2.597424269 -0.7666297555
-2.901960611 3.52788043 -0.8796923161
-2.870641947 3.492290735 -0.7093254924
-1.929620624 2.349994659 -0.2623133957
-1.929581761 2.351620436 -0.1572183669
-1.946263194 2.373639584 -0.05287899449
-2.903980494 3.527825356 0.07905760407
-2.903083801 3.529245853 0.2372923791
-2.909442663 3.538235188 0.3970561624
-2.91539073 3.547991991 0.5587056875
-2.954055548 3.597605944 0.7306005955
-2.960544825 3.606792212 0.8987731934
-3.985839605 4.859353065 1.441033125
-4.041929722 4.931244373 1.69686985
-2.026816845 2.478932619 -0.8463903666
-2.882177353 3.528864622 -0.8774026036
-2.895905495 3.54820013 -0.718711555
-2.125747681 2.60642314 -0.4078314006
-1.998204231 2.450912476 -0.2729464173
-1.911268473 2.345954657 -0.1563809812
-1.926603794 2.366461754 -0.05256485194
-2.894180059 3.541036844 0.07912741601
-2.888220549 3.536263704 0.2370830178
-2.89455533 3.545282364 0.3967075646
-2.908008575 3.564298868 0.5596806407
-2.916515827 3.577274561 0.7243432403
-2.938014984 3.60492897 0.8957202435
-3.970084429 4.874746323 1.441483021
-4.019812584 4.939330578 1.694799185
-2.016934395 2.484492064 -0.8458727002
-2.864896297 3.532803535 -0.8758761287
-2.885988951 3.561357498 -0.7193372846
-2.121632814 2.619998693 -0.4088063538
-1.965394258 2.428792953 -0.2696344852
-1.914373398 2.366586685 -0.1573230326
-1.922102094 2.377838135 -0.05266956612
-2.886841536 3.557329655 0.07926703244
-2.893471956 3.568041325 0.2385484427
-2.87212348 3.542983055 0.3953130543
-2.913041353 3.596023321 0.563092947
-2.904010057 3.587434292 0.7243432403
-2.96740222 3.667053461 0.9086952806
-3.961620331 4.899183273 1.444632292
-4.002547741 4.95333147 1.694799185
-2.011450291 2.496381283 -0.8474256396
-2.869161367 3.564692497 -0.881218791
-2.892726183 3.596539259 -0.7243432403
-2.077646971 2.584070683 -0.4019816518
-1.928202987 2.39991498 -0.2656253278
-1.908187628 2.376701832 -0.1575323641
-2.012671471 2.507735729 -0.05542704463
-2.869388342 3.561155558 0.07912741601
-2.886008978 3.584343195 0.2389671355
-2.864115953 3.559695482 0.3960103393
-2.910425186 3.61854434 0.5650428534
-2.891470909 3.597548485 0.7243432403
-2.921978474 3.638106108 0.8987731934
-3.947297573 4.918228626 1.445981979
-3.98039794 4.961244583 1.692728639
-1.9966892 2.495845318 -0.8448374271
-2.84199214 3.55628252 -0.8766393661
-2.042160273 2.559083939 -0.3968631327
-1.903661251 2.386383772 -0.2633592784
-1.898634553 2.381787062 -0.1574276984
-1.982719421 2.488160372 -0.05483366549
-2.000798225 2.501874208 0.05521761999
-2.878467083 3.600636244 0.2393858135
-2.861621857 3.582123756 0.3974047899
-2.88475728 3.613673925 0.5626054406
-2.878895998 3.607619047 0.7243432403
-2.909260511 3.648284435 0.8987731934
-3.937391043 4.941123009 1.448681474
-3.97749877 4.993242264 1.698940396
-2.019205809 2.542130232 -0.8582960367
-2.839324236 3.578484535 -0.8796923161
-2.011354446 2.535878181 -0.5059606433
-2.000370264 2.52383852 -0.3902822137
-1.869342566 2.36021471 -0.2596987188
-1.88700664 2.383372068 -0.1571136862
-2.034818888 2.571909189 -0.05654400215
-1.98129642 2.494403362 0.05490347371
-2.856528044 3.601457596 0.3984506726
-2.875225306 3.626330376 0.563092947
-2.866284609 3.617647171 0.7243432403
-2.928839684 3.697925806 0.9086952806
-3.922194719 4.955679893 1.44913137
-3.962442636 5.010125637 1.69997561
-2.027516603 2.570045471 -0.8655429482
-2.106611252 2.672224998 -0.7756278515
-1.98660171 2.522708893 -0.5018933415
-1.954720855 2.48400569 -0.3829700649
-1.873823285 2.382060766 -0.2614418268
-1.870035172 2.378953457 -0.1563809812
-2.041104794 2.597511292 -0.05696285889
-1.983402371 2.515935183 0.1656967849
-2.839638472 3.604649544 0.3977534473
-2.872373581 3.648823023 0.5650428534
-2.001602888 2.543582201 0.5059606433
-2.915914297 3.708126307 0.9086952806
-3.896442413 4.958615303 1.445981979
-3.950581074 5.029314041 1.702046156
-1.989942908 2.540606737 -0.8531196117
-2.114557981 2.70067668 -0.7819264531
-1.989178658 2.543286324 -0.5047091842
-1.906132221 2.438860416 -0.3749266565
-1.858139396 2.379165649 -0.2603959739
-1.887947083 2.418201208 -0.1585790813
-1.995124578 2.557320833 -0.05591571331
-1.939610481 2.476346254 0.05420537665
-2.831947565 3.6208179 0.3984506726
-2.874928951 3.677094698 0.5679677129
-1.946497083 2.491402388 0.494071573
-2.903600693 3.717776299 0.9086952806
-3.894366264 4.989943504 1.451380849
-3.91874361 5.024794102 1.695834517
-1.983880043 2.550241232 -0.8541549444
-2.12186265 2.729580879 -0.7882251143
-2.300617695 2.960598946 -0.7205575705
-1.884221554 2.428247213 -0.3722455502
-1.852682233 2.388462305 -0.2607446015
-1.91131413 2.457844019 0.05364689976
-2.837037086 3.652216911 0.4008910358
-2.871814728 3.699652195 0.5699176788
-2.890606403 3.727888346 0.9086952806
-3.870957375 4.99580431 1.44913137
-3.91064024 5.050663471 1.69997561
-1.97260344 2.554093122 -0.8531196117
-2.109939575 2.733885765 -0.787325263
-1.853926897 2.406504154 -0.3678582311
-1.845548749 2.39649415 -0.2609189153
-1.862492561 2.420243025 -0.1578463912
-1.868505239 2.420181751 0.05266956612
-2.831570625 3.671564579 0.4019368887
-2.870999336 3.725378275 0.572355032
-2.877574921 3.737956524 0.9086952806
-3.860623121 5.018554688 1.451830745
-3.865907669 5.029055595 1.68806982
-1.967203021 2.56556201 -0.8546725512
-2.075494528 2.708749771 -0.7778773904
-2.457768202 3.208818913 -0.777418673
-2.812474489 3.67457366 -0.7262203693
-1.86239934 2.435035467 -0.3712705672
-1.843223214 2.410835028 -0.2617904842
-1.827357769 2.391813517 -0.1555436105
-1.833283305 2.391772747 0.05190166086
-2.857978821 3.735376596 0.572355032
-2.863341331 3.745093822 0.7399866581
-2.864510298 3.747977972 0.9086952806
-3.835985899 5.022706985 1.44913137
-3.782697201 4.95651865 1.659082174
-1.968766093 2.586248159 -0.8593313098
-2.080184937 2.734589338 -0.7832762003
-2.41090107 3.170496941 -0.7659701109
-2.787680149 3.66863966 -0.7230916619
-1.88509953 2.482627392 -0.3776077926
-1.837206244 2.420427799 -0.262139082
-1.797271252 2.369534731 -0.1536595076
-1.797070503 2.361557007 0.05109884962
-2.825709581 3.720038414 0.5684552193
-3.725414276 4.913392544 1.413589001
-3.726871967 4.918879986 1.642000079
-1.98535192 2.627011061 -0.8707193136
-2.051835537 2.716952801 -0.7760777473
-1.893151641 2.511384487 -0.3810201287
-1.827546597 2.42523551 -0.2619647682
-1.767363906 2.347074509 -0.1517754197
-1.959060192 2.602593899 -0.05616004765
-1.773146629 2.347073078 0.05064508691
-2.85573554 3.786936998 0.5772297978
-3.709413767 4.927923203 1.414038897
-3.708218098 4.928123951 1.640964866
-1.888057351 2.516483784 -0.8313788772
-1.994875908 2.659823179 -0.7576317191
-1.947775602 2.599857569 -0.507837832
-1.811908364 2.422028303 -0.2609189153
-1.734452724 2.319332838 -0.1495773047
-1.954751015 2.615824223 -0.05629966781
-1.74375236 2.32414794 0.0500168018
-2.843160868 3.796386957 0.5772297978
-3.700051308 4.94956255 1.416738391
-3.690993786 4.941037178 1.640964866
-1.875084162 2.516535044 -0.8293082714
-1.930349231 2.593538761 -0.6201920509
-1.936329961 2.603471041 -0.5072121024
-1.693010688 2.280471802 -0.1466464847
-1.916273594 2.582146645 -0.05542704463
-1.69619298 2.278105736 0.1466464847
-2.829892397 3.806287527 0.5772297978
-2.81256175 3.787116766 0.9086952806
-3.680430174 4.959317684 1.415838599
-3.6596241 4.93308115 1.63423562
-1.873182058 2.532383442 -0.8324140906
-1.917635798 2.593427658 -0.7346867323
-1.96795249 2.663420677 -0.6354568005
-1.719100595 2.329175711 -0.3503090441
-1.64992106 2.23707962 -0.239478603
-1.656994462 2.247491121 -0.1441343725
-1.715101719 2.328006506 -0.04977246746
-1.683892012 2.276479244 0.04872532189
-1.694166899 2.292042732 0.1471698433
-2.817255497 3.815650463 0.5772297978
-3.643151999 4.943258762 1.407740355
-3.642383099 4.945824623 1.63423562
-1.863887191 2.539232492 -0.8324140906
-1.645622134 2.245989084 -0.4343136251
-1.638610125 2.238057137 -0.3354409933
-1.649947166 2.254366875 -0.2406987846
-1.645993829 2.250612974 -0.1439250112
-1.687673926 2.308448792 -0.04921399057
-1.684602022 2.295826435 0.04900455847
-1.679847836 2.290184975 0.1466464847
-3.625295877 4.958783627 1.40819025
-3.629929781 4.96694088 1.636823773
-1.848186493 2.53635478 -0.8293082714
-1.646139383 2.261562586 -0.5354728103
-1.639327884 2.253031015 -0.4346264899
-1.644020915 2.261139393 -0.3381221294
-1.638554096 2.255277395 -0.2401758432
-1.638521791 2.256058693 -0.1439250112
-1.680779576 2.315944672 -0.04924889654
-1.689934134 2.319177628 0.04938851297
-1.690654278 2.321867943 0.1483212411
-3.61112237 4.973931313 1.409090042
-3.609167099 4.974889278 1.635270834
-1.647238016 2.276407003 -0.7413098216
-1.632998347 2.25838542 -0.6334587336
-1.624828935 2.247915745 -0.530893445
-1.634923697 2.263543129 -0.435565114
-1.633793831 2.263645411 -0.3376346231
-1.633399248 2.26392889 -0.2405244559
-1.638812423 2.273105621 -0.1446577311
-1.715934515 2.3818295 -0.05054037273
-1.672451854 2.312100887 0.04910927638
-1.689558506 2.337467909 0.1489492804
-3.589179516 4.980183125 1.407290459
-3.589520454 4.984323502 1.63423562
-1.612233281 2.244486094 -0.7288864851
-1.623968244 2.262489319 -0.6330088973
-1.616972923 2.253573418 -0.530893445
-1.624709725 2.266025782 -0.4349393547
-1.631663442 2.277402878 -0.3388533294
-1.62432611 2.267997503 -0.240350157
-1.636680126 2.286932945 -0.1451810896
-1.885582685 2.636668444 -0.05588080734
-1.664371371 2.317924261 0.04910927638
-1.665088534 2.320632219 0.1474838704
-3.585380793 5.011699677 1.412689328
-3.582212448 5.010966301 1.6388942
-1.614483237 2.264256239 -0.7335452437
-1.613798618 2.264970541 -0.6321091056
-1.618208647 2.271996737 -0.5339463949
-1.620225787 2.276512146 -0.435877949
-1.609143019 2.261773348 -0.3356847465
-2.699260473 3.796825647 -0.4038543105
-1.628686666 2.29263258 -0.1451810896
-1.883774996 2.652689934 -0.05609023944
-1.663234591 2.333489895 0.04931870475
-1.662019014 2.332648039 0.1479025483
-3.567611456 5.021974087 1.412239313
-3.554391623 5.007065296 1.633717895
-1.613663316 2.27905798 -0.7366511226
-1.609655857 2.275081635 -0.6334587336
-1.608397603 2.274144888 -0.5331831574
-1.649150729 2.33349371 -0.445889771
-2.686655521 3.805755138 -0.4038543105
-1.616470337 2.291492224 -0.1447623968
-1.961398959 2.781489849 -0.05870809779
-1.665884018 2.353682995 0.04963284731
-1.663503528 2.351189613 0.1487399191
-3.530719995 5.005113125 1.404141188
-3.529977798 5.007771492 1.630094409
-1.596097231 2.270173073 -0.7319923043
-1.597622037 2.27402854 -0.6316591501
-2.69080615 3.831470013 -0.9018261433
-2.674002647 3.810370445 -0.7306005955
-1.862688184 2.656243801 -0.3932070732
-1.624905348 2.319741726 -0.1462278068
-1.955116987 2.793234587 -0.05881281197
-1.667268991 2.372282505 0.04991208389
-1.657582521 2.36025095 0.1489492804
-3.481929064 4.972711086 1.391543865
-3.465961695 4.95358181 1.608353734
-1.589268208 2.277315617 -0.7325099707
-1.946372986 2.791098118 -0.7756278515
-2.677414179 3.840839863 -0.9018261433
-1.572817683 2.260461569 -0.2372125536
-1.612236738 2.318840742 -0.145809114
-1.646391869 2.360047579 0.04952813312
-1.644764304 2.359469175 0.1485305876
-3.434522152 4.941628933 1.379396558
-3.397957087 4.892661572 1.584542394
-1.593410015 2.300317526 -0.7382039428
-1.936619043 2.797874928 -0.7756278515
-2.647336245 3.828945637 -0.7306005955
-1.568965077 2.273496151 -0.1425642818
-1.627898932 2.35098362 0.04921399057
-1.635382295 2.363553286 0.1484259069
-1.796032667 2.598641634 0.3827263117
-1.742794991 2.523495913 0.4790538847
-3.372989416 4.889423847 1.361400485
-3.343577385 4.850414753 1.566942573
-1.587560177 2.309049129 -0.7392392755
-2.262646198 3.294630527 -0.7686414719
-2.633953333 3.838163853 -0.7306005955
-1.610238552 2.348176003 -0.3444592953
-1.592622638 2.32509613 -0.1454951018
-1.62987566 2.37148428 0.04952813312
-1.638429523 2.385710955 0.149472639
-1.95539248 2.850436687 0.4192870855
-1.718338847 2.50675416 0.4746737182
-3.386688232 4.942431927 1.156365395
-3.307457685 4.83041954 1.341604829
-3.288446665 4.806252956 1.548825383
-1.579489946 2.314577103 -0.7392392755
-1.917038918 2.811326981 -0.7756278515
-2.222380638 3.260331154 -0.7587193847
-2.62054038 3.847334146 -0.7306005955
-1.785209775 2.622914553 -0.3844324648
-1.588989139 2.337247849 -0.1459137946
-1.63398397 2.395330191 0.04991208389
-1.626716256 2.386465073 0.1491586268
-1.962387681 2.879989862 0.3011848629
-1.687355161 2.480072498 0.468416363
-3.258811712 4.795193672 1.328557611
-3.238005877 4.768157959 1.532778502
-1.574650288 2.324875355 -0.7407921553
-2.174681902 3.214409113 -0.7461259961
-2.609308243 3.859730721 -0.7312262654
-1.784932137 2.642290115 -0.3863823712
-1.591991782 2.359336615 -0.1469605118
-1.627855301 2.404330492 0.04998189583
-1.640758634 2.425214052 0.1512520611
-1.863030195 2.754790545 0.287239939
-1.638890266 2.42701292 0.4571530819
-3.202822685 4.748380184 1.312361121
-3.190029144 4.73297596 1.517766953
-1.564370155 2.327150583 -0.7397568822
-1.897365451 2.824641943 -0.7756278515
-2.141560555 3.189381838 -0.7384936213
-2.593617201 3.865535498 -0.7306005955
-1.597462893 2.383560181 -0.247322619
-1.515954256 2.26364994 -0.1405755281
-1.602722287 2.385102034 0.04945832118
-1.638963938 2.440875053 0.1518801004
-1.775676847 2.645476341 0.2750381529
-1.772843361 2.64324832 0.3856511712
-1.649104476 2.460614204 0.4624718428
-3.153706789 4.710948944 1.298864126
-3.132672787 4.683064461 1.498096824
-1.557310224 2.334203959 -0.7402745485
-1.887493253 2.831248283 -0.7756278515
-2.121705055 3.183767796 -0.7354406714
-1.512414217 2.272922993 -0.3300787508
-1.503064036 2.259726286 -0.2337263227
-1.495881557 2.250631094 -0.1394241303
-1.608811378 2.41230917 0.04991208389
-1.619358182 2.429960728 0.1508333683
-1.918865442 2.880484581 0.2990931273
-1.77240622 2.662640095 0.3876010776
-1.652538896 2.484448671 0.465913415
-3.322788239 4.997408867 1.158273578
-3.112438202 4.684597015 1.288516283
-3.076770544 4.634421825 1.478944063
-1.553418279 2.346069098 -0.7423450947
-1.527912498 2.310175657 -0.5301302075
-1.49812746 2.266860485 -0.4236761034
-1.489156604 2.254997015 -0.3266663849
-1.490382671 2.258567572 -0.2330290675
-1.481418371 2.245835543 -0.138796106
-1.597069025 2.412908077 0.04980736971
-1.610865474 2.43559885 0.1508333683
-1.93517077 2.927052736 0.3032765985
-1.960056782 2.966944456 0.4314740598
-1.696094036 2.569332838 0.4809311032
-3.052085638 4.628729343 1.270070314
-3.031877756 4.601577282 1.464967847
-1.550112844 2.359820127 -0.7449332476
-1.483689427 2.259559631 -0.6141129732
-1.478509307 2.253384113 -0.5156286955
-1.480060697 2.2574687 -0.4208602607
-1.473659873 2.248559237 -0.3249602318
-1.486855507 2.270424128 -0.2337263227
-1.468802929 2.244564772 -0.1383774132
-1.598518372 2.433510303 0.05012151599
-1.59358573 2.427850008 0.1499959975
-1.937542677 2.954117537 0.3053683341
-2.99562788 4.579545021 1.253423929
-2.992538452 4.576560497 1.453579903
-1.482786059 2.2745893 -0.7159455419
-1.473270059 2.261717081 -0.6132131815
-1.468491316 2.255241394 -0.5148655176
-1.479713202 2.274211168 -0.4230503142
-1.478789091 2.273658752 -0.3278850913
-1.477835774 2.273929358 -0.2335520089
-1.437027335 2.212827682 -0.1360746324
-1.411116838 2.17375946 -0.04453674331
-1.593954563 2.446054697 0.05026113242
-1.582921386 2.430050373 0.1497866511
-1.933739543 2.970882416 0.306414187
-1.710417271 2.630794764 0.4903171659
-1.662926555 2.559703827 0.5850831866
-2.954953671 4.550229073 1.242626309
-2.9323771 4.51891613 1.431839108
-1.46054101 2.256788015 -0.7086986303
-1.467878699 2.269862652 -0.6141129732
-1.468465686 2.271639585 -0.517536819
-1.472164035 2.279105425 -0.4230503142
-1.468011379 2.273546934 -0.3271538615
-1.467046976 2.273794651 -0.2330290675
-1.412366271 2.190722227 -0.134399876
-1.579317927 2.441252947 0.05005170777
-1.579193115 2.441994429 0.150205344
-1.91306448 2.960543871 0.3046710789
-3.137767315 4.865128517 1.117058754
-2.912395 4.517417908 1.230928898
-2.890174866 4.486390114 1.418380499
-1.453048468 2.261619329 -0.7086986303
-1.45613277 2.268158197 -0.6123133898
-1.463044643 2.279801846 -0.5183000565
-1.461398721 2.278986692 -0.4221117496
-3.234758615 5.050279617 -0.520991683
-1.382483363 2.16006732 -0.132201761
-1.562568188 2.433016539 0.04977246746
-1.611649513 2.511366844 0.1541828662
-1.903235674 2.966872215 0.3046710789
-1.688208818 2.635722637 0.4890657067
-3.072919369 4.799451828 1.099504352
-2.860899687 4.471744537 1.215632081
-2.846401215 4.452505112 1.404404283
